18.639977 282.277830 -27.304611 0 0
-0.238339 444.250180 118.388150 27 1
-55.612148 442.497710 94.892883 28 1
-29.687424 164.164760 28.372406 0 0
-7.016658 511.535460 -105.621350 32 1
-97.554482 457.107030 -48.059803 40 1
-122.625610 458.531160 97.258797 28 1
76.365685 468.080840 106.498150 37 1
105.214390 159.003280 -15.677988 47 1
19.352261 190.166470 0.597011 0 0
63.460667 274.939640 68.915298 61 1
-9.271657 379.707400 135.764530 22 1
-48.043346 482.545560 58.176941 26 1
-62.825230 538.054200 71.658539 10 1
-63.550400 220.591600 33.829315 0 0
-17.824968 362.572140 208.720280 19 1
-75.642326 359.225620 -93.619560 71 1
-38.665474 323.777010 -1.706652 0 0
25.832069 476.582060 59.492409 25 1
-171.578550 262.622070 -35.684052 58 1
74.528625 237.595410 17.239515 65 1
-3.748829 108.669640 -23.781532 0 0
121.379680 473.796020 -40.689152 31 1
40.770336 436.287260 -63.641632 70 1
86.103409 467.723660 -12.970202 33 1
120.029140 190.619280 107.641310 5 1
33.065628 244.284060 -44.064789 64 1
-65.539520 371.890690 86.883141 0 0
-28.369194 321.825320 136.900280 0 0
145.251570 425.666440 -120.531870 16 1
-18.694136 393.065670 75.971008 0 0
173.554960 330.098050 13.668221 45 1
18.483479 143.140750 -41.274616 0 0
-65.821571 286.967010 -83.524139 60 1
8.445013 482.227260 -19.204927 0 0
-162.584370 151.606310 -11.941062 7 1
-107.684680 273.693390 7.039480 59 1
27.571533 266.637790 27.655466 0 0
221.367160 432.868040 -9.490664 30 1
22.160578 336.677610 2.445672 76 1
94.446602 306.925780 -2.530828 0 0
35.428932 96.256248 41.208359 49 1
41.156445 278.692200 -88.244804 3 1
-194.167210 300.482360 -35.558910 67 1
-9.539259 161.138170 120.426190 53 1
-33.039059 466.958040 -82.747154 39 1
-65.581299 503.019470 138.495120 10 1
-62.191319 373.570400 137.035100 22 1
-83.052689 293.749050 -46.636387 59 1
-82.499229 209.264080 -2.058404 0 0
-5.044045 203.717360 94.704697 53 1
-13.274672 55.675804 -0.190741 0 0
-133.156330 161.655760 19.979202 7 1
-110.658430 178.709840 70.278015 6 1
92.469749 492.818270 47.118961 36 1
-23.760611 118.369210 10.879255 0 0
-29.499496 158.787030 -22.055056 0 0
89.505882 505.604980 -130.718640 15 1
42.082798 510.307190 -71.786652 33 1
-142.709290 392.396550 66.064613 29 1
92.508751 430.011900 -52.751057 76 1
-42.071251 488.210510 9.505290 38 1
-23.382486 428.245670 52.213940 0 0
101.767260 272.879330 -127.774480 4 1
162.254070 435.965700 -35.999294 30 1
-91.029953 329.783230 35.717560 75 1
-11.025810 308.955900 -28.716232 0 0
92.093254 284.826200 35.142830 0 0
55.846298 196.415010 69.804665 53 1
-50.140343 412.848790 16.576094 0 0
-18.322140 384.389980 -44.192318 0 0
111.699890 436.490720 47.298649 35 1
-22.859650 94.520973 84.182327 21 1
26.194361 463.354160 96.393234 27 1
2.708505 446.001770 -5.529408 0 0
-31.856079 379.167570 30.291792 0 0
-106.074070 366.603150 184.379780 17 1
-86.627136 394.984160 115.512850 29 1
39.181530 376.050600 -21.349531 76 1
-15.291412 271.952000 -8.396102 0 0
-67.658478 463.215270 172.462130 13 1
144.981460 363.689760 -155.021070 16 1
-3.911176 369.697420 2.818480 0 0
-5.646900 528.829160 34.149078 11 1
22.409502 496.200900 -124.859210 32 1
1.718139 470.780400 -99.245712 39 1
-41.221924 198.358340 161.256440 21 1
-70.111145 117.443030 61.876472 21 1
12.801017 232.835920 37.690842 0 0
-58.576500 183.266220 12.756546 0 0
1.729772 450.214110 -65.099899 70 1
-153.761180 310.621060 23.105753 77 1
76.942940 459.173610 -93.369011 16 1
-161.242970 122.386220 61.489483 8 1
20.169014 577.720280 -68.843895 12 1
-75.110313 279.805820 27.585226 59 1
34.609451 537.551390 55.658291 23 1
-16.200489 235.339950 111.193950 55 1
-7.800838 380.162480 173.060500 20 1
127.910980 161.855730 13.723125 54 1
-58.054482 193.044850 103.955250 0 0
-20.678148 409.175900 -74.562218 71 1
-129.761340 395.524780 128.266980 17 1
23.212339 530.938540 -12.519821 0 0
-84.203209 425.116730 76.673706 28 1
-7.352963 121.554620 44.418251 51 1
-104.321330 352.392700 61.744205 73 1
-51.970119 346.999420 -27.532122 74 1
73.089760 175.393690 -35.048672 48 1
-118.331910 533.845150 16.865086 9 1
-54.745544 402.056430 -44.550102 0 0
161.224810 342.084530 -18.738634 45 1
-147.538590 320.755800 -11.071869 77 1
80.808899 363.793730 -23.847330 0 0
-16.385176 185.004170 -0.445211 0 0
-145.106610 285.010740 -44.321835 58 1
118.236980 468.328920 -76.633293 31 1
50.524033 575.563050 -23.434217 1 1
37.405151 310.264740 -15.774477 0 0
171.680600 309.391110 68.795578 45 1
29.699127 239.152130 82.675461 57 1
-78.545830 470.581850 132.736890 13 1
-10.365531 574.106320 -41.423134 12 1
-8.932441 191.949170 61.109093 0 0
78.194916 490.539550 79.441734 37 1
38.491024 144.864640 -3.891326 0 0
36.781685 210.154650 24.007092 0 0
-86.588593 460.734310 99.892174 28 1
121.021890 472.836820 49.644226 36 1
14.219033 116.153410 17.856371 0 0
71.907433 218.818310 -11.636165 65 1
-117.765980 274.425510 -26.160666 0 0
-72.036774 331.286830 6.992050 74 1
-93.674225 143.177610 20.039619 0 0
-65.978508 239.773440 -8.054913 0 0
82.349243 511.730010 -82.327087 15 1
19.527401 155.015880 28.069630 0 0
47.301636 366.730710 194.052250 20 1
-36.342171 514.443540 64.472610 11 1
114.400820 449.548860 6.576710 35 1
104.709790 483.305850 117.495340 37 1
-79.893059 339.788210 -46.621784 74 1
-125.509220 324.848690 -67.041779 78 1
-125.777850 434.705540 121.060670 28 1
81.085770 443.481290 82.781616 24 1
-38.468090 221.899200 135.808440 21 1
-19.680771 323.079620 34.535526 0 0
-78.581322 168.353210 65.699570 6 1
-0.612077 413.399380 -13.329629 0 0
149.395610 450.341430 -7.647736 35 1
-136.159380 325.295500 47.573811 73 1
-91.306091 203.337430 161.084980 21 1
123.620390 488.398440 -126.324180 15 1
234.192640 340.932500 -14.615008 34 1
-165.995300 257.471800 2.871597 58 1
-50.164185 87.837013 16.971630 0 0
93.778290 180.680800 7.046114 46 1
13.388819 359.681950 189.396730 20 1
98.089760 389.426150 -10.491540 0 0
77.587540 491.977870 -34.051155 33 1
107.239410 210.942320 31.494158 54 1
59.309422 271.138460 35.806274 0 0
35.371067 277.939030 86.896309 62 1
137.170850 452.886960 -98.913216 16 1
-43.449398 160.857060 58.249199 0 0
2.294840 219.106510 5.380145 0 0
-51.748936 326.602450 60.299580 75 1
67.934097 259.274540 -93.420509 3 1
-66.878174 487.041320 31.606852 26 1
7.244934 168.872250 -24.237364 0 0
37.922482 207.822460 -58.133228 0 0
-47.266510 351.306090 199.738720 18 1
-69.872093 384.074370 37.302555 0 0
-12.532091 428.846250 92.206131 27 1
18.096771 432.965700 -87.619019 70 1
-81.562317 224.298340 111.498190 21 1
-34.934994 292.413210 9.742749 0 0
-1.382402 180.394740 28.158144 0 0
-30.105158 216.968920 2.451074 0 0
16.359123 562.258850 -2.995165 23 1
-54.241901 468.704930 -156.005720 41 1
20.175446 258.140750 58.173409 0 0
-35.124908 271.239900 -81.936104 60 1
-74.337662 307.097630 105.760980 75 1
31.820446 466.654570 -57.197189 43 1
-35.471214 114.579190 -22.507061 0 0
179.183760 344.357270 -61.381073 56 1
-30.548763 453.606870 112.626770 27 1
175.684910 490.398650 80.950630 14 1
-10.374628 336.802640 6.485727 0 0
-37.885559 267.102080 92.121056 0 0
46.575336 414.205540 -40.986431 72 1
-70.940750 516.780270 47.969624 9 1
8.582973 334.870060 112.604580 52 1
-151.069930 165.620070 -38.392937 7 1
-44.478981 286.341770 -24.570402 59 1
111.422830 257.111510 -94.107788 2 1
18.541149 499.404880 -90.623962 32 1
79.863419 434.380770 45.585129 76 1
14.317670 260.738800 -4.104939 0 0
15.241624 192.706210 120.460630 53 1
-14.721517 87.503876 4.298392 0 0
66.862633 208.866150 101.705600 5 1
-7.205750 252.165700 22.211306 0 0
-66.449059 466.828670 -54.235504 40 1
-75.839211 430.950810 20.704336 0 0
33.531734 283.492280 -126.815740 3 1
-22.143536 389.835020 -13.592375 0 0
-101.589450 207.796620 129.208890 21 1
113.756650 418.296200 -126.226850 16 1
-103.314080 471.386540 -75.027199 40 1
48.636932 326.737880 97.040062 66 1
53.782101 472.281430 85.009270 24 1
-73.336601 361.551850 179.413130 18 1
-41.035976 116.772670 72.404579 21 1
202.765960 341.176450 13.111338 34 1
-101.610470 312.649930 88.947258 75 1
0.551224 339.005160 65.590843 68 1
-198.705550 315.409420 -62.065205 67 1
-28.897844 356.593140 155.493160 22 1
-121.781160 189.544980 14.408020 7 1
-48.149902 350.055790 10.810516 74 1
28.177124 511.577270 70.480309 11 1
-127.423650 375.993650 164.647260 17 1
137.704410 449.302340 -49.163326 31 1
-159.225510 153.666470 33.924110 8 1
75.839951 221.790820 55.325092 54 1
97.080368 286.337100 -24.742201 0 0
30.065561 212.586790 68.165543 53 1
-71.191254 516.748410 109.358710 10 1
63.915627 551.895320 32.321377 23 1
-25.261522 430.783870 13.813875 0 0
89.853310 184.915730 61.086800 46 1
50.825985 249.239010 -20.099773 0 0
-38.058228 190.550660 40.489170 0 0
64.889320 489.649690 -71.594933 33 1
-41.964401 454.926360 71.152809 27 1
37.173199 279.185730 2.237972 0 0
-83.314095 447.262790 193.570420 13 1
101.044640 452.020570 -34.406422 35 1
65.894928 268.714390 98.131310 62 1
69.192780 519.955990 82.563820 23 1
62.192127 413.809270 -5.085268 72 1
-63.663002 250.383210 32.538097 0 0
127.419470 461.243500 -137.787220 15 1
-82.181961 252.574970 64.834427 59 1
-90.191849 476.807130 159.535320 10 1
-90.152138 273.518070 -16.494612 59 1
-13.607588 196.415050 170.726150 21 1
-23.951471 258.111210 57.948536 0 0
120.259090 190.735900 13.823015 54 1
-167.055980 308.978060 -29.285852 67 1
-10.534528 142.602890 24.544193 0 0
-16.990866 206.331920 -22.678299 0 0
-74.193420 382.665440 -76.645401 71 1
-122.380330 175.085560 44.084118 6 1
-125.553070 273.870820 31.681105 59 1
-56.490948 304.723480 -43.734974 60 1
-131.013400 385.363800 91.615448 29 1
-72.471375 478.278380 -134.246600 41 1
-28.200647 416.112820 -47.617874 71 1
-49.892097 354.118290 70.039185 0 0
21.029980 353.750920 -21.634558 76 1
-45.808716 482.800110 -18.399759 38 1
-33.273468 144.739620 2.593258 0 0
-98.202904 323.408290 62.723381 75 1
6.364456 480.120240 9.180431 25 1
10.556923 231.194460 102.235370 55 1
174.979130 319.060550 41.342915 45 1
-36.713226 386.531950 138.762860 22 1
-57.253105 463.122130 115.460810 27 1
-98.204826 510.019960 119.001470 10 1
-34.452000 276.792450 34.265957 0 0
-107.030170 370.586180 94.956551 29 1
-76.880730 396.735600 -26.063477 69 1
41.684120 238.015640 25.687296 63 1
-63.503265 459.429230 52.682114 26 1
-25.724047 349.824550 53.507172 0 0
-48.660305 328.736050 30.141760 75 1
95.665085 460.584630 54.197235 37 1
12.245800 322.234680 -19.462938 76 1
56.486565 458.597960 -70.138733 43 1
160.798230 359.652710 -75.881340 56 1
80.461472 278.402100 -144.926500 4 1
-76.082962 402.365140 90.628731 29 1
-77.686256 393.807800 157.557140 17 1
-136.310360 525.531070 36.722805 9 1
93.100937 490.575260 4.849789 36 1
-108.592930 418.021760 65.277733 28 1
-30.739510 398.328120 51.464611 0 0
215.412540 437.023500 -36.522415 30 1
113.891070 468.076390 -14.539429 36 1
18.292952 506.183260 -58.170879 32 1
-96.607506 317.780030 -48.709553 78 1
19.864916 118.122730 48.327534 49 1
243.074300 420.697200 -21.476786 30 1
21.448423 318.909450 69.120430 0 0
-16.128826 132.965680 -15.537910 0 0
150.743380 339.653930 25.867943 45 1
-70.890511 357.602570 -3.578298 74 1
-38.342091 533.752260 84.043030 10 1
106.751700 413.312410 -29.761391 0 0
52.910683 563.071660 1.787959 23 1
59.628262 381.403630 173.702850 20 1
-31.541807 356.635470 -10.110737 0 0
178.754300 457.724880 -30.511360 30 1
17.641136 482.278690 34.097111 25 1
105.471890 185.444700 130.141660 5 1
-1.357977 478.263460 58.785568 25 1
-143.625270 311.612210 -51.647079 67 1
3.707959 276.893280 19.126484 0 0
-77.341232 277.629520 55.553928 59 1
54.170509 230.335680 90.320129 57 1
139.179600 354.480770 -28.895281 56 1
-35.329475 474.864040 34.540447 26 1
-47.028786 414.259830 -69.048218 71 1
-51.607883 418.667720 82.868614 0 0
-43.921436 380.664430 -31.019855 0 0
250.301510 323.403530 -2.062430 34 1
-55.439041 465.259860 -97.622719 41 1
-171.857440 106.039310 41.493813 8 1
-66.700516 198.409960 170.524430 21 1
67.618813 467.239230 -32.418697 44 1
-56.226711 215.106280 -4.942659 0 0
99.544022 452.438690 -65.426826 44 1
-97.716492 352.905120 24.099960 75 1
96.117500 202.354480 106.393530 5 1
34.772495 512.700200 -107.955070 32 1
75.575768 199.845460 10.127007 46 1
5.780071 219.701030 76.047638 53 1
10.903937 202.158940 36.744946 0 0
-49.021488 234.796540 50.695953 0 0
-1.218174 69.527122 18.952637 0 0
-36.998203 138.846690 27.973961 0 0
17.930508 505.020690 -10.186258 0 0
39.772038 275.097960 53.948990 0 0
-58.864716 425.675350 -17.112211 0 0
126.647160 477.011930 -102.113780 31 1
-128.573810 289.680330 10.991530 58 1
10.220216 207.320820 -16.981415 0 0
14.678340 521.491210 50.163166 11 1
-48.104778 376.582550 50.629467 0 0
-1.606842 511.050480 -78.777252 32 1
16.161095 471.519100 -77.503555 43 1
37.068882 553.005370 -16.287729 23 1
115.899670 304.143950 -22.041941 0 0
146.863950 402.114350 -132.166760 16 1
-22.790041 361.474670 183.144650 18 1
-86.780899 525.006040 28.956482 9 1
23.658827 428.100070 -34.485104 72 1
72.715462 263.315060 15.068136 0 0
-0.707112 365.457890 -44.050491 0 0
109.970330 200.935910 58.419037 54 1
-18.937107 296.920530 29.680420 0 0
6.393018 448.064670 90.178123 27 1
-13.991279 182.879560 107.351390 53 1
150.328960 429.088930 45.684711 35 1
25.923130 179.407550 22.999933 0 0
-0.627256 424.992490 -71.707367 70 1
18.302502 295.134430 -5.106486 0 0
75.157433 582.625730 -25.300619 1 1
79.844894 505.162750 -106.995480 15 1
113.643050 259.235810 -68.696838 2 1
171.634920 455.444180 -55.000454 30 1
186.116880 491.763030 57.692516 14 1
-0.051358 216.895080 120.548560 55 1
78.731491 186.812740 -12.604683 48 1
-140.943590 162.630340 -4.272786 7 1
72.376793 421.457280 -39.721268 76 1
44.740204 395.940090 28.811512 76 1
92.862770 159.284320 -37.871986 48 1
-67.183472 457.927280 78.364594 28 1
-39.087429 169.419950 1.239641 0 0
25.218462 446.137630 115.626990 27 1
-27.928917 401.591740 8.154163 0 0
180.934040 349.198330 -1.202149 34 1
-126.599910 203.386400 113.717280 21 1
-22.274385 173.014140 50.870136 0 0
-80.115959 426.880920 208.095520 13 1
11.726905 507.184840 88.947289 11 1
-133.033070 294.884670 -21.296152 58 1
9.818397 452.605100 65.078972 25 1
-69.512054 440.221370 115.568950 28 1
125.092290 168.752930 119.227600 5 1
8.226816 121.511740 -5.806625 0 0
-116.645040 346.800630 195.550900 17 1
138.686310 461.388550 -27.386635 36 1
-10.685411 163.155790 10.424588 0 0
97.848755 477.132110 -33.278320 36 1
96.742920 459.539310 117.963410 37 1
-16.165581 502.556550 -127.388910 32 1
-19.664654 248.552830 0.651897 0 0
45.229633 193.156250 46.614738 0 0
-116.686100 453.399840 -63.807762 40 1
8.276884 472.155090 81.593811 27 1
-60.704391 534.500180 16.874434 9 1
147.361850 336.562380 1.128290 45 1
-124.767590 254.756960 47.900719 59 1
124.118840 452.335330 32.396881 35 1
-104.778220 441.550990 58.292992 26 1
-75.549026 332.144290 55.853039 75 1
117.320290 138.841430 -7.696038 47 1
-25.602272 310.375890 114.981160 0 0
84.727448 285.008180 77.019371 61 1
55.795288 493.286500 -48.657799 33 1
-105.537450 399.677310 131.227480 17 1
-50.420033 449.814580 -78.333847 71 1
22.714840 244.836230 -21.014095 64 1
83.637955 265.489170 -112.741280 4 1
47.540279 580.973330 -47.555347 1 1
-62.642864 386.300810 115.330300 22 1
133.982300 490.509980 61.426521 36 1
-26.572182 298.346890 -12.700715 0 0
10.022483 354.132450 15.753819 76 1
-81.265556 476.752320 48.632717 26 1
3.509774 94.186615 22.611479 0 0
-19.586653 328.393070 -16.482159 0 0
40.935043 287.056370 29.495419 0 0
-84.570724 540.852600 82.431473 10 1
-83.377579 458.142400 -69.549599 40 1
-84.089561 472.274110 -104.373050 41 1
-47.022392 454.872070 183.453700 13 1
180.204970 355.514100 -26.075886 34 1
-111.433830 156.646410 29.723043 0 0
55.699879 214.620540 40.789875 54 1
-73.263100 413.108000 36.950142 0 0
57.150757 234.332370 -0.266681 65 1
-2.184096 329.213230 -38.648205 0 0
-102.060620 292.097470 -31.389692 59 1
1.691120 567.684750 -21.459005 12 1
19.716398 462.964810 -8.077572 0 0
26.518717 409.844180 -53.743286 72 1
51.961868 338.479610 76.348892 66 1
200.350880 447.389830 -20.954121 30 1
87.066925 224.153560 32.673603 54 1
62.543404 292.966740 45.235371 0 0
-25.551115 363.614650 12.037092 0 0
83.275528 297.690860 16.968130 0 0
-68.291153 315.708250 34.429214 75 1
-110.839420 465.527470 154.259510 10 1
-164.875490 310.011540 1.457794 77 1
20.891088 546.574890 37.900028 23 1
-89.598183 377.538540 170.359770 17 1
-9.227357 469.319730 -77.700294 39 1
-109.081720 459.253970 77.495857 28 1
101.349680 458.089510 -90.731323 16 1
-64.901459 463.359440 26.947704 0 0
-59.123775 329.420290 -12.901011 74 1
50.007389 528.976990 71.634903 23 1
-39.815037 195.207570 4.368783 0 0
-112.291820 291.073730 -8.503600 59 1
-28.548307 246.068190 77.893761 0 0
91.539482 383.598270 -32.547745 0 0
-159.155700 280.696110 -25.734758 58 1
26.545446 164.678020 -46.837975 0 0
-82.436554 273.732600 5.924451 59 1
17.716230 433.910430 -58.891026 70 1
-5.253625 124.864460 67.743950 50 1
92.831100 481.284640 95.516655 37 1
-104.948230 449.483150 109.948030 28 1
-26.775919 447.449650 89.761032 27 1
-56.847263 289.065770 -61.851902 60 1
-29.338898 320.839570 64.573952 0 0
65.729187 377.213410 -36.516918 0 0
-24.316427 187.967700 21.467798 0 0
-63.456535 378.668120 -98.666443 71 1
-45.953892 199.598040 138.328770 21 1
49.109741 475.358400 61.961769 24 1
-54.664860 435.316130 10.968217 0 0
-24.635712 518.656980 44.611092 11 1
-17.440321 370.661040 46.771374 0 0
32.102367 189.830230 -37.551842 0 0
-46.031757 468.464780 164.421300 13 1
13.589143 124.129590 -28.429039 0 0
-23.455708 211.058170 152.905150 21 1
27.793591 211.839140 -1.449603 0 0
-124.428220 345.008270 52.498066 73 1
101.752410 490.021450 -118.359720 15 1
4.881886 367.425200 210.437990 19 1
8.152734 241.680510 8.220101 0 0
-33.755363 100.196730 0.122102 0 0
-141.435360 445.796080 107.995790 28 1
-9.695733 374.808140 24.977022 0 0
-17.239361 284.098360 -28.447544 0 0
-59.567921 528.815610 93.341003 10 1
-107.315390 392.500730 104.757450 29 1
1.194702 350.314420 -9.731953 76 1
-51.022404 203.675600 24.199957 0 0
97.078224 188.409150 28.945566 46 1
7.950508 185.303730 99.745079 53 1
-50.438213 502.134980 37.490131 26 1
-89.237602 234.800490 -0.752061 0 0
-51.035358 161.589800 19.989662 0 0
-21.252573 451.054440 54.905922 0 0
11.968921 168.398570 0.864037 0 0
-30.616085 336.749020 17.416508 0 0
142.117400 402.068570 82.474007 35 1
146.753080 385.569670 -148.029790 16 1
-34.721905 313.258150 20.304436 0 0
30.923103 488.819920 -74.265076 42 1
123.530700 425.386780 63.698750 35 1
-57.799950 221.687450 122.550960 21 1
-49.742470 399.022190 -1.628152 0 0
-51.786003 527.688660 53.980103 10 1
131.366000 463.050080 -0.746395 36 1
67.842178 213.375960 79.245789 54 1
98.614502 497.828340 25.783995 36 1
133.962020 471.727690 -60.564114 31 1
60.465176 517.471130 -83.632568 15 1
-24.978823 205.292530 51.650970 0 0
-64.670723 400.264560 -66.050575 71 1
-25.039164 251.552950 36.141716 0 0
-4.713339 73.837029 -10.712485 0 0
27.308023 285.138060 -105.033490 3 1
-20.930801 472.076050 -101.113680 39 1
-0.109229 570.755860 -61.796349 12 1
108.192590 471.262540 -131.607600 15 1
10.016914 99.015968 -8.510459 0 0
-74.042709 351.511570 -28.164736 74 1
82.653793 490.239990 -55.940868 33 1
-64.580338 465.018490 150.218260 13 1
92.831955 226.185590 10.769362 65 1
-155.372940 162.230330 13.494996 7 1
1.771483 393.494320 -48.515884 72 1
128.016650 438.332210 -113.631840 16 1
-58.502663 288.020480 14.873708 0 0
-63.235485 493.681920 4.465385 26 1
-109.783490 259.432250 -11.508225 0 0
-40.630013 400.663090 74.231201 0 0
46.081200 538.712460 36.438541 23 1
54.147354 468.721890 -50.229107 43 1
-96.211723 175.457120 53.192650 6 1
-66.688690 291.515170 -28.756725 59 1
77.594734 397.647310 -6.947811 72 1
109.542950 490.828640 61.684380 36 1
14.022555 553.328370 17.353945 23 1
-71.124451 338.410710 28.467319 75 1
-52.066170 396.763760 32.771435 0 0
45.436699 271.442570 -108.983010 3 1
-54.510651 334.254730 81.077286 75 1
-3.153451 297.925420 -10.917013 0 0
54.710167 458.016110 -96.206528 43 1
13.034640 372.495120 171.055270 20 1
15.706897 315.113370 4.388601 76 1
59.357056 494.446960 -21.597641 33 1
198.634700 356.690830 -38.407967 34 1
-53.317215 472.906040 -76.004288 40 1
-44.916759 121.162060 5.058661 0 0
-99.130257 275.287780 27.360285 59 1
73.964195 464.093600 79.225136 24 1
-82.217514 255.027130 -7.473861 0 0
-77.207436 395.714540 135.424680 17 1
24.273043 454.103700 -88.320473 43 1
-16.682831 314.215940 0.364844 0 0
6.404205 321.505710 130.277860 52 1
-123.391120 402.592990 70.647476 29 1
-4.032988 109.100520 7.826085 0 0
-64.686951 477.413210 -113.425200 41 1
-31.281643 223.124210 -23.662340 0 0
-14.279515 249.560520 94.471115 55 1
33.768925 248.434690 43.939571 0 0
-16.501801 270.479950 13.462186 0 0
-98.830391 245.776990 49.039913 59 1
-134.061720 313.016110 4.377095 77 1
-86.090553 497.164430 132.078640 10 1
7.758526 236.503620 59.274158 0 0
44.639885 264.320500 72.372009 62 1
112.939810 171.901730 1.205431 47 1
-7.760219 437.479740 65.444847 0 0
-91.703934 343.118500 5.523143 74 1
1.502106 489.735260 -126.835250 32 1
29.057907 334.114960 105.167340 52 1
32.958633 476.427520 80.116829 24 1
116.148660 452.026490 -50.630581 31 1
-8.784443 155.378300 -16.324694 0 0
-46.872288 368.203920 151.553310 22 1
54.496216 242.347600 -96.920898 0 0
-53.944805 512.906010 123.021000 10 1
-154.238040 144.978680 -30.887522 7 1
138.227740 469.750430 -85.112526 31 1
37.697639 332.205630 -11.941776 76 1
73.510605 344.623500 -16.960802 0 0
-7.769674 391.387730 2.486451 0 0
-181.727360 311.887850 -49.166992 67 1
-212.100040 296.340790 -47.104996 67 1
-10.432538 455.094670 102.751530 27 1
-15.405889 229.845550 11.614531 0 0
-97.547104 336.700780 -34.625301 74 1
-161.584530 255.104350 -18.126698 58 1
-17.758682 479.943730 72.653061 25 1
-163.514240 135.426670 44.465866 8 1
14.663295 137.760010 16.284883 0 0
51.055504 393.860780 -26.335428 76 1
-141.353940 164.055390 39.612240 8 1
107.751040 470.839390 -58.141304 31 1
-78.814224 149.966130 78.037125 6 1
28.331894 468.184540 -104.693720 43 1
-73.236290 487.561770 152.189650 10 1
-94.569511 171.128620 82.168533 6 1
90.282761 260.521820 -92.007942 2 1
-62.951790 406.053410 107.225770 22 1
32.631435 409.207920 -25.614706 72 1
217.533340 337.291020 -1.807368 34 1
-143.200060 311.489870 -29.991756 77 1
-65.279442 436.694700 76.832016 28 1
-21.669909 137.254940 43.222229 0 0
-7.898176 103.118650 71.681412 50 1
-11.886814 369.445040 155.157730 22 1
-123.693260 387.711940 147.080990 17 1
-22.826893 485.437770 -80.470230 39 1
169.338390 347.261960 -42.511791 56 1
14.358860 427.060790 -6.994094 0 0
101.989990 472.809080 135.740600 37 1
94.129616 212.028950 48.578426 54 1
-38.889893 346.267270 36.953571 0 0
129.794690 430.111570 37.637936 35 1
14.668695 217.613630 22.759487 0 0
50.790836 215.822510 62.709461 53 1
107.223340 273.530330 -148.182690 4 1
-57.464035 270.538060 34.574341 0 0
77.857712 202.099610 63.705921 54 1
15.758667 209.521760 92.531326 53 1
2.249088 184.204480 -10.291928 0 0
-106.539280 344.501740 41.278423 73 1
-78.216415 292.931490 -67.576355 60 1
-21.395212 336.466950 150.318120 0 0
-126.380780 362.350950 180.732350 17 1
-1.074730 179.819340 124.888620 53 1
-20.283201 217.896710 126.011800 55 1
-38.289234 270.275450 70.333778 0 0
-33.737202 98.291145 24.752995 0 0
107.568020 480.022520 35.294136 36 1
51.589615 257.841610 50.018410 0 0
54.213078 280.112270 14.276943 0 0
-44.620968 421.549530 -1.566307 0 0
-49.942593 186.985140 -37.677113 0 0
38.197819 437.855650 -84.269958 70 1
51.168518 204.906140 88.409019 53 1
-1.270115 465.737730 -10.848271 0 0
5.792789 279.022550 -9.283793 0 0
158.302350 453.851560 -26.128643 35 1
33.103157 366.337070 178.853260 20 1
-4.277702 254.702480 -12.091196 0 0
91.628059 173.675570 -22.194452 48 1
105.766490 476.147250 -100.049360 31 1
102.618120 492.495670 -140.283260 15 1
-95.599655 397.768250 -34.783199 69 1
28.598686 573.181700 -50.026600 12 1
-24.830029 530.076600 26.690466 11 1
36.809254 497.295170 -56.355854 33 1
11.124423 246.485380 88.442856 55 1
-82.298615 260.543580 28.832027 59 1
-40.723339 382.893860 12.082018 0 0
-4.212695 129.774410 9.741179 0 0
-102.773690 298.091090 -51.032181 59 1
103.374020 472.954320 2.431131 36 1
40.159637 448.712520 100.276340 27 1
-109.627820 339.035060 76.413254 73 1
-16.033442 465.962890 41.810490 25 1
-68.170258 358.375180 61.754101 0 0
-33.578369 404.780490 -90.404648 71 1
-2.559103 260.171690 62.516102 0 0
-65.730522 201.800260 7.720798 0 0
142.839230 333.169770 -18.604591 0 0
-138.022600 179.523330 7.147307 7 1
-159.102780 276.320470 10.697456 58 1
-55.512180 183.746310 85.981873 0 0
-62.464016 119.030490 81.490433 21 1
-19.296705 109.473950 -10.724925 0 0
134.413670 443.804600 5.200235 35 1
51.828865 418.509190 -21.865374 72 1
-83.780037 446.023380 78.810196 28 1
146.066220 353.587340 -9.778383 45 1
-32.129543 265.789460 1.028617 0 0
-38.268742 321.065860 45.732327 0 0
8.330908 498.628940 -109.979710 32 1
132.749150 470.901000 -120.817360 31 1
80.360130 279.007230 58.197365 61 1
23.686108 433.742610 -107.013870 70 1
-23.171926 179.868470 69.838669 0 0
-69.351936 260.188930 49.295376 59 1
-47.445690 422.269620 -46.932598 71 1
-24.770332 448.654080 23.250818 0 0
-128.652240 316.247040 -16.912418 77 1
-87.438004 212.900600 142.583050 21 1
-53.031811 299.917940 -12.477360 59 1
110.095500 200.292310 92.116127 5 1
-67.985695 417.290220 7.921862 0 0
-7.764520 338.133480 84.124352 68 1
-9.536246 162.407530 31.596008 0 0
75.235817 276.188840 -84.317955 2 1
132.606580 176.842290 26.097427 54 1
-3.369840 358.341130 178.048450 20 1
131.640340 410.443600 -122.292810 16 1
20.444824 356.114690 -1.875189 76 1
-53.050495 386.737120 97.902206 0 0
11.654269 198.538280 16.917059 0 0
-149.601120 171.997650 -19.614069 7 1
-34.386333 235.935440 11.698311 0 0
-42.972935 153.813960 39.580845 0 0
-39.684597 470.058930 121.591160 13 1
-116.142820 521.134580 34.782875 9 1
-72.670204 326.633970 101.617080 75 1
-97.353439 342.851070 198.152180 18 1
36.138550 454.679380 -72.398682 43 1
156.549770 444.650970 10.335803 35 1
80.734436 457.372920 -73.440979 44 1
-69.380341 203.162320 116.677670 21 1
-5.429135 517.923830 50.874561 11 1
71.800896 284.416840 26.093916 0 0
-56.247646 365.392360 189.010060 18 1
-43.338917 179.607650 24.915491 0 0
126.342280 142.156920 11.052776 47 1
-44.913704 342.287080 -8.060804 74 1
-53.271931 233.483520 23.020136 0 0
-41.071609 472.325620 -141.793700 41 1
-99.307205 225.276890 120.414400 21 1
-110.315800 329.304410 -78.723106 78 1
-62.966278 519.892880 30.268761 9 1
-29.884516 401.367160 127.183580 22 1
-129.815600 458.122340 -49.906101 40 1
-51.500206 477.360500 23.710968 0 0
-19.587872 412.411320 -6.999697 0 0
20.767529 136.794430 -6.100306 0 0
-88.249344 299.039920 94.552269 75 1
-13.517081 371.562620 -30.186087 0 0
119.167320 449.673030 -91.894844 16 1
-87.076439 345.281280 47.021297 73 1
24.121881 235.355870 17.550224 0 0
-66.953506 459.979490 97.780762 28 1
-6.238818 289.351230 -126.735130 3 1
119.789470 451.933170 -26.073730 35 1
-50.283798 101.671390 64.207436 21 1
-90.976418 389.773800 93.080894 29 1
127.644230 476.245970 31.648506 36 1
-26.571989 485.625820 20.928106 26 1
68.770668 454.087950 95.374222 24 1
-93.567764 410.254970 84.945602 29 1
29.740660 548.987550 1.945389 23 1
48.290352 276.900970 101.305150 62 1
-45.777378 473.505650 75.165253 26 1
85.182121 462.386350 -38.971008 44 1
-54.648792 312.859590 20.819134 0 0
13.615272 293.509700 19.875080 0 0
76.363892 160.688480 -48.166061 48 1
13.131293 104.625570 35.759022 0 0
-10.880363 409.149410 -57.887173 71 1
-108.481940 380.986690 167.367830 17 1
-53.155312 331.150970 11.133968 74 1
-29.024792 189.823580 -30.006502 0 0
-72.562103 415.548980 -26.283506 69 1
-85.814514 459.773320 178.001430 13 1
62.753155 357.003600 -29.660372 0 0
73.566437 518.088070 -119.827330 15 1
70.421577 214.035220 28.386522 54 1
-46.635677 286.165680 -78.027283 60 1
-153.206310 139.661790 64.198143 8 1
158.515790 357.946990 -29.271734 56 1
-74.772789 380.535370 101.368250 0 0
-0.329541 323.364530 -3.920329 76 1
-39.810741 465.362850 55.159813 26 1
-54.659100 417.400300 34.871124 0 0
-39.733147 104.471130 87.069801 21 1
-65.909256 449.462100 185.803530 13 1
-62.962009 296.557010 31.443680 0 0
-116.163040 174.771030 25.812325 7 1
65.687302 318.071960 97.522720 66 1
127.495940 454.749390 -66.559990 31 1
12.698093 170.870930 36.915089 0 0
-54.083378 358.780730 -12.617620 74 1
4.808658 188.240170 48.332394 0 0
35.785252 190.533190 11.044074 0 0
-102.270290 539.046880 7.310685 9 1
-31.310095 206.248120 18.168486 0 0
110.754370 153.109560 3.494053 47 1
60.338005 259.245120 113.689640 62 1
-46.464237 443.208160 111.588040 27 1
-81.203773 459.939940 157.988690 13 1
95.552589 485.298280 73.683594 37 1
-136.712430 538.663880 14.735376 9 1
-6.165584 217.544710 -11.799116 0 0
147.503950 442.118190 -111.294690 16 1
-121.982680 290.890470 -36.217056 58 1
-48.629997 171.832760 72.836166 0 0
-29.413746 464.593900 82.072617 27 1
-1.656117 196.528780 111.893410 53 1
-37.863113 286.225920 89.643181 0 0
-61.582310 206.333050 153.862090 21 1
-80.270012 231.840320 -17.564983 0 0
29.459513 196.877750 35.298111 0 0
39.591553 507.572360 -90.410019 32 1
28.975525 499.943120 95.118172 11 1
-162.936100 272.138580 -8.647125 58 1
-8.866345 355.046910 14.282889 0 0
167.744290 333.992370 31.773888 45 1
21.477634 277.360720 12.850036 0 0
-84.910553 291.841250 -23.607714 59 1
53.336102 531.265870 53.246506 23 1
58.564438 257.947240 -109.689170 3 1
21.446381 275.426030 49.720215 0 0
-77.971153 529.759460 97.062241 10 1
-87.394737 314.819460 76.843285 75 1
57.768692 377.452330 -18.983408 76 1
71.128075 416.298920 -21.719107 72 1
-1.121771 260.646730 6.539962 0 0
15.773576 289.454960 -127.689180 3 1
-137.252290 340.667050 36.680222 73 1
-0.954499 434.439760 -55.336063 70 1
97.090309 479.816190 19.659231 36 1
-17.226852 203.834120 -4.115748 0 0
-26.124439 371.550170 142.526090 22 1
-20.697493 512.292790 74.533829 11 1
39.156548 229.201750 69.947777 53 1
-4.576688 417.074520 -31.247318 72 1
92.738930 403.195500 -21.979397 0 0
-104.812260 464.178380 96.403069 28 1
48.873371 322.373170 -24.226597 0 0
12.952308 464.955290 -60.310158 70 1
-115.055130 320.011440 -51.776909 78 1
-38.642952 340.760350 63.593964 0 0
-166.666230 144.686740 19.438652 8 1
-16.648390 438.306610 107.758560 27 1
-78.275696 144.034740 9.662740 0 0
6.171308 565.115780 -45.262371 12 1
-29.839745 127.739200 -3.997225 0 0
-61.795357 476.948090 46.818905 26 1
-19.200481 171.419950 -12.743083 0 0
-42.423691 455.495640 95.694435 27 1
-18.964933 572.915160 -58.199844 12 1
-91.605118 465.501190 82.357788 28 1
-86.726830 444.557190 108.854420 28 1
-7.580310 94.479736 -11.924145 0 0
95.260300 507.887540 -96.575806 15 1
-90.898666 406.700010 -19.278547 69 1
-50.506828 392.623540 128.073720 22 1
255.571620 307.235110 6.878096 34 1
150.808230 343.946560 -38.646442 56 1
-46.245579 398.749970 -28.221983 0 0
5.663173 439.974270 -99.295723 70 1
-94.308815 192.377040 176.028490 21 1
-6.867798 202.236950 45.549587 0 0
-18.761250 481.979060 -62.814465 42 1
165.954130 338.485080 -0.927855 45 1
15.050807 309.152310 141.448550 52 1
-39.126678 474.186520 -99.546196 39 1
37.376480 568.778020 -34.345020 12 1
-18.004377 389.773070 18.126270 0 0
27.408142 507.744290 -42.300053 33 1
62.780495 575.411800 -37.142536 1 1
-16.890457 345.677400 -8.826361 0 0
43.194683 476.712430 -68.014168 43 1
-81.105865 513.382750 124.670490 10 1
-61.689049 472.602330 65.287003 26 1
114.520900 194.134720 31.410742 54 1
-17.088465 100.137900 17.367985 0 0
36.680828 225.993240 93.620972 57 1
-4.507235 360.864590 196.203160 19 1
0.669805 234.505420 -7.344342 0 0
31.460938 475.743680 -2.425096 0 0
-60.151695 469.502410 132.658390 13 1
164.509280 321.226170 56.908161 45 1
-75.400009 348.220890 12.867187 74 1
-92.911713 398.056240 144.655090 17 1
16.315296 484.024750 -64.254692 42 1
-56.566757 499.198670 20.586447 26 1
38.618774 235.840470 -18.408524 64 1
86.527916 214.093220 -1.408302 65 1
-16.428625 403.202300 -41.616421 71 1
-32.589516 374.392580 -13.760357 0 0
27.873198 357.246550 14.599415 76 1
-21.667732 128.599430 27.288151 0 0
-33.200611 81.551880 17.501015 0 0
53.465214 155.006610 -4.361392 0 0
-67.513710 255.139760 15.514051 0 0
108.152240 487.146270 -7.712965 36 1
-61.573257 344.702090 208.722550 18 1
75.356262 480.195500 -20.445980 33 1
-17.349661 288.124850 -0.608834 0 0
-58.057560 336.208740 46.402962 75 1
-24.044409 278.897980 -69.953293 60 1
15.432690 484.950710 -137.225520 32 1
-119.360190 274.094760 -7.250804 59 1
-108.737530 429.570430 126.958030 28 1
-156.283310 318.538910 -40.593483 67 1
-44.095284 289.539090 25.991011 0 0
-66.507156 405.588620 22.059961 0 0
117.203230 424.500980 -109.676200 16 1
32.493675 333.742580 71.328224 66 1
62.820011 367.422670 184.996280 20 1
231.913700 432.116210 -31.371235 30 1
2.529719 482.473270 -81.724693 39 1
72.001434 308.422700 7.995967 0 0
17.359547 245.901750 71.179665 0 0
61.114288 506.344700 -98.575531 15 1
-164.737230 104.785220 57.912235 8 1
-32.860012 361.939580 198.915190 18 1
-89.149940 460.149050 47.019527 26 1
-96.175941 284.072050 -1.949506 59 1
-138.584010 421.806490 120.671300 28 1
-40.040131 360.232540 48.099934 0 0
145.848850 443.116550 -33.204258 35 1
18.887863 206.924820 109.946250 53 1
-87.306442 276.728640 40.692432 59 1
-71.237831 471.100190 -150.570050 41 1
204.318860 437.419370 -6.654757 30 1
32.143967 226.586760 52.043301 63 1
24.652716 196.222780 -61.777370 0 0
80.524567 275.386410 -127.269680 4 1
117.542660 482.474550 -87.481377 31 1
3.942224 159.084030 19.777699 0 0
104.867580 200.309480 17.399157 54 1
-24.064228 412.586610 60.674168 0 0
-33.381523 185.375020 -9.004358 0 0
62.948349 204.941330 54.403790 54 1
74.444679 481.199710 94.119843 37 1
-84.141083 209.687090 124.175650 21 1
118.016740 483.001980 -66.570526 31 1
53.718575 555.796690 18.299980 23 1
109.864300 474.737730 96.600121 37 1
-90.171654 432.532960 31.046972 0 0
-58.724995 467.454530 -138.538070 41 1
-83.673271 293.459720 112.193470 75 1
-131.970110 332.731720 63.119305 73 1
96.431664 506.423030 -114.205830 15 1
106.738590 151.462360 125.821480 5 1
158.219470 436.628940 31.132950 35 1
54.148373 272.112400 85.133904 62 1
12.068077 420.156310 -23.696789 72 1
-20.519854 72.015198 -2.927427 0 0
139.141420 466.671780 -44.427235 31 1
6.148272 180.894520 11.943678 0 0
-103.430740 530.522090 26.773842 9 1
82.281822 406.859010 -40.797897 76 1
-24.384130 109.101140 74.331635 21 1
67.086189 423.176330 40.104103 76 1
131.105070 377.440090 -148.895510 16 1
100.753400 173.452740 142.416990 5 1
171.511630 498.187710 65.695305 14 1
44.256966 228.573720 10.959444 0 0
-15.418045 346.242400 68.615112 68 1
-22.845667 467.742680 61.076130 27 1
16.592258 177.435970 -36.392441 0 0
80.174255 464.079710 123.168590 37 1
8.215649 463.923890 97.497231 27 1
163.318160 351.756620 -60.333786 56 1
91.906815 192.737000 45.527817 46 1
-53.463982 479.382660 -3.002938 38 1
-37.971264 417.682460 70.993698 0 0
-44.800961 391.217770 59.686039 0 0
-84.881462 353.072940 190.564220 18 1
-79.177223 178.947310 51.169640 6 1
174.688600 348.891170 -77.658447 56 1
-38.265408 248.178340 60.667870 0 0
-28.554947 385.659730 63.309814 0 0
-32.262905 482.426030 49.992355 26 1
219.302490 350.059420 -14.703585 34 1
-0.026960 204.877210 68.875038 0 0
74.949150 226.364840 3.892542 65 1
-90.233032 489.701020 147.533130 10 1
-73.653931 342.045290 70.692314 75 1
236.530410 334.056090 1.328388 34 1
-102.673490 325.821080 -63.154652 78 1
-41.476971 514.655400 46.642895 11 1
-1.372131 346.352570 -41.695541 0 0
36.974838 219.648380 -70.883774 0 0
166.168560 454.552950 -10.610718 30 1
-171.918950 90.978447 32.763767 8 1
-33.208504 208.836260 -12.621609 0 0
-17.153278 354.313230 168.214680 22 1
20.472700 336.996340 -15.350614 76 1
-17.531645 181.816390 36.247402 0 0
81.862419 203.828190 94.499825 5 1
-66.019737 398.514950 46.174404 0 0
-1.672420 218.377810 29.614319 0 0
-67.797737 353.115720 193.693450 18 1
126.114040 441.193700 -39.092846 35 1
-28.957928 308.748140 37.613926 0 0
-75.664604 288.506100 12.430246 59 1
12.863707 502.509060 -74.221054 32 1
-33.652260 463.623380 21.461407 0 0
-33.977489 406.097900 -61.103771 71 1
-18.100863 367.043910 -6.741292 0 0
-146.557850 154.763170 -18.624660 7 1
-148.683690 146.692120 45.710709 8 1
-39.722256 483.673550 -77.320206 39 1
125.415800 458.987460 15.929070 35 1
-86.164062 335.383670 20.145508 74 1
-109.885210 466.864930 -55.447506 40 1
132.155330 451.527010 -13.545938 35 1
-52.416145 205.738020 118.254210 21 1
-16.616674 358.737430 29.220358 0 0
104.400290 476.049650 52.822273 36 1
135.475340 432.911590 53.644417 35 1
155.723920 447.588380 -46.886494 30 1
32.605309 424.253720 -94.735657 70 1
190.709950 446.268400 -35.491463 30 1
-86.038521 524.289860 52.379761 9 1
82.574150 454.606600 67.784096 24 1
45.045589 373.762510 168.812450 20 1
93.858604 477.181790 -49.974709 33 1
30.185923 358.156100 193.655840 20 1
55.447441 271.847140 -94.809853 3 1
-146.323720 288.044070 11.958972 58 1
-34.482609 295.551760 118.545940 0 0
-41.262032 430.796660 20.640448 0 0
79.489502 206.374310 113.283980 5 1
75.290367 176.600450 57.631748 46 1
-74.655396 419.628940 89.772728 28 1
-27.970798 414.890380 19.535538 0 0
-132.757930 324.890530 -51.553341 78 1
94.817848 200.360020 67.873894 54 1
20.950289 563.410460 -19.446997 12 1
21.497766 324.310700 116.944110 52 1
114.749980 479.679780 -114.145950 31 1
85.881088 445.431670 -55.824257 76 1
11.845112 340.961150 96.994667 52 1
-11.674021 443.801790 82.408440 27 1
-80.681488 457.791380 -51.716953 40 1
10.810360 122.472130 62.090076 50 1
-68.041580 464.765620 -73.335518 40 1
48.575989 497.071200 -80.305222 33 1
-86.939720 263.791110 52.951469 59 1
-40.802811 363.359770 3.167806 0 0
7.983624 343.610750 80.285789 68 1
-2.862150 434.690950 -85.496643 70 1
-100.033620 456.183320 -66.747421 40 1
41.214165 271.727140 37.350052 0 0
-116.212490 363.402250 166.765930 17 1
23.605869 220.334900 81.837837 53 1
24.516796 102.283450 52.734077 49 1
14.208831 444.066710 -74.825912 70 1
50.273628 380.967320 34.559536 76 1
29.496181 230.964040 35.503090 0 0
-122.940960 446.736480 109.413790 28 1
-82.624374 314.934390 93.173538 75 1
-99.655518 431.138120 71.110146 28 1
29.090078 168.075410 39.901619 0 0
-27.303356 158.727050 -5.094643 0 0
53.595348 499.829960 -64.255157 33 1
189.682660 485.369080 72.980614 14 1
-87.809349 518.729550 107.222340 10 1
125.592650 488.049710 43.513489 36 1
-88.720543 469.958340 -83.349426 40 1
-143.186810 280.992220 -20.354893 58 1
12.669954 475.595520 48.747532 25 1
5.550436 509.609070 -94.564499 32 1
78.925102 174.643160 -0.961859 48 1
-19.067675 227.173030 -5.130918 0 0
-101.405330 477.262970 145.638150 10 1
-127.373020 155.755740 35.281445 7 1
91.459381 474.940310 111.376310 37 1
-78.734543 399.154940 -42.599415 69 1
36.732956 442.061680 -100.472920 70 1
5.666164 574.975220 -76.976105 12 1
-89.032227 473.583770 -66.332985 40 1
256.356450 310.079070 -10.757101 34 1
45.056351 469.103910 -104.206990 43 1
-48.420998 484.534520 40.220646 26 1
13.930370 353.386690 211.386690 19 1
117.761260 437.403870 28.352434 35 1
82.200836 194.554470 77.982124 54 1
36.641014 563.891660 -1.970155 23 1
40.542942 215.918180 80.853897 53 1
-137.057630 298.558380 -38.752132 58 1
-2.736465 429.052220 -7.873232 0 0
-20.723055 387.136350 145.398640 22 1
-22.452354 246.003110 19.283360 0 0
71.575859 226.326900 39.834686 54 1
-107.079030 168.837800 41.759079 6 1
-53.671394 198.626740 -4.292618 0 0
83.474258 450.383150 48.591755 76 1
-71.539459 220.660370 -8.500612 0 0
-55.534981 374.058900 -21.046947 0 0
147.974270 494.709080 69.458595 14 1
228.980150 442.048370 -44.924683 30 1
-117.147730 299.959010 -23.112667 58 1
185.866930 343.722750 13.727677 34 1
-5.776272 196.451950 29.618629 0 0
97.930725 171.880130 -6.907612 47 1
17.523916 473.463440 19.903341 25 1
14.425214 338.197270 17.552797 76 1
109.183250 493.525760 45.279125 36 1
-149.047470 151.475510 -47.006054 7 1
-28.679708 315.102290 -12.466199 0 0
-4.935556 236.486330 99.060280 55 1
16.447145 565.410890 -58.357113 12 1
1.914988 87.997414 0.882511 0 0
83.139565 387.385710 -18.744999 0 0
-96.732117 265.875060 -3.326299 59 1
2.590697 336.338500 -18.514908 76 1
-4.437294 278.525390 3.724299 0 0
-53.613003 214.275410 138.248380 21 1
66.787056 250.613850 -15.972826 0 0
-110.140580 211.241820 115.394910 21 1
7.231759 158.130130 -11.527741 0 0
-41.515686 399.809020 -76.775497 71 1
110.489570 466.469420 -30.652018 36 1
-6.647970 466.715970 88.717636 27 1
-153.289230 294.253750 -33.355904 58 1
32.957146 275.852540 70.690605 0 0
97.105133 456.966920 -49.639545 35 1
-213.316700 310.378360 -56.311558 67 1
116.735630 176.494420 21.348883 54 1
62.171524 332.393620 88.262352 66 1
-25.626083 149.624300 21.766817 0 0
11.286091 450.842410 108.198460 27 1
120.807930 475.948300 -141.145690 15 1
-23.927038 90.641953 -8.991510 0 0
-28.445290 342.794650 -20.183659 0 0
12.449783 451.586400 -17.551918 0 0
9.599860 308.971070 -9.595471 76 1
-8.538553 399.029390 -12.316757 0 0
-32.083340 378.544340 47.512222 0 0
-127.910950 386.734040 70.445274 29 1
64.766609 523.447080 66.967224 23 1
-66.189461 326.343840 69.787384 75 1
94.309784 286.864500 63.753227 61 1
-33.605255 387.643220 -1.929130 0 0
206.511430 450.849820 -37.645458 30 1
-25.554705 189.784760 56.947567 0 0
102.364290 261.226620 -80.424644 2 1
-150.090290 314.586330 7.395507 77 1
76.768379 276.796660 39.717487 0 0
117.251000 478.334870 68.910057 37 1
61.223934 408.441680 -36.556587 76 1
-3.487242 199.624560 -12.530596 0 0
-10.408878 283.802730 23.580769 0 0
39.200241 335.385770 86.175858 66 1
94.582321 192.963320 120.486330 5 1
27.043226 433.359130 -72.244926 70 1
-57.398212 373.568600 37.596409 0 0
-7.113622 175.497570 73.094887 0 0
-0.869189 505.355560 -121.579550 32 1
-65.011551 342.424870 -5.114385 74 1
16.754734 473.973080 -93.960754 39 1
-40.099182 361.493990 184.386830 18 1
-3.198924 462.204010 61.905670 25 1
-39.205311 209.395050 149.376630 21 1
183.724500 445.737090 -20.775263 30 1
69.168297 481.879730 -52.593403 33 1
243.038150 316.274020 11.745752 34 1
-68.604820 296.575320 -53.629787 60 1
-130.806750 193.065700 0.848045 7 1
-148.582320 434.170750 116.657650 28 1
40.313648 456.078460 -88.294930 43 1
-97.309906 259.240360 36.228722 59 1
15.763894 388.287510 168.992340 20 1
41.323147 506.854250 78.598869 11 1
-57.409409 248.533160 51.975864 0 0
-89.665520 442.187990 63.913624 26 1
-18.221533 328.090120 -40.027584 0 0
-28.007320 178.269880 9.116400 0 0
129.137910 426.455140 -124.484700 16 1
-40.719051 270.087890 20.919151 0 0
97.165138 478.942260 -16.364294 36 1
4.688314 342.333470 5.029737 76 1
68.483017 456.586460 -59.574001 44 1
-98.515274 516.366460 35.814651 9 1
105.116530 502.935030 -127.812490 15 1
109.655110 429.426790 -27.774025 0 0
82.834213 192.195970 22.487822 46 1
196.950410 348.510410 -0.108797 34 1
-46.052673 373.445980 136.393330 22 1
-35.430561 128.678700 15.644274 0 0
-7.017281 407.432680 1.644949 0 0
144.771760 354.553830 24.506973 45 1
13.308474 516.884220 67.639786 11 1
-102.847410 243.723750 -5.585190 0 0
-117.022060 279.381470 18.766071 59 1
-46.464714 300.408170 -32.002895 59 1
-156.908190 164.052280 -3.611066 7 1
33.781399 347.209840 -0.764491 76 1
-57.937050 525.775150 110.402890 10 1
200.765180 485.237950 57.222275 14 1
20.719986 279.204960 -3.028309 0 0
161.820020 341.600710 14.522961 45 1
-64.243904 426.802190 205.933060 13 1
-24.834618 330.659910 2.320574 0 0
-52.244701 259.135440 24.080387 0 0
-71.523727 467.036500 -96.081284 41 1
-61.999016 416.886440 -43.289169 71 1
63.093208 540.521240 43.451252 23 1
-70.036064 446.004580 89.142799 28 1
-53.954437 447.558350 79.495850 28 1
-44.495449 398.248110 13.706327 0 0
-40.155109 411.302800 -38.036777 71 1
132.592470 412.895540 75.808434 35 1
-71.455650 529.012630 81.454300 10 1
37.413242 424.462490 -27.097792 72 1
-6.474323 120.724540 -12.529222 0 0
49.207474 491.459200 -34.267448 33 1
36.095715 259.968510 59.722408 0 0
40.815990 201.172900 71.639000 53 1
32.683666 221.553570 -13.006719 0 0
31.179443 303.992000 -2.416688 0 0
-98.141396 463.706820 163.584140 13 1
53.344494 280.087980 47.477180 0 0
51.403908 411.273530 34.312218 76 1
-40.673145 149.769810 16.815437 0 0
-111.750470 266.111850 35.578209 59 1
30.226965 251.072860 26.674337 0 0
-18.969835 513.759460 58.878944 11 1
3.678862 480.264130 25.089851 25 1
-75.063835 450.988980 66.543259 26 1
-49.099209 226.867900 37.019585 0 0
211.003560 434.758210 -21.274927 30 1
-72.120895 380.252840 126.435500 22 1
91.467949 280.586980 -156.050420 4 1
17.535816 338.648900 68.733803 68 1
-29.589287 370.845860 172.409560 20 1
-79.041298 473.348690 148.523830 13 1
24.425758 516.511170 -18.842218 0 0
17.525862 167.766830 15.604787 0 0
-165.306320 119.808910 45.652344 8 1
141.046550 460.162170 -129.942180 15 1
-2.205316 174.468110 42.735767 0 0
150.612010 345.212980 40.612034 45 1
122.168930 408.231570 -134.956380 16 1
23.046959 259.842530 42.161800 0 0
-62.464466 422.211060 22.059881 0 0
2.128944 372.289400 182.874020 20 1
-68.575951 338.876950 92.098213 75 1
-77.190399 205.120180 152.229680 21 1
91.584869 189.518950 136.315600 5 1
-112.763540 323.608180 76.003082 73 1
-38.208893 282.357820 104.928050 0 0
83.734108 278.110050 -23.632212 0 0
118.665630 470.145080 5.152727 36 1
12.345457 208.905260 -1.519926 0 0
39.427883 178.930480 49.746559 0 0
-54.350224 104.604690 81.402550 21 1
-3.491529 169.543550 -11.953774 0 0
-198.487370 309.728730 -47.435268 67 1
-106.033040 274.655670 -15.796662 59 1
-33.199371 175.075880 39.846504 0 0
-12.535293 481.256620 48.240295 25 1
-18.219538 146.153990 -7.378499 0 0
-34.694550 479.541470 65.769814 26 1
-71.052704 438.389070 197.927640 13 1
32.718155 201.361880 114.682790 53 1
20.877777 506.211360 -104.491670 32 1
145.999400 459.772770 -57.260910 31 1
-1.215824 135.492970 -11.345934 0 0
-75.554848 529.924870 18.349789 9 1
49.524117 204.460650 104.421220 53 1
184.026060 459.850430 -46.148502 30 1
169.879470 449.427220 -40.613331 30 1
-80.716568 345.570010 -6.397540 74 1
15.807292 449.614200 -58.432465 70 1
215.902330 332.736020 17.853344 34 1
-45.538956 105.401160 107.499760 21 1
29.560127 503.548190 -79.148018 32 1
-63.910316 325.633270 20.954533 74 1
-60.993141 343.604400 17.857698 74 1
-151.286760 530.107420 33.045135 9 1
-48.716396 181.769180 0.822508 0 0
8.571636 245.776230 -14.623144 0 0
116.725440 174.739590 130.884540 5 1
48.464500 230.631060 37.568333 63 1
-82.473305 142.313170 91.046318 6 1
-66.590111 390.602050 -87.929932 71 1
12.006587 474.532140 66.712708 25 1
94.133362 214.273100 23.011152 54 1
-90.288849 401.622560 129.085680 17 1
-84.045464 329.242250 68.838097 75 1
-76.326111 468.989560 61.095219 26 1
10.094912 419.533540 -61.867779 70 1
-13.415294 247.821720 62.747780 0 0
36.153561 252.477650 -23.845318 0 0
-47.397278 262.367980 80.038963 0 0
142.696270 418.110470 54.411358 35 1
-24.606956 195.303100 7.662500 0 0
18.943306 415.002110 -41.223881 72 1
92.966545 458.263550 132.972780 37 1
-67.023155 282.145390 1.240644 59 1
-5.970767 276.287720 -19.922050 0 0
-46.632393 461.061950 -109.782600 41 1
-125.304710 173.279660 13.263332 7 1
-2.430136 480.989010 74.084557 25 1
-100.573460 330.307650 49.137833 75 1
-112.509970 172.941990 55.721592 6 1
-46.118958 312.275090 60.898861 75 1
-30.469994 416.071040 3.253596 0 0
25.757071 543.509890 -21.009995 0 0
-9.702824 315.831760 -13.511615 0 0
-72.347015 342.499360 43.230919 75 1
-76.025291 375.080510 -89.880684 71 1
24.704556 448.267670 98.882874 27 1
-52.455666 361.149990 83.452705 0 0
-56.902996 455.700290 66.823769 26 1
-78.726997 481.815980 -28.964476 38 1
10.519765 291.034030 -17.679464 0 0
-130.782880 172.006530 31.630474 7 1
-146.669170 158.316350 26.422926 8 1
-126.814960 287.137020 -4.281922 58 1
107.142390 201.030810 43.163677 54 1
21.645670 323.417360 -7.019486 76 1
59.655067 463.684690 73.787842 24 1
36.692135 277.301450 17.416691 0 0
-28.332367 365.783630 37.199631 0 0
-126.143310 269.940980 46.665440 59 1
78.473511 191.159360 53.021496 46 1
34.717537 361.706020 -18.569551 76 1
103.084760 429.616300 -115.282880 16 1
