-27.606939 124.336070 -18.859137 5 1
5.663241 170.132630 9.696594 0 0
-81.961693 153.259890 17.696915 22 1
70.750175 98.836891 12.386765 20 1
-32.191082 190.157270 29.920698 2 1
-13.696025 204.843640 47.678188 2 1
56.407204 195.888610 14.073406 14 1
-90.485664 162.527620 1.894433 24 1
-36.484943 173.044820 103.825110 25 1
23.663160 215.127500 -39.067032 13 1
-43.095047 170.442180 30.584805 2 1
81.116211 97.900536 -1.728141 19 1
-6.589214 200.004120 89.150543 25 1
-24.009083 183.387730 98.188194 25 1
66.615967 184.250600 5.676723 14 1
107.631410 166.713810 89.762756 15 1
88.086632 72.474922 31.937241 20 1
26.078117 190.050220 83.312119 16 1
-68.663147 155.760510 -11.087198 4 1
-4.591543 127.182280 -13.069102 6 1
-10.469662 204.531340 -108.754960 23 1
-0.363714 201.061220 56.562256 0 0
65.901176 206.366320 -56.080849 13 1
68.719841 98.112244 -1.267319 21 1
85.762955 88.010262 10.905346 20 1
1.574489 198.217540 13.760183 0 0
53.852806 192.236660 83.301376 16 1
-38.001842 177.700410 18.351816 2 1
77.231117 99.613068 -10.647912 21 1
-36.556076 180.334950 42.951366 2 1
0.320667 203.670230 -8.832586 18 1
-2.843086 209.794450 -4.416086 17 1
95.110703 99.439445 5.071239 19 1
17.109077 130.799100 23.651449 0 0
43.044113 192.318130 84.105209 16 1
-62.821301 145.265560 -31.447037 4 1
85.417709 102.857180 -20.431940 19 1
-19.110130 195.706650 85.280998 25 1
-10.346395 219.123230 -78.957367 23 1
27.756687 205.602970 56.093502 16 1
81.513855 96.755638 5.848036 20 1
-26.612816 41.893234 36.165436 1 1
-15.631560 179.759490 102.816740 25 1
-53.320564 196.253370 -34.901039 11 1
12.680790 124.077980 14.155933 0 0
7.099419 167.038500 17.327364 0 0
73.248978 185.469710 24.082453 14 1
52.675236 75.160339 -34.524895 21 1
39.065624 183.584870 87.321548 16 1
30.677450 179.231290 96.779137 16 1
110.696400 164.561780 82.878502 15 1
100.451100 94.584663 1.672625 19 1
-30.782431 191.110410 44.719810 2 1
0.663580 217.157070 -39.985950 11 1
105.073520 173.192860 81.182823 15 1
0.670557 143.673220 -1.271910 0 0
33.524818 221.732330 -30.114103 13 1
98.096397 91.146111 -14.478019 19 1
16.738300 77.108994 4.541137 10 1
13.010957 38.451595 -13.445328 12 1
-4.735564 64.960373 5.588404 0 0
107.750130 86.481033 -10.364122 19 1
53.819279 86.228302 4.349106 0 0
6.917635 141.343250 4.289087 0 0
-8.286027 204.249690 63.177986 0 0
33.765518 200.853260 63.161106 16 1
60.507965 196.073760 64.283607 16 1
0.806675 9.853517 -0.259890 0 0
60.925400 85.269020 -22.960907 21 1
1.229451 2.291362 -0.968306 0 0
77.908218 191.244430 74.793442 15 1
-77.934906 147.869840 34.844887 22 1
-4.779808 130.962880 -19.709192 6 1
44.367741 225.682220 -20.531460 13 1
88.993073 96.354385 -20.428947 19 1
-0.587947 197.675460 48.378983 0 0
29.462326 187.215300 89.235062 16 1
-105.426310 146.560550 -15.784204 24 1
-29.324873 36.283962 23.791136 1 1
-85.702950 129.141880 53.256493 22 1
90.250015 188.119580 76.637184 15 1
85.081306 160.689100 -1.279675 14 1
-15.419835 192.109560 62.558884 2 1
-21.412931 175.395710 103.668770 25 1
-53.275330 133.934390 -0.948298 0 0
-39.607738 201.937150 -32.469593 11 1
9.641325 198.774430 71.180931 16 1
16.485994 71.811234 7.673935 0 0
-5.541748 223.698010 -16.264547 17 1
7.388226 201.169480 56.057045 16 1
35.009357 214.846190 -49.899994 13 1
86.222092 65.453300 37.286102 20 1
87.211029 184.024090 80.600281 15 1
90.174599 99.687477 -2.287561 19 1
29.915581 199.099060 67.086067 16 1
-5.889603 43.968933 28.187449 1 1
-29.660919 183.347470 92.643234 25 1
0.166629 210.862550 -11.578078 18 1
-8.627797 208.557300 -104.626270 23 1
15.672599 206.329420 57.448612 16 1
62.379524 98.756241 -5.660467 21 1
13.682421 17.297125 -31.438120 12 1
5.047254 108.335730 11.634293 0 0
7.719192 217.034130 -99.149498 23 1
16.581013 192.350750 75.576370 16 1
48.055901 182.634670 46.010967 0 0
68.292206 185.268080 13.190355 14 1
-25.376469 194.955460 49.522709 2 1
18.225567 229.017550 -23.053221 18 1
-29.238752 174.750820 101.871830 25 1
43.145798 189.010960 93.545372 16 1
82.666100 192.424270 66.373825 15 1
-33.661854 179.581180 96.954681 25 1
-3.436095 1.224211 2.358997 0 0
83.519974 101.710630 -11.073382 19 1
1.330226 39.309383 -19.291397 12 1
-26.274380 165.339100 114.855590 25 1
-68.384216 124.250780 -50.108929 4 1
-12.290611 39.545242 22.629133 1 1
-33.029442 207.996340 -24.085432 11 1
-22.612835 194.743910 30.184149 2 1
50.834648 209.769850 -53.780529 13 1
0.759574 30.440647 1.637110 0 0
40.277069 199.686040 65.189590 16 1
-71.443993 175.488940 -41.794556 11 1
-35.563972 186.762590 32.837048 2 1
19.041174 35.794872 -6.089437 12 1
64.452820 104.304570 0.329328 21 1
0.092905 33.592834 -38.610775 12 1
2.480901 161.652560 14.282903 0 0
35.864727 214.205580 -39.648739 13 1
-79.189705 137.081560 51.856491 22 1
2.189362 205.803770 -2.868749 18 1
22.504038 205.194440 50.245831 16 1
-13.223165 178.262770 108.446840 25 1
6.699735 208.086330 54.358627 16 1
13.307260 225.260680 -28.510944 0 0
-40.238747 175.302350 30.797810 2 1
44.001907 213.597090 -58.781120 13 1
41.224239 184.032940 72.300049 16 1
-74.724472 152.813080 4.142396 22 1
-96.942726 157.695800 -1.649756 24 1
60.567883 191.214480 56.661358 16 1
-28.784119 214.889540 -86.343559 23 1
8.836217 191.327510 -23.259552 0 0
83.363930 181.267500 15.938324 14 1
86.775909 191.399260 59.910370 15 1
52.289894 83.164604 -28.687532 21 1
-49.847607 160.188740 16.573355 2 1
-15.442006 208.599010 3.532645 3 1
83.627594 169.809600 4.831172 14 1
-58.528339 145.957060 -36.757408 4 1
-70.162781 155.424300 9.741485 22 1
24.495426 200.342470 66.113121 16 1
80.466415 196.246800 37.994087 14 1
-0.339798 130.072140 -14.874918 6 1
92.299995 180.435620 81.047905 15 1
-99.238968 153.792210 -15.625198 24 1
-0.782263 55.892246 1.216954 0 0
107.767530 160.032170 83.838852 15 1
21.073292 220.878980 -28.974318 13 1
1.047999 216.487750 -47.275932 11 1
74.550240 98.659935 -0.960599 19 1
-43.423683 168.649230 17.761669 2 1
-21.902256 42.009594 26.809193 1 1
2.774343 146.960280 2.553484 0 0
0.967175 176.659440 8.331570 0 0
53.443253 199.230550 40.557602 14 1
39.437420 181.976750 77.932365 16 1
6.779402 197.600310 -29.739107 0 0
0.089081 41.360813 -9.491928 12 1
55.192398 199.072270 65.885445 16 1
2.141425 167.994960 19.942398 0 0
-84.532608 157.054780 -6.923364 24 1
4.425566 215.974080 -94.614754 23 1
6.811526 183.846660 10.691621 0 0
0.209496 93.921509 10.433197 0 0
48.052101 197.811830 72.962914 16 1
1.332089 144.899580 8.893913 0 0
4.887612 171.092300 -17.806385 0 0
59.562115 99.740311 -12.648683 21 1
-8.255033 203.461500 49.677280 2 1
-2.525424 111.554560 2.668916 0 0
-14.069749 125.928210 -18.481363 5 1
-35.913063 157.610780 123.792000 25 1
-16.715544 209.489940 -37.010300 11 1
68.354256 86.804657 30.720133 20 1
-9.637320 214.823870 -36.976402 11 1
-82.694351 156.661150 -1.736179 24 1
98.536598 185.378850 59.048241 15 1
-91.141533 138.597120 39.821102 22 1
-4.844186 197.313230 11.780969 0 0
57.568951 89.264908 -24.419662 21 1
-19.253710 199.195020 34.105122 2 1
-14.546006 125.738560 -12.706715 5 1
69.816200 189.169940 21.301456 14 1
-65.194885 161.280840 15.341698 22 1
85.948837 97.065063 -11.868706 19 1
-68.277695 158.558940 24.513353 22 1
13.031079 214.886310 -46.300842 13 1
3.920051 131.186340 -7.143029 7 1
5.527296 213.570920 -104.275930 23 1
-2.631190 210.210300 76.906693 25 1
-23.333012 194.707030 81.825775 25 1
107.510780 173.300670 66.640465 15 1
-0.726186 201.843230 0.164198 18 1
2.153930 191.051710 3.965883 0 0
-83.578209 148.590730 27.438768 22 1
-1.144810 215.838750 -98.079285 23 1
10.840417 126.570720 18.514938 0 0
-16.184124 171.785370 -128.529330 23 1
-15.481449 200.816530 80.133560 25 1
-73.942482 145.829570 43.932590 22 1
-5.479469 207.313810 81.079979 25 1
7.542831 129.529720 4.835612 0 0
-20.999073 36.377277 21.238365 1 1
-27.961308 190.959440 53.464882 2 1
-6.657932 204.691940 72.824478 25 1
-110.437710 146.865250 -28.249195 24 1
110.307260 82.300171 -17.655933 19 1
24.049725 203.762540 59.962677 16 1
4.340141 157.916120 -11.598856 0 0
-89.031868 154.637680 -14.329737 24 1
48.147396 183.172260 72.296272 16 1
109.363770 165.076750 75.467964 15 1
-17.318867 199.683320 41.057758 2 1
-22.384123 122.740630 -15.850014 5 1
19.038139 183.515640 86.956238 16 1
43.594658 179.568020 86.786156 16 1
95.161972 94.798409 -6.714890 19 1
-17.453369 187.786060 88.761986 25 1
61.118202 180.444920 80.390663 16 1
72.606377 94.562355 22.530117 20 1
-15.881668 209.114170 -42.827866 11 1
-12.602747 188.764760 98.144783 25 1
-16.752773 197.955110 49.019791 2 1
-57.710476 152.486880 -28.579391 4 1
-19.158184 186.513790 96.728996 25 1
1.459926 103.527640 6.523846 0 0
-2.021116 82.547417 3.723139 0 0
-14.137595 181.479830 -125.646460 23 1
34.545101 182.583530 94.240234 16 1
-3.490006 51.384968 1.138427 0 0
94.680779 91.034927 -25.237198 19 1
83.905807 192.833560 28.368017 14 1
57.886257 216.024340 -30.501989 13 1
-86.572525 144.161730 34.615849 22 1
-117.229010 141.746930 -23.176897 24 1
78.061661 93.127319 7.370864 20 1
83.597198 188.945190 83.807716 15 1
-29.939241 202.148590 -57.161343 11 1
1.476761 69.947189 8.240286 0 0
73.168030 82.803970 28.752848 20 1
-32.817032 204.660640 -43.307640 11 1
-12.634194 222.083370 -11.404926 17 1
-76.823341 144.336590 -21.712879 4 1
71.575699 102.252720 -5.546752 21 1
9.321206 129.487200 -7.766814 7 1
5.422896 198.253690 66.077553 16 1
42.800495 71.965408 -37.319195 21 1
44.629608 180.269320 80.933121 16 1
8.103850 69.257721 4.155511 0 0
-3.427684 79.713356 7.904989 0 0
-69.148460 154.115910 31.627775 22 1
4.105000 97.440895 10.884744 0 0
-2.154243 107.516050 -0.653128 0 0
103.761510 167.074840 79.337288 15 1
18.347813 91.143295 12.823547 8 1
108.942350 94.008163 2.459858 19 1
-63.701344 117.717020 -54.813400 4 1
46.853889 199.642260 54.011826 16 1
-39.471367 197.811110 -52.394547 11 1
-23.833990 201.021100 77.273949 25 1
89.498978 81.335556 27.771667 20 1
-81.344635 151.412260 -16.101049 4 1
-25.371937 188.078800 88.006363 25 1
21.010944 193.362010 64.666061 16 1
65.517029 200.121930 74.278641 15 1
-18.474072 208.958020 -53.161255 11 1
-11.608863 97.763618 7.696828 0 0
7.958812 210.830440 -3.515246 18 1
41.193348 220.280170 -32.900955 13 1
90.623878 98.180946 2.836296 19 1
61.533405 193.762660 27.293337 14 1
6.570830 220.802550 -68.575462 23 1
38.458950 80.003120 6.756815 0 0
5.824630 220.155460 -75.358879 23 1
-26.692574 204.463930 -42.023632 11 1
-36.324532 200.990160 -49.391148 11 1
-79.261658 154.101200 -10.363099 4 1
-7.537088 42.451511 11.024570 1 1
58.916565 192.037340 73.729927 16 1
61.656361 194.319920 43.757324 14 1
-15.932878 39.895683 32.768402 1 1
-115.066280 138.954570 -16.294865 24 1
66.055717 89.719452 -18.779377 21 1
-65.574379 138.469860 -38.182426 4 1
-40.603359 118.420460 -0.741749 0 0
95.238747 178.961870 88.184151 15 1
24.102243 185.777510 76.152039 16 1
-11.649169 209.106490 7.692763 3 1
-69.982094 150.121640 37.337597 22 1
14.083351 209.053570 52.569710 16 1
-39.499947 206.574080 -20.301428 11 1
23.747896 190.343720 69.255890 16 1
94.179390 179.531080 73.965523 15 1
-29.127872 37.098949 31.237879 1 1
16.838648 217.392580 -33.554302 13 1
48.767235 181.262730 89.209328 16 1
85.563118 99.610168 -4.531880 19 1
28.613827 219.741700 -25.845272 13 1
38.196674 196.535340 71.953674 16 1
-29.862438 193.917190 35.075977 2 1
-3.601762 10.195754 2.280571 0 0
51.001976 193.335710 57.002068 16 1
77.689949 195.516740 64.226746 15 1
24.914185 216.113110 -53.373283 13 1
104.529440 87.420982 -14.927966 19 1
6.754658 204.308640 62.609253 16 1
-45.566536 203.512220 -20.073189 11 1
38.903793 80.352699 -32.635811 21 1
5.447875 180.079500 30.440727 0 0
63.118572 187.511960 3.694803 14 1
-62.668724 131.910630 -45.641941 4 1
-36.317078 181.042110 50.912098 2 1
9.010320 207.181020 -31.116188 0 0
37.514172 214.940520 -54.440609 13 1
-75.904076 149.268830 0.554057 22 1
82.780693 194.035390 72.265190 15 1
-25.703436 191.581920 43.291477 2 1
55.763580 180.233320 73.907890 16 1
111.794010 158.152680 90.851562 15 1
-90.821274 150.089320 21.534920 22 1
34.816723 216.487750 -32.330769 13 1
-12.792961 220.005110 -74.474403 23 1
7.413188 86.407082 14.065619 9 1
-65.286201 104.095310 -58.645676 4 1
100.014770 96.699791 -2.917706 19 1
37.176498 223.266860 -26.322145 13 1
-14.468978 44.595478 28.697220 1 1
-10.131972 210.534390 0.658839 3 1
9.773496 81.957787 6.277195 10 1
-19.423191 206.407330 -105.897930 23 1
-6.289382 92.085617 3.854041 0 0
55.932972 199.842530 78.553017 16 1
-92.955368 155.972400 -6.176552 24 1
68.470436 96.407326 -16.330006 21 1
-9.660130 203.558590 80.641029 25 1
81.142906 103.726810 -15.046469 19 1
2.045735 126.989130 9.180290 0 0
56.292843 102.225170 -3.781138 21 1
-26.093920 203.771560 -106.265360 23 1
-68.827354 159.407070 2.013763 22 1
43.834015 214.079530 -39.392899 13 1
-41.530224 178.122510 43.591911 2 1
-46.765362 164.391450 25.641272 2 1
0.922214 189.500500 10.585406 0 0
-12.020107 221.065440 -20.564888 11 1
0.223888 214.387120 -103.050540 23 1
32.428230 192.140410 80.270737 16 1
46.031372 189.435330 87.536667 16 1
56.716381 210.354580 -48.083790 13 1
-13.230386 216.282700 -28.592186 11 1
30.416182 185.229060 75.014267 16 1
69.454704 176.147130 79.397552 16 1
45.776535 187.072940 63.405807 16 1
91.543930 185.756560 64.862663 15 1
-104.461130 151.548050 -15.416256 24 1
19.906620 31.051321 -10.807721 12 1
-10.553525 42.380577 34.211143 1 1
-24.907854 197.532650 41.303547 2 1
1.143709 117.917370 7.501110 0 0
94.159775 193.356920 55.536057 15 1
24.317703 183.550490 95.091072 16 1
-76.974258 152.026890 18.449884 22 1
12.678411 67.808243 8.017644 0 0
-14.229438 199.201950 58.441689 2 1
30.232038 74.437614 3.013212 0 0
46.541691 76.650787 -33.814949 21 1
-28.117832 192.651750 25.256817 2 1
14.107924 36.363472 -7.417286 12 1
69.580681 170.398670 5.596182 14 1
53.544914 197.623380 22.805716 14 1
72.864899 93.295784 -23.094286 21 1
-17.434540 43.086430 37.052128 1 1
36.468864 168.362660 40.582848 0 0
-107.634350 150.066930 -3.434190 24 1
-93.755692 156.134800 -11.622934 24 1
-22.676828 214.116710 7.510647 3 1
64.849739 211.054600 -48.744938 13 1
-67.603897 119.228860 -50.585209 4 1
-16.151619 174.213210 109.559810 25 1
-17.660564 196.771160 77.884369 25 1
48.867470 99.872597 -15.264849 21 1
-24.695415 191.235500 59.203529 2 1
5.871522 120.526730 13.624693 0 0
-14.663477 213.407470 -93.257378 23 1
0.091102 223.387300 -57.415726 23 1
54.250759 186.176790 84.610146 16 1
44.232555 178.891920 44.641857 0 0
27.709209 224.106370 -23.085304 13 1
-64.969193 180.883130 -39.120857 11 1
105.753470 173.904050 76.323036 15 1
91.039803 77.855682 31.073858 20 1
-68.359062 149.636220 -18.759138 4 1
-3.611997 222.608430 -64.683876 23 1
-4.531855 194.923610 98.027702 25 1
2.573426 153.192320 -3.852548 0 0
53.416145 180.347580 82.843246 16 1
-52.847061 198.954210 -20.930914 11 1
-24.323664 198.419480 33.672203 2 1
-2.301095 50.876335 6.545377 0 0
5.340581 136.115630 8.972215 0 0
4.174435 34.551552 -31.351246 12 1
-5.079237 30.556393 1.896526 0 0
56.304077 194.964710 18.931843 14 1
105.794990 81.191597 -24.736290 19 1
104.598820 95.448097 4.322810 19 1
-4.301807 17.350933 1.870037 0 0
-17.321239 216.897640 -84.840958 23 1
17.288446 225.291930 -16.599861 18 1
82.602776 188.347060 21.115538 14 1
-0.486464 212.860210 -37.562992 11 1
-14.260988 206.186950 38.629318 2 1
-81.478096 137.423710 -31.944534 4 1
38.112881 212.573470 -45.586044 13 1
-48.830368 201.152160 -30.457836 11 1
-14.456047 192.275590 85.757782 25 1
106.400970 162.023130 90.624992 15 1
-94.054047 157.063060 -17.369793 24 1
61.789196 213.625640 -33.636894 13 1
60.265148 190.461560 8.627305 14 1
3.452282 193.429570 13.931425 0 0
72.477226 96.429459 -11.158918 21 1
-25.214588 190.610930 32.464401 2 1
-26.319685 209.257460 -29.393219 11 1
-25.076424 203.283310 -56.909851 11 1
-18.856228 215.102140 -21.563192 11 1
-77.044823 151.717120 8.580516 22 1
-63.290588 108.599850 -58.863079 4 1
-16.730089 198.096440 -112.328290 23 1
-30.013992 218.845920 7.088184 3 1
-68.479591 147.139250 -22.986961 4 1
-3.169817 60.431667 6.664744 0 0
-14.252719 222.775330 -65.566269 23 1
34.957726 202.896900 51.896511 16 1
64.444153 187.859480 68.483681 16 1
85.106537 196.421450 57.467022 15 1
-40.072659 181.336430 35.206078 2 1
9.670107 117.165780 15.717097 0 0
49.032749 219.453220 -26.801405 13 1
-43.984615 171.355210 38.718708 2 1
58.386246 211.650470 -42.199482 13 1
3.453312 162.031830 -9.089989 0 0
-99.710831 150.529890 -6.907837 24 1
78.330917 198.364810 73.195526 15 1
114.983090 153.551150 86.581161 15 1
74.058815 93.613815 16.995554 20 1
-10.844708 203.607060 54.451126 2 1
61.021698 92.489304 -14.361340 21 1
-13.459188 204.106600 75.845894 25 1
-1.266137 72.942177 2.392850 0 0
53.988102 102.478490 -9.222702 21 1
47.069839 195.877560 78.380402 16 1
-97.288582 153.022400 -20.035967 24 1
-4.870324 202.033550 65.871117 0 0
-35.621647 185.915050 42.410713 2 1
-29.469879 112.053860 -0.134578 0 0
5.768029 203.551440 -32.735352 0 0
-70.443993 154.653820 15.506239 22 1
30.368814 190.154010 63.340073 16 1
-11.379628 210.266950 -44.514229 11 1
-17.098066 216.463440 8.179447 3 1
13.441848 33.498749 -13.362966 12 1
102.186000 91.679512 -1.842779 19 1
6.610761 184.670200 -20.154491 0 0
-84.828171 137.490840 43.620495 22 1
-4.368696 22.534157 2.005798 0 0
-40.302616 174.335770 21.077251 2 1
103.977490 178.879070 61.706505 15 1
-92.866791 146.372760 28.946556 22 1
-21.648001 185.449220 89.762482 25 1
-100.778130 154.081800 -2.258503 24 1
14.262208 24.389654 -25.730160 12 1
-9.702880 199.103700 -115.147120 23 1
-33.393650 209.812990 -19.411053 11 1
-112.818470 141.741060 -19.889914 24 1
79.475250 71.090805 33.610439 20 1
-4.853446 42.954315 2.514713 0 0
4.378917 98.156487 5.594543 0 0
73.341156 199.448180 48.875439 14 1
-102.665010 149.924930 -23.984060 24 1
-30.837963 163.289750 115.553060 25 1
74.411003 170.534670 5.118878 14 1
-36.252651 198.803210 -44.171612 11 1
-63.039860 136.029400 -1.303012 0 0
-27.534906 206.625760 -101.661610 23 1
4.216154 159.288700 8.443612 0 0
-87.346107 146.329280 30.349216 22 1
32.390438 217.162370 -41.283722 13 1
-54.006630 129.267350 -2.029909 0 0
65.781860 213.471570 -41.247768 13 1
-1.811710 206.311940 84.068069 25 1
-5.635311 206.961550 0.022794 18 1
10.495717 199.176620 61.712593 16 1
53.189583 216.895030 -38.248074 13 1
-86.566101 159.039790 -13.807194 24 1
-32.417683 184.174120 37.137943 2 1
12.671908 211.803650 -3.901831 18 1
-0.883851 24.230328 -0.864900 0 0
-115.142140 142.121250 -27.636604 24 1
18.807823 197.601870 72.198837 16 1
65.566887 98.155334 26.687668 20 1
-8.515208 211.981230 -98.169319 23 1
-8.142578 217.675830 -29.950466 11 1
-75.692078 148.019740 -16.891754 4 1
-105.654720 148.536770 -7.661466 24 1
-3.558224 115.782140 7.329536 0 0
-74.408478 137.045140 -35.306511 4 1
-5.560687 212.036100 -49.376633 11 1
90.376816 93.812866 -10.996538 19 1
-24.988207 106.444630 4.843891 0 0
-42.418365 124.762560 0.332446 0 0
76.039581 192.317690 70.491051 15 1
95.410355 184.144580 73.026649 15 1
-12.684991 211.464830 -35.303940 11 1
-15.717161 204.653260 -109.529530 23 1
-48.661556 125.796270 2.384004 0 0
-3.572115 44.908451 24.089914 1 1
22.998217 226.068620 -25.056847 13 1
73.663033 188.560290 29.667055 14 1
-25.681416 211.352230 -24.656981 11 1
61.759750 195.952350 37.068989 14 1
-4.554193 107.494900 4.223746 0 0
-3.607404 204.133880 88.366478 25 1
87.306244 186.724880 85.945244 15 1
54.371235 90.330170 1.928205 0 0
-43.269756 205.377700 -27.969654 11 1
-0.312288 42.050507 -4.642132 0 0
-75.071236 173.714770 -37.036213 11 1
68.762115 98.495247 -6.504487 21 1
56.328289 187.208770 65.062622 16 1
116.612130 79.657661 -8.614391 19 1
79.822479 88.588173 18.675055 20 1
-109.971380 147.892170 -23.062622 24 1
45.693661 214.696780 -48.589134 13 1
3.531776 216.281300 -35.803711 11 1
29.546535 215.669880 -46.453045 13 1
-31.907806 202.222020 -51.084534 11 1
114.499720 154.282350 74.051895 15 1
55.435215 184.985570 75.347107 16 1
-21.603167 194.942900 58.058956 2 1
110.808900 83.449966 -13.052320 19 1
-8.557412 44.291481 16.707323 1 1
7.085612 162.313550 15.335603 0 0
-20.903454 180.198970 103.635310 25 1
-10.405689 221.035420 -70.257942 23 1
-39.769127 209.063400 -25.874010 11 1
4.840512 172.452190 26.642826 0 0
7.472993 74.454132 0.592351 0 0
57.066349 96.186523 -19.977806 21 1
-72.975906 132.688720 -37.096748 4 1
-35.963593 202.237670 -37.001644 11 1
-11.206017 123.148930 -6.797034 5 1
-86.694778 151.894100 -7.764312 24 1
1.567037 40.531822 0.694053 0 0
50.314560 212.527510 -43.993561 13 1
49.005459 214.327030 -38.131088 13 1
74.575706 194.726910 41.514225 14 1
-26.348213 206.830110 -35.550156 11 1
-29.812536 179.967670 100.782630 25 1
72.153442 96.696075 2.897020 0 0
-29.476099 169.678700 107.936560 25 1
3.033726 132.463380 2.718665 0 0
-2.770761 192.352540 3.970130 0 0
26.716623 178.803770 94.191010 16 1
102.196000 169.457470 83.137398 15 1
29.619310 201.377730 52.939953 16 1
81.520210 90.510002 11.489936 20 1
-71.192902 155.924130 -4.432117 4 1
-22.303461 218.995930 -77.334595 23 1
-12.647346 211.705580 -50.780094 11 1
-14.702240 225.128230 -17.748423 17 1
14.866481 190.505830 83.749001 16 1
71.494019 198.827910 75.438065 15 1
-29.393366 191.226360 85.386375 25 1
-18.009125 42.891529 19.103327 1 1
49.083447 194.123400 88.066528 16 1
7.213346 215.477390 -13.833829 18 1
43.243477 170.758440 43.183598 0 0
-23.962486 219.183330 7.113661 3 1
-66.392059 157.470580 17.871971 22 1
-9.697990 208.174650 71.840034 25 1
-18.427074 102.940250 1.028003 0 0
-80.241165 140.710570 -28.524313 4 1
-5.365891 206.230440 58.960999 0 0
14.556206 196.418110 69.834702 16 1
-73.140388 118.273090 -50.920052 4 1
69.218872 97.953278 22.369490 20 1
105.994210 177.735580 67.177528 15 1
1.624156 61.943542 2.600386 0 0
36.503067 189.087160 62.789253 16 1
-21.762526 207.198940 -38.462776 11 1
-68.582642 184.086880 -26.874563 11 1
102.997330 178.827150 70.734329 15 1
-19.135923 211.565400 3.687539 3 1
-11.952785 179.051120 -129.046340 23 1
69.831696 194.330350 35.035690 14 1
-55.865265 194.166670 -26.207891 11 1
8.224396 22.542545 -35.348026 12 1
-48.764248 193.576740 -49.190399 11 1
100.963570 183.140530 62.886269 15 1
116.970250 152.233000 77.906364 15 1
3.213325 112.714780 5.628776 0 0
-0.695632 101.151280 2.560840 0 0
81.270264 173.126210 7.920936 14 1
6.068682 150.097080 -4.376999 0 0
-55.099777 187.271160 -43.903477 11 1
-13.416420 211.486950 -97.367538 23 1
-24.386417 177.398710 98.456001 25 1
-31.205921 185.704500 45.967339 2 1
-76.540016 151.418950 -7.647795 4 1
-5.024440 192.614840 9.373547 0 0
46.063560 216.708680 -31.833410 13 1
21.679060 179.421430 94.227501 16 1
63.501804 99.811058 -10.116074 21 1
-108.917930 144.374130 -18.885075 24 1
-24.718931 195.138150 -111.842140 23 1
-45.843987 170.660580 26.635683 2 1
7.183976 28.493629 -30.414265 12 1
-1.104596 221.572240 -28.668257 11 1
64.390915 97.908592 -14.386251 21 1
26.998890 176.207610 99.432556 16 1
62.367985 197.287690 50.654728 14 1
23.045189 191.962550 80.313004 16 1
3.944868 168.475570 24.227432 0 0
-34.680977 187.573240 90.824181 25 1
92.197670 186.302440 81.098389 15 1
-16.816254 121.244660 -11.366206 5 1
-8.606269 193.406600 -122.550760 23 1
-8.655724 203.753630 1.602019 3 1
-90.237701 141.516750 36.299423 22 1
22.569887 197.483320 57.543339 16 1
93.255394 80.480484 23.420639 20 1
76.737366 100.781280 3.015341 0 0
17.894907 32.647102 -15.046312 12 1
-93.471016 149.296040 25.284185 22 1
35.006893 158.699650 38.301582 0 0
1.067477 -2.172313 -2.287426 0 0
56.195766 81.004631 -30.014412 21 1
-43.290859 197.423750 -45.371662 11 1
70.659645 76.457214 33.661873 20 1
63.544689 93.144562 4.446263 0 0
-88.165977 154.473590 12.097999 22 1
-71.056023 180.499860 -34.277805 11 1
-70.093224 111.628070 -54.840534 4 1
19.640358 134.022430 21.213457 0 0
-22.821337 40.149815 17.004913 1 1
33.953514 175.306230 102.875340 16 1
-56.507160 193.024140 -36.475956 11 1
-84.428444 144.000730 -27.544971 4 1
77.357353 189.821470 24.353374 14 1
107.238680 90.850128 -1.158802 19 1
-40.140106 200.241990 -37.223633 11 1
-85.044937 152.725310 6.589312 22 1
83.684982 73.659607 32.758553 20 1
-0.675740 46.651398 5.490238 0 0
-92.955574 153.359790 17.497042 22 1
-81.034294 132.469860 -38.245106 4 1
-2.244387 123.209980 -9.714968 7 1
50.056499 91.270264 -22.090775 21 1
-49.628983 164.666840 32.647640 2 1
-1.462380 40.657642 -14.953781 12 1
-66.751785 140.424360 -34.144711 4 1
0.795817 198.651870 7.876462 0 0
-2.343025 220.457370 -74.459290 23 1
62.323280 188.246220 64.205666 16 1
88.083359 100.079440 -17.850700 19 1
5.881556 165.854420 7.966749 0 0
-2.884482 89.736130 8.768410 0 0
0.874457 139.821260 7.426228 0 0
4.427798 152.713790 12.320246 0 0
42.565197 192.466810 58.806778 16 1
42.088253 204.568390 57.123360 16 1
-14.080121 207.921020 -1.133384 3 1
-73.467773 153.038990 -11.982676 4 1
89.420280 97.232742 -27.771051 19 1
78.540863 192.273070 34.773140 14 1
100.906230 177.694720 82.685059 15 1
3.141942 36.764629 -24.923897 12 1
-32.697060 205.432630 -32.352352 11 1
-4.819083 210.660130 -12.741377 17 1
54.356594 201.793440 50.014366 14 1
70.105354 194.538560 58.133244 15 1
-19.228916 192.813320 80.860619 25 1
-74.902534 153.350630 12.312364 22 1
11.222056 136.698720 -9.785065 7 1
103.470500 167.380250 87.641701 15 1
-13.770401 159.650420 -136.228590 23 1
-21.263718 217.816160 -18.742716 11 1
-73.756073 177.704320 -30.290831 11 1
98.877319 180.012470 79.241829 15 1
-19.491674 126.283870 -15.351583 5 1
41.275448 218.183290 -38.096439 13 1
70.873314 192.610260 29.643061 14 1
-34.767879 163.281720 118.144000 25 1
83.041039 99.715004 2.443775 19 1
1.757316 123.651180 5.919478 0 0
24.803421 221.397290 -31.587057 13 1
13.582871 219.351590 -36.375694 13 1
81.375130 183.606600 19.336744 14 1
109.302690 171.851120 70.733292 15 1
5.093364 174.472930 8.264501 0 0
-33.602688 167.433040 110.787930 25 1
-8.588197 221.819530 -57.746803 23 1
-46.835846 197.752140 -33.448498 11 1
94.336075 93.786873 -14.195451 19 1
7.810472 120.292520 7.459475 0 0
3.879038 211.506420 -37.416721 11 1
-82.352074 128.714580 56.336517 22 1
81.871895 78.441200 28.603394 20 1
65.687332 211.921520 -35.582134 13 1
69.577698 91.049828 29.453276 20 1
-10.621883 39.083424 10.435675 1 1
41.742519 212.102260 -55.107220 13 1
62.700748 188.218750 12.782953 14 1
-3.298067 132.648180 -23.690079 6 1
-16.868586 202.328810 50.313820 2 1
5.010817 157.995820 15.300267 0 0
5.715012 27.123201 -37.693531 12 1
-27.495056 160.208680 121.985220 25 1
64.158272 201.000270 69.599373 16 1
1.274696 189.839250 42.255859 0 0
12.528797 76.674103 6.254689 10 1
5.647423 210.727890 -31.114168 0 0
78.273705 94.764000 -15.848844 21 1
2.425139 124.920310 -8.583437 7 1
-19.928455 214.592820 -89.185631 23 1
66.249161 91.372559 -24.101641 21 1
3.463507 89.151840 7.300038 0 0
43.213482 86.926392 -28.573013 21 1
61.743031 101.655270 -2.191576 21 1
-12.138490 217.392170 -91.873116 23 1
58.544193 74.081390 -35.211880 21 1
-0.587627 212.591640 -7.360271 17 1
-36.912735 182.855260 24.205580 2 1
103.457090 83.852226 -17.813774 19 1
56.483349 89.795738 -19.469767 21 1
1.461968 76.659439 3.476899 0 0
13.955411 214.109380 -41.546246 13 1
21.220072 216.913890 -42.500057 13 1
-14.577589 200.516570 45.973919 2 1
-77.023949 127.488860 -41.576908 4 1
14.398098 125.412670 21.094831 0 0
81.888489 196.334180 84.271866 15 1
6.563044 218.960690 -85.572784 23 1
92.688309 184.829040 89.148117 15 1
20.807163 209.198910 52.152931 16 1
-21.674679 170.684480 115.650950 25 1
-4.837161 200.395920 56.780983 0 0
30.725117 181.780750 82.273834 16 1
2.907021 101.715520 11.771981 0 0
100.075260 172.654880 87.692398 15 1
113.989300 70.321091 -22.983492 19 1
41.186405 222.209950 -28.225496 13 1
9.227772 218.752930 -89.577568 23 1
-75.715630 124.054210 -46.898884 4 1
83.824028 178.231960 12.448692 14 1
-24.093594 163.847020 120.401180 25 1
-22.805378 43.897945 34.708664 1 1
-25.202463 182.298800 93.234146 25 1
107.865740 78.332321 -28.646563 19 1
-109.284900 145.849820 -12.999460 24 1
14.877768 221.618850 -20.933401 18 1
-53.849689 193.208220 -31.618940 11 1
38.761383 185.570560 97.843994 16 1
57.015541 194.154740 60.341930 16 1
-26.364027 171.890260 110.963240 25 1
-61.569160 185.553120 -44.356407 11 1
18.597525 188.699490 77.702026 16 1
34.044449 226.660750 -23.011583 13 1
17.228716 195.815990 65.651062 16 1
72.876083 90.271049 23.849920 20 1
-29.687950 186.390810 53.457531 2 1
111.138930 88.341545 -3.406114 19 1
86.404984 190.259610 69.075378 15 1
58.091919 219.393660 -27.522633 13 1
29.568790 173.720550 103.054820 16 1
1.607567 93.136734 3.895688 0 0
74.420593 186.984390 20.024361 14 1
-67.402283 177.349380 -42.604904 11 1
-9.962385 218.136320 -12.108232 17 1
-64.204552 126.178440 -50.124062 4 1
-42.994884 202.874500 -24.236294 11 1
4.244519 216.992950 -44.175552 11 1
107.252880 164.033160 79.280182 15 1
53.341286 217.725540 -32.415470 13 1
108.396270 168.163970 84.218124 15 1
-26.087120 39.284332 22.026089 1 1
-83.068840 135.381820 50.382290 22 1
-82.613625 153.458210 -5.072114 24 1
-1.572598 220.209810 -82.792015 23 1
51.671700 213.711780 -50.951736 13 1
-94.442848 141.284560 34.789352 22 1
57.767120 183.121140 70.740723 16 1
4.622202 147.121320 10.951030 0 0
1.740157 168.078370 8.987931 0 0
-50.686787 194.655180 -41.960655 11 1
-7.258287 216.408400 -6.394413 17 1
37.891388 215.249040 -35.570126 13 1
74.620712 197.619630 56.943596 15 1
35.065186 180.040280 83.704887 16 1
17.847404 28.008310 -20.953270 12 1
-19.253330 222.214980 -71.913750 23 1
-105.202150 155.417180 -2.378797 24 1
-7.458863 199.093290 84.874695 25 1
-27.834780 175.893280 106.011800 25 1
-26.847904 196.438630 37.177563 2 1
80.806000 102.250960 -6.005985 19 1
-21.041693 212.873780 -24.956760 11 1
45.639496 217.518130 -36.994270 13 1
31.555090 195.630660 57.636486 16 1
-32.904316 207.262050 -36.510147 11 1
86.877167 190.829540 78.062393 15 1
-18.124075 189.642560 93.228889 25 1
-82.412033 154.061050 13.270067 22 1
-30.020111 197.183090 -110.178380 23 1
98.900787 182.515730 67.288155 15 1
102.291930 85.244980 -29.854866 19 1
50.048859 202.159150 58.243744 16 1
-19.773008 185.534190 -122.738790 23 1
-21.297752 38.704796 29.953480 1 1
-30.649044 207.677700 -28.615376 11 1
5.146455 212.637630 -43.282951 11 1
99.875717 98.948029 1.075447 19 1
-5.024155 220.041430 -78.003380 23 1
25.807611 195.508530 74.202240 16 1
86.936920 191.024540 87.313400 15 1
-87.008591 157.907200 -2.943205 24 1
61.984608 89.275375 -24.813740 21 1
-13.706358 164.484890 -134.977810 23 1
-100.640200 149.746830 -16.765549 24 1
-60.553368 189.312650 -37.846550 11 1
-17.841040 203.582030 38.753124 2 1
69.981247 88.248108 -26.819679 21 1
93.127510 95.651955 -18.839119 19 1
-4.246490 5.565727 1.411480 0 0
-13.480525 38.901070 15.616838 1 1
79.859680 202.537250 55.262398 15 1
-1.348073 36.758324 5.576128 0 0
4.398936 64.934998 7.941701 0 0
4.950812 166.612380 -15.622953 0 0
-16.667744 190.833540 -118.268620 23 1
-3.641257 205.744030 -114.275570 23 1
97.126221 178.933980 92.179123 15 1
-97.361496 150.638820 -13.164838 24 1
-0.343971 16.388783 -0.846714 0 0
-18.905991 210.437270 -45.769779 11 1
-43.899635 171.781520 21.277300 2 1
-4.572192 36.094288 -0.138300 0 0
-63.663422 153.386600 -19.546707 4 1
27.830837 189.317280 67.298981 16 1
102.934050 87.720024 -21.605726 19 1
73.479965 95.221230 -19.040377 21 1
-8.066320 122.587540 -12.470347 5 1
59.685650 195.583600 54.254612 14 1
-76.113602 142.169370 -28.991999 4 1
-5.985146 215.332470 -41.952984 11 1
29.151016 221.543810 -30.915667 13 1
86.036819 84.990120 23.075563 20 1
94.818611 95.341286 -0.047656 19 1
-33.790855 190.564850 87.012863 25 1
23.646971 193.787840 61.066929 16 1
97.035240 90.786903 -6.649564 19 1
112.874820 167.287430 67.240379 15 1
25.866444 213.954770 -48.376526 13 1
86.705429 177.227330 9.051604 14 1
-11.122437 194.626920 -117.949910 23 1
-32.222065 182.591810 30.520773 2 1
4.015675 221.071620 -62.834171 23 1
-22.679806 197.984760 47.413601 2 1
57.212784 194.303090 81.374451 16 1
4.480473 186.391330 33.809975 0 0
63.064438 215.913510 -37.163681 13 1
84.357811 86.365082 17.600233 20 1
14.772554 198.071010 61.307644 16 1
9.390982 29.015633 -25.734531 12 1
106.604260 81.073166 -19.656263 19 1
113.366840 158.887990 75.091637 15 1
-55.584068 188.839570 -39.165874 11 1
-3.629703 119.691200 -7.422351 0 0
44.163948 210.987050 -50.585060 13 1
-71.080994 158.281330 6.489662 22 1
71.118851 163.265580 1.672446 14 1
-1.919735 134.230160 -29.586153 6 1
4.353161 129.635150 -3.074612 7 1
30.673895 223.913240 -27.253836 13 1
3.645109 117.706280 11.132096 0 0
-61.633804 186.310070 -32.454399 11 1
-88.386230 129.074770 49.307667 22 1
-5.070210 202.289050 52.433685 0 0
88.144707 68.331116 33.952011 20 1
62.584484 182.592420 70.831886 16 1
-19.911793 211.131590 -30.179682 11 1
81.909882 163.635940 -0.281338 14 1
15.317765 88.204391 11.710904 8 1
-45.777512 128.123430 -1.030174 0 0
-16.689840 42.633461 11.458092 1 1
-17.229141 182.623020 97.108208 25 1
0.344198 84.516670 9.793841 0 0
-5.921502 212.283690 -104.332990 23 1
-39.472229 206.087660 -30.927265 11 1
45.634441 198.552230 67.664703 16 1
26.286648 215.641880 -35.222725 13 1
-29.395134 127.205120 -16.114065 5 1
81.687889 190.571290 24.868412 14 1
77.851311 97.400856 8.345978 20 1
-60.858601 125.167930 -52.716942 4 1
-4.758164 217.147890 -91.674751 23 1
18.495411 216.701510 -47.308678 13 1
-2.281669 210.337940 -108.799790 23 1
50.189358 202.321780 44.110222 14 1
8.264361 74.272263 4.889464 0 0
67.011139 94.799255 30.233522 20 1
57.789509 208.463670 -54.140671 13 1
-71.733261 150.492650 -1.653147 0 0
32.012165 220.239200 -33.916218 13 1
4.561371 165.949140 -10.868676 0 0
-66.793449 158.136990 10.792699 22 1
-8.102742 175.244030 -133.087490 23 1
62.989269 210.539750 -42.814842 13 1
-83.085335 149.072530 -21.504152 4 1
-7.156922 221.155960 -61.791420 23 1
45.059692 88.872406 -24.850832 21 1
48.624306 184.660280 86.237732 16 1
-20.752010 196.591740 40.272003 2 1
28.843073 155.324830 34.595112 0 0
1.430635 125.528160 -4.290379 7 1
0.745452 108.839990 8.995843 0 0
-2.266448 212.051420 -100.354280 23 1
-71.090607 126.335180 -47.320419 4 1
87.374001 95.735138 -3.717983 19 1
39.001759 179.989430 101.378140 16 1
1.096887 130.920410 7.276053 0 0
109.606630 75.911545 -22.203344 19 1
-15.532413 217.645230 -23.976147 11 1
-32.139671 190.669160 40.515686 2 1
68.111214 99.892746 18.665300 20 1
29.687920 181.994540 90.403320 16 1
114.822730 77.439354 -15.929249 19 1
-29.156340 196.209690 84.224823 25 1
-7.335640 39.654850 -15.297734 12 1
-106.584240 150.198670 -18.931963 24 1
-38.081112 177.435410 27.433695 2 1
65.001022 97.130051 0.938549 0 0
-12.845660 122.500760 -15.484642 5 1
-34.150398 201.220410 -41.019562 11 1
51.797710 199.986830 36.528481 14 1
95.851349 91.355240 -29.382042 19 1
-66.973755 144.095320 -31.627256 4 1
-10.312963 205.015460 44.719505 2 1
28.408226 214.287050 -42.436317 13 1
-27.897598 210.395740 -95.482681 23 1
-3.517994 218.752500 -31.316729 11 1
-54.909729 197.176760 -29.820110 11 1
-39.259583 177.131640 34.575935 2 1
40.870903 215.234730 -47.612286 13 1
-7.903902 37.764717 -19.629713 12 1
64.743919 87.265808 -22.064728 21 1
71.402359 192.602490 62.858303 15 1
16.071671 221.169390 -16.825361 18 1
37.043816 190.099000 86.344429 16 1
-48.807171 198.806460 -26.782370 11 1
10.313826 221.474000 -81.559387 23 1
-7.074515 96.422203 6.115023 0 0
61.788029 80.242989 -31.628332 21 1
-43.593536 175.598540 39.287239 2 1
-89.568359 133.778400 47.987049 22 1
19.349472 140.642490 26.345556 0 0
47.577827 82.572838 -30.496187 21 1
13.104103 216.472340 -14.642870 18 1
2.199237 220.844440 -67.291229 23 1
-26.136135 195.429150 45.137398 2 1
26.838125 218.060320 -39.518692 13 1
-19.988476 212.223850 -36.567924 11 1
7.805028 40.063126 -12.317429 12 1
-35.696033 114.259060 3.133681 0 0
-23.670815 214.377700 -17.894003 11 1
45.219231 220.701370 -25.305937 13 1
56.412659 215.335540 -43.320099 13 1
67.368736 197.777440 46.437164 14 1
-78.385605 155.114410 5.221251 22 1
33.354633 215.422930 -36.261391 13 1
5.654404 38.164143 -18.484959 12 1
14.007487 202.263500 54.292244 16 1
33.118122 219.258770 -26.618275 13 1
71.686852 100.231380 -9.314087 21 1
17.557276 69.669556 4.088823 0 0
98.246025 89.045624 -10.756794 19 1
71.982971 198.144320 61.508148 15 1
91.567230 182.361690 71.306282 15 1
-27.059057 201.717540 79.991730 25 1
-32.604408 212.422850 -22.702255 11 1
5.518579 220.037840 -29.212929 0 0
-31.717968 183.371320 96.624855 25 1
-46.664288 170.040470 32.897957 2 1
-13.866754 196.490940 86.108215 25 1
33.114799 186.945390 70.553764 16 1
0.571155 195.341290 44.950157 0 0
-6.538274 213.519270 -34.347755 11 1
52.528683 97.032860 -19.947390 21 1
-59.154209 190.512220 -28.837931 11 1
53.869884 184.384570 51.172993 0 0
-100.063370 155.730830 -21.991196 24 1
0.790706 176.002700 4.124315 0 0
13.924412 131.977160 21.078800 0 0
9.420744 209.396560 -11.769732 18 1
98.105225 177.780880 70.199852 15 1
-74.452881 155.677400 20.353960 22 1
1.186611 217.885700 -51.313046 11 1
51.958477 97.333534 -12.728075 21 1
-66.225815 131.506410 -43.348656 4 1
-9.656893 224.892640 -16.228703 17 1
-1.319913 133.387220 -35.899673 6 1
-20.176350 203.292270 77.566360 25 1
69.945175 181.710050 4.964490 14 1
-29.439222 187.588550 92.620880 25 1
112.536420 157.040760 79.483398 15 1
68.388924 102.913660 -0.435581 21 1
-36.702316 181.492190 20.048203 2 1
37.957863 191.406040 59.550510 16 1
65.375893 95.566055 -9.977333 21 1
-32.518143 155.087950 124.085640 25 1
-2.136672 4.050698 -2.851964 0 0
-10.703936 33.848305 -25.627981 12 1
102.941000 174.742740 85.051125 15 1
2.508107 186.807940 38.766026 0 0
-75.252975 152.779600 28.849028 22 1
63.716454 198.075420 66.200386 16 1
68.682549 191.093090 24.898079 14 1
87.805977 88.694542 14.548871 20 1
23.142080 218.943820 -37.171658 13 1
-5.750659 40.638119 7.053696 0 0
-28.051771 38.293648 27.289318 1 1
30.575140 194.192630 75.517288 16 1
87.215340 184.153490 14.200638 14 1
-10.143656 44.146885 28.995539 1 1
78.414917 193.645830 60.437378 15 1
-12.514315 213.242950 7.745103 3 1
29.078157 214.627840 -55.322891 13 1
-100.482510 161.169160 1.855134 24 1
19.246828 220.847180 -33.253529 13 1
-4.564140 75.732674 6.784144 0 0
-8.062977 220.841450 -24.219250 11 1
0.177690 35.480850 -2.222743 0 0
57.140087 199.128280 43.324821 14 1
-2.066522 221.766720 -52.654430 23 1
26.348833 185.475560 91.487518 16 1
12.841558 40.167595 -8.722916 12 1
-0.471839 222.675540 -61.766113 23 1
81.677582 66.573967 36.377838 20 1
-18.214624 194.846970 60.993835 2 1
-72.865829 129.484860 -40.271729 4 1
-6.733195 207.346890 50.231503 2 1
6.990010 81.274345 10.150866 9 1
-26.045101 210.599260 -33.621216 11 1
36.990822 220.450410 -32.926304 13 1
13.021915 200.365570 68.874306 16 1
103.327840 172.147900 73.115822 15 1
77.631432 98.732826 -3.925155 19 1
113.919560 148.622360 92.606483 15 1
1.995505 210.806060 -104.340320 23 1
-24.354324 193.291180 39.687786 2 1
66.609238 83.967384 -29.406748 21 1
-14.389223 224.600970 -59.229542 23 1
17.024267 221.961210 -29.118034 13 1
59.277153 179.777040 76.150543 16 1
-25.700819 208.379140 -43.772350 11 1
-10.085544 205.125440 67.611504 0 0
95.121735 187.777630 58.655178 15 1
-14.017650 197.945740 54.448368 2 1
-86.878479 151.332950 22.194546 22 1
49.372803 201.988330 28.777662 14 1
107.668070 85.668343 -17.066315 19 1
4.672309 202.887660 69.378967 16 1
-6.903197 182.566250 -128.356480 23 1
-74.888443 146.035870 39.760506 22 1
-60.231346 142.930660 -39.211838 4 1
-60.289894 135.897640 -43.547897 4 1
7.290066 179.667250 -18.030472 0 0
-25.350330 204.714230 -49.280041 11 1
-0.421797 140.218480 1.030359 0 0
-10.032758 40.400150 19.167334 1 1
81.282249 188.639240 74.810577 15 1
80.021088 197.815280 80.543991 15 1
29.018934 208.698290 51.547394 16 1
2.974583 202.357770 63.531326 16 1
-31.818720 189.315730 25.776577 2 1
9.801522 213.796880 -38.301823 0 0
16.014088 218.150530 -9.752135 18 1
-50.227962 164.270580 28.543152 2 1
83.305367 190.583850 62.440304 15 1
5.222811 212.882130 -7.324493 18 1
56.257507 191.961430 52.020386 0 0
-32.895180 183.780210 49.902885 2 1
-3.767345 114.364010 -0.138044 0 0
71.647812 102.763280 6.069171 20 1
49.599625 84.459351 4.895317 0 0
13.373740 211.291200 49.137970 16 1
-19.446583 194.623250 53.508373 2 1
-95.895279 150.826520 -8.522662 24 1
8.792510 115.455900 11.465428 0 0
5.547308 125.539030 10.879913 0 0
-2.714382 194.657260 50.280170 0 0
-23.856981 197.808240 27.640045 2 1
48.878605 102.799570 -7.634552 21 1
-86.173988 136.228880 47.449665 22 1
15.939761 217.651200 -42.408733 13 1
67.814926 180.866620 73.426666 16 1
-23.944813 192.262220 27.127419 2 1
-20.209717 177.122480 -124.689930 23 1
15.508183 201.718190 65.841324 16 1
9.015198 197.512660 -26.246769 0 0
58.093140 93.077698 2.593818 0 0
-79.078712 155.677090 1.135917 22 1
12.232234 81.196861 9.527601 8 1
44.791935 196.111430 74.924110 16 1
95.113403 182.752200 86.504860 15 1
51.327564 70.040115 -36.549786 21 1
-75.201691 155.053680 -5.164007 4 1
75.896156 174.340230 6.361475 14 1
23.263525 187.784130 72.625923 16 1
22.702356 217.265550 -56.685638 13 1
-72.268936 156.967560 1.580389 22 1
5.977061 191.485860 -26.379658 0 0
9.802581 218.507600 -16.261459 18 1
-4.218178 35.347088 -24.541687 12 1
-37.270805 184.008650 30.209938 2 1
48.814770 188.763520 95.133430 16 1
45.671646 96.539482 -19.736839 21 1
43.022743 84.347610 2.397357 0 0
62.397415 198.495880 79.319107 16 1
36.741543 163.125960 36.760826 0 0
-36.838516 206.488540 -23.529129 11 1
-51.347370 158.538120 23.046417 2 1
-102.829580 151.735960 -9.780891 24 1
-1.096337 116.899010 4.051986 0 0
-114.057820 147.934300 -5.400735 24 1
73.858101 97.160805 14.564938 20 1
103.738250 88.351303 -6.395586 19 1
2.830148 213.607860 -49.950134 11 1
-0.605725 219.005740 -59.824921 23 1
34.114861 178.632480 99.710373 16 1
44.979286 174.693310 46.159847 0 0
23.608358 184.993090 84.453773 16 1
-84.873764 150.472870 18.692919 22 1
-16.231380 189.430660 -122.355420 23 1
24.907928 72.370529 6.967822 0 0
-0.696810 54.674889 6.530791 0 0
5.611924 166.114730 21.132414 0 0
-24.691170 198.770430 82.165298 25 1
33.051643 213.410690 -53.260780 13 1
59.175190 200.589950 72.485138 16 1
37.740402 198.321140 54.784931 16 1
-1.436837 28.302286 -1.173429 0 0
21.502575 184.862440 90.508736 16 1
-71.963104 158.074460 17.561987 22 1
49.578365 187.814090 61.949192 16 1
-9.400031 198.762420 61.397377 0 0
96.381180 177.077500 82.016502 15 1
17.738092 214.447880 -39.673782 13 1
-76.424278 169.913010 -35.878086 11 1
-73.081879 157.174880 12.305202 22 1
-2.719150 47.303272 0.784279 0 0
-24.295376 216.526470 -83.302597 23 1
117.361920 149.978680 81.633377 15 1
-19.900791 171.478530 110.755670 25 1
80.326675 191.603260 82.835434 15 1
3.615773 112.190290 11.633783 0 0
58.840828 98.127327 -7.657317 21 1
68.146317 186.050190 9.041675 14 1
35.597454 77.051331 6.412269 0 0
1.092151 217.048690 -88.220436 23 1
42.340534 197.145900 55.669758 16 1
29.634071 152.236080 31.385889 0 0
15.204585 194.065810 79.167770 16 1
-4.832394 209.701350 2.978298 3 1
5.374196 176.198390 -20.146021 0 0
-21.330238 194.325010 49.831429 2 1
90.622948 93.602203 -6.828614 19 1
-30.273661 200.300310 -107.517080 23 1
98.548615 173.671300 78.386414 15 1
-66.456566 157.362980 33.566475 22 1
-78.587334 155.112670 11.610048 22 1
28.002060 192.930150 60.962650 16 1
-3.991959 213.571620 -9.954943 17 1
-6.137037 211.934540 -44.816208 11 1
-12.642323 182.379750 101.812670 25 1
-113.312810 146.900880 -20.896770 24 1
63.846653 192.683120 32.564896 14 1
-18.794470 197.401080 45.225861 2 1
1.341362 206.939580 -11.421348 18 1
26.271837 146.533340 31.884840 0 0
98.509331 90.920235 -18.632164 19 1
-19.296158 183.333390 100.639700 25 1
-79.780251 151.041340 24.723333 22 1
5.907980 144.436420 1.678514 0 0
9.280263 218.247360 -45.855476 13 1
67.742889 84.927536 34.335743 20 1
-2.403976 68.225662 7.667854 0 0
-23.493067 188.553250 -117.635340 23 1
72.324715 90.836479 -19.793819 21 1
1.509906 128.601560 -10.743168 7 1
-56.145313 149.134900 -35.552319 4 1
-3.181735 202.707120 7.828702 0 0
-18.362085 43.954414 27.419365 1 1
-16.116671 38.119225 23.211630 1 1
38.383041 194.107360 77.839882 16 1
66.683067 173.063780 6.679077 14 1
-18.382393 39.019165 13.516420 1 1
4.761277 33.021358 -24.765793 12 1
75.711227 197.820510 81.667473 15 1
-16.825251 99.709167 3.057937 0 0
-1.088296 119.361660 0.738318 0 0
24.750130 207.622790 53.269413 16 1
93.420555 97.461418 -4.158308 19 1
-23.618940 204.225100 -53.221245 11 1
-90.799416 153.469600 -3.582297 24 1
0.617028 43.818634 23.694590 1 1
62.136417 193.617810 23.204578 14 1
85.193283 92.087135 10.705876 20 1
7.882850 33.618107 -18.348782 12 1
55.602932 198.070880 56.798004 16 1
69.342979 94.384537 -12.763108 21 1
20.642237 215.508470 -36.214397 13 1
-14.723972 208.849030 -101.556370 23 1
48.988426 89.438850 -25.742432 21 1
49.887157 185.001790 68.884689 16 1
-10.786574 34.898174 -19.571787 12 1
-25.618073 207.398380 74.572289 25 1
18.211187 93.832962 9.711275 8 1
-10.670986 214.049760 -43.213806 11 1
8.562939 218.317470 -39.394112 13 1
-21.964178 199.880910 42.826225 2 1
-36.729691 180.564640 38.339729 2 1
-15.174036 212.864750 -29.803827 11 1
63.544365 193.184490 63.273842 16 1
45.902691 100.326420 -12.528201 21 1
-8.112974 205.707000 -112.003270 23 1
7.803320 206.594190 -8.549458 18 1
-8.628174 199.582860 80.883698 25 1
-61.591938 151.683090 -23.996912 4 1
-12.581202 187.288600 -124.916550 23 1
-31.371704 181.906250 22.757679 2 1
58.201656 196.412490 27.961306 14 1
12.581114 212.331740 -9.955320 18 1
39.814392 167.965820 42.861702 0 0
-2.499551 93.953590 3.021709 0 0
20.198206 135.074050 25.264812 0 0
5.124077 189.966260 -22.363991 0 0
-69.009285 183.544830 -31.828522 11 1
83.751266 186.386200 80.132347 15 1
-8.852048 222.696180 -12.726248 17 1
-52.805859 188.849810 -47.285412 11 1
-15.956446 43.837402 15.256478 1 1
46.869019 210.103040 -54.710564 13 1
-3.509645 198.869060 94.959396 25 1
81.106293 181.383940 12.579206 14 1
4.916884 150.149110 7.396094 0 0
-4.283501 212.502370 -39.611313 11 1
27.387760 181.853470 97.284203 16 1
63.747551 193.881130 39.949066 14 1
111.687620 164.773680 78.963676 15 1
39.161110 186.767620 91.012230 16 1
49.738571 202.472170 53.922401 16 1
-38.517845 181.072450 46.477905 2 1
49.998573 217.378490 -30.132105 13 1
-25.416876 169.333040 114.918780 25 1
-66.738121 142.450320 -3.022115 0 0
-11.529411 208.205030 -107.416870 23 1
-1.767453 216.495740 -43.144348 11 1
0.311383 185.504940 6.526754 0 0
61.128704 214.588130 -42.599548 13 1
-23.331520 200.816940 -107.358120 23 1
91.612350 70.357124 33.391834 20 1
-43.841854 174.303180 29.272758 2 1
85.244034 60.480633 37.623444 20 1
-9.036322 41.007137 26.629139 1 1
57.579388 98.081322 -16.246531 21 1
-16.058872 204.351120 72.476082 25 1
-62.545292 188.432070 -27.748016 11 1
51.499729 215.928220 -42.183109 13 1
16.181479 184.780560 89.503052 16 1
74.566780 191.454640 34.549339 14 1
-13.669755 41.662174 8.974594 1 1
10.065279 126.426120 12.188624 0 0
17.616440 24.544935 -23.488615 12 1
-19.215366 207.132740 -49.438080 11 1
-27.460033 184.717300 95.807060 25 1
103.883010 177.017680 74.281227 15 1
54.109600 78.305550 -32.152340 21 1
-50.457905 126.325400 -1.739904 0 0
-65.862274 158.331680 -9.766988 4 1
22.748774 145.333530 29.691605 0 0
67.334854 195.479220 38.590179 14 1
38.972477 225.411450 -23.308519 13 1
-70.258263 143.018600 -27.953764 4 1
-29.773050 207.033910 -41.718922 11 1
-6.592713 218.503400 -85.985992 23 1
36.637520 216.129430 -44.297176 13 1
-84.940155 153.298400 -15.706717 4 1
-69.341545 128.602080 -43.019245 4 1
-32.509274 167.045640 114.637990 25 1
7.008676 203.259930 -2.945529 18 1
116.112030 84.457680 -6.921678 19 1
17.227783 224.984040 -23.042700 18 1
-9.643295 202.360790 74.604210 25 1
-28.179451 190.931930 89.412033 25 1
53.337532 197.370040 51.660717 14 1
-0.217630 130.109820 -24.109623 6 1
92.365593 101.355460 0.629625 19 1
110.080040 169.023710 75.441467 15 1
65.211113 95.766548 -18.712112 21 1
91.160118 191.304960 57.594967 15 1
20.386614 202.950490 52.806961 16 1
-3.848981 101.570610 5.001713 0 0
-56.255562 136.336150 -2.137947 0 0
15.370761 19.660475 -28.676378 12 1
-9.667131 99.139648 4.472553 0 0
101.470500 174.557920 90.929131 15 1
