-20.529112 64.318649 8.029351 15 1
-65.023567 126.521340 -14.146256 20 1
-44.115623 71.469727 29.243313 9 1
9.400982 107.539950 58.400665 5 1
-79.339432 55.314110 24.585657 7 1
23.768656 100.699200 49.839970 4 1
-12.953271 124.616310 -70.806328 21 1
-9.812386 132.173710 17.192265 6 1
19.057007 132.177460 21.782185 23 1
-32.028400 114.533340 -92.168755 21 1
5.452311 5.886206 18.197393 1 1
-7.544785 122.264270 -84.355896 21 1
-60.519112 68.819572 14.337835 7 1
36.274021 87.079163 29.295124 4 1
10.306539 107.651190 -56.151596 22 1
-2.418462 139.962070 37.203674 2 1
6.465899 142.940960 59.867332 2 1
-31.603497 123.248090 -36.815739 20 1
5.598974 128.583660 9.609735 23 1
5.613202 114.677380 56.744297 5 1
-3.964776 76.355576 59.821728 5 1
-45.035172 125.231020 -81.364662 21 1
31.020624 93.967377 29.872921 4 1
6.939787 98.232925 35.459492 0 0
26.584431 104.978220 26.315321 4 1
-7.744921 76.412369 54.654957 5 1
-58.365253 62.309067 10.191801 8 1
17.876623 122.960170 -33.126431 22 1
-22.850050 131.097790 29.195494 6 1
58.031059 80.156296 -53.144176 18 1
-10.545372 102.525790 -20.898533 0 0
-4.249309 141.709670 33.374424 2 1
-19.079565 130.553020 17.821321 6 1
-66.960907 63.826107 28.356977 7 1
-5.224424 118.863900 -13.262610 10 1
-11.194225 132.003810 28.525457 6 1
-16.665318 85.466415 44.193840 5 1
-71.606125 119.205410 -27.285860 20 1
1.308685 4.709715 -26.687403 12 1
11.831835 123.548450 -35.176861 22 1
-19.261774 115.119580 -89.171112 21 1
5.295254 105.038050 38.155163 0 0
-3.795587 79.862999 -1.296567 0 0
-53.104214 118.094980 -44.824497 20 1
-6.296888 124.647670 -15.779483 10 1
3.190889 113.211780 -14.341747 13 1
11.517148 114.623410 -18.446333 13 1
8.198196 139.579470 46.351257 2 1
0.177469 114.895800 9.342071 0 0
-9.691622 70.668747 51.163635 5 1
17.887207 115.441960 37.277023 4 1
-37.877220 116.890810 -91.418625 21 1
-60.814491 58.691288 14.526234 8 1
-4.032923 85.926888 0.312001 0 0
-1.920033 12.717228 15.278809 1 1
23.430647 105.443420 40.390770 4 1
-41.657059 130.045700 -20.619673 20 1
2.284830 70.767548 11.282909 0 0
-6.746256 131.540120 22.862358 6 1
-59.912479 118.241070 -31.562094 20 1
-5.509415 79.746269 57.460999 5 1
25.170063 114.819470 71.540840 3 1
39.049217 132.188050 10.509759 23 1
-42.105042 116.239000 -96.493568 21 1
-65.273491 65.352875 12.330317 7 1
-1.548882 97.000130 52.516670 5 1
1.653142 82.275337 21.945265 0 0
10.835095 118.349750 67.875832 3 1
-45.866653 121.401300 -32.865879 20 1
30.691793 83.814972 44.901573 4 1
3.893893 7.991110 20.081944 1 1
-15.510582 79.658318 45.695854 5 1
6.154797 136.976000 37.198723 2 1
-27.837406 125.950850 -63.158684 21 1
11.742064 118.861620 -21.321701 13 1
4.164286 84.073456 25.978060 0 0
-15.255390 120.045520 -80.372726 21 1
-29.737925 115.678920 -88.040718 21 1
-9.016423 123.480320 -47.119900 22 1
-28.758976 66.020111 -5.793455 14 1
-60.853939 120.732810 -22.703819 20 1
20.490011 82.220024 -41.509129 19 1
-35.539330 56.759224 10.958824 0 0
-63.697460 116.906460 -37.648441 20 1
1.248790 75.528419 62.487995 5 1
-19.561356 117.508320 -83.120461 21 1
-24.858059 119.285030 -86.631859 21 1
31.376343 86.081482 39.539692 4 1
-0.929315 99.177635 56.754242 5 1
62.743717 75.425209 -60.508595 18 1
-67.394844 119.428090 -21.927526 20 1
-18.396177 59.212269 -1.214098 16 1
9.430651 126.896090 -30.252073 22 1
-39.786854 58.648403 39.112587 9 1
21.814871 106.220300 45.408409 4 1
-27.785027 133.520050 18.667669 6 1
-8.597501 127.862520 17.836550 6 1
30.759323 87.144112 42.759686 4 1
34.393574 77.941010 41.867882 4 1
4.979717 5.660702 -25.103247 12 1
-64.548126 66.958046 24.199537 7 1
4.995731 84.231445 67.493179 5 1
34.699490 84.144089 -33.389919 19 1
-6.579942 14.506001 15.947590 1 1
-42.222393 68.909126 31.746998 9 1
-2.557959 113.401260 -3.546019 0 0
-65.957916 118.053090 -25.882015 20 1
-1.227983 109.258780 51.138611 5 1
-19.838234 119.790790 -77.609642 21 1
7.837931 112.128560 -49.899979 22 1
-27.972792 114.491520 -97.923592 21 1
-0.688031 51.428596 -4.741453 0 0
-53.414093 66.212296 3.470762 8 1
-25.527931 124.727490 -37.438965 20 1
-19.990124 136.583300 14.532473 6 1
62.086800 65.174576 -27.375465 17 1
-22.180349 127.673160 -36.806591 20 1
-68.396439 125.062130 -12.993899 20 1
-52.211670 127.564910 -19.268682 20 1
15.850004 116.181160 68.488808 3 1
-13.179862 111.918830 -25.977928 0 0
-24.584265 127.801310 -34.538452 20 1
-71.625725 61.773628 14.226324 7 1
7.475874 135.707640 42.730549 2 1
-6.267875 20.863873 9.744023 1 1
8.361767 136.640180 24.349291 2 1
-0.948505 5.460024 -32.079041 12 1
-53.726124 69.054924 7.813992 8 1
-19.486412 58.925385 -4.194731 16 1
-33.738525 120.006100 -81.736557 21 1
7.321937 130.417070 12.963111 23 1
44.583855 81.600616 -27.149775 17 1
7.383202 113.053720 -45.312176 22 1
-50.956814 50.900894 35.833778 9 1
4.783589 104.544040 55.536385 5 1
-4.735830 99.003563 -2.126257 0 0
-2.884051 74.923553 54.797947 5 1
-60.094280 52.830807 -0.756870 8 1
0.820948 140.105240 36.668411 2 1
18.849329 109.661320 38.317272 4 1
21.354614 120.319870 -34.669762 22 1
38.174595 102.273800 91.081909 3 1
-29.243269 126.426760 -40.200481 20 1
28.806469 134.280500 0.530427 23 1
6.789101 110.998000 -54.940685 22 1
-43.386459 61.822861 14.184484 0 0
8.365883 107.079990 42.236599 0 0
-23.558481 118.356980 -78.116310 21 1
24.124401 98.949928 44.212925 4 1
-45.986881 121.247230 -91.702126 21 1
-12.124873 13.921679 19.041164 1 1
0.326234 44.874409 0.835797 0 0
-57.540951 71.977051 19.749622 7 1
20.076851 107.385800 52.719112 4 1
-31.746607 123.363730 -45.011742 20 1
-7.193335 93.372353 50.935890 5 1
2.841483 128.724260 19.907448 6 1
-35.137184 136.262240 26.519892 6 1
16.901367 106.170210 48.432476 4 1
33.745850 129.643630 8.321621 23 1
-55.537178 66.078499 24.859018 9 1
1.938009 90.663368 58.618191 5 1
-7.292626 88.277359 53.082207 5 1
-29.510971 127.001590 -33.058498 20 1
-38.292988 115.173170 -101.753560 21 1
-1.536642 69.746323 64.103386 5 1
22.902197 131.963320 -0.763631 23 1
-18.488256 125.565670 -69.791893 21 1
-2.542758 118.369170 -50.519291 22 1
-68.305656 121.889740 -17.481264 20 1
10.983648 138.107680 29.789419 2 1
-9.293926 122.164920 -41.033798 22 1
24.316101 130.387220 21.185503 23 1
-44.895603 122.236380 -86.914352 21 1
-27.897171 110.727310 -105.467210 21 1
-69.876686 116.410430 -32.158051 20 1
-3.726959 132.018980 25.173885 6 1
-74.964211 57.474953 25.346922 7 1
27.961786 89.076988 43.113342 4 1
-28.691650 139.066130 12.874330 6 1
63.558140 66.136368 -21.382938 17 1
34.728302 91.889008 27.558157 4 1
-40.871056 122.898460 -30.742992 20 1
-0.573970 43.242840 -2.575575 0 0
0.676803 139.214680 33.364780 2 1
10.851430 132.314960 9.715003 23 1
31.115805 93.991669 35.282768 4 1
-24.760725 127.723810 -42.165245 20 1
-0.450273 5.684772 21.911081 1 1
26.013361 131.772660 15.545547 23 1
-5.172190 79.434830 51.791687 5 1
7.471453 124.079190 -35.908985 22 1
-34.171700 128.239360 -28.285789 20 1
6.420286 10.844510 -21.791712 12 1
10.186626 131.527390 18.470926 23 1
5.803727 135.687610 27.600903 2 1
-72.837257 52.581337 30.398741 7 1
-13.229133 62.236263 -5.385234 16 1
-18.706306 133.125440 25.734304 6 1
-57.053421 129.787490 -11.326598 20 1
1.864001 15.253935 -21.030647 12 1
-3.703232 142.243700 41.945862 2 1
3.980782 143.649380 57.252888 2 1
0.579420 9.000292 -26.764874 12 1
-6.921721 72.187462 56.673630 5 1
-1.749758 142.638490 48.704723 2 1
5.853175 87.671249 67.658958 5 1
-4.161856 17.555695 -3.479908 0 0
-43.510715 127.435970 -76.349663 21 1
15.083382 106.653300 90.419022 3 1
-31.855877 122.813810 -76.741287 21 1
-58.057579 118.168040 -45.778683 20 1
-4.881463 121.732520 -38.577335 22 1
-18.242067 119.010990 -80.710930 21 1
55.710979 76.002876 -23.624268 17 1
16.876759 136.734650 43.020988 2 1
-3.610451 30.445496 -0.373206 0 0
-18.786264 114.973490 -99.652420 21 1
36.464596 131.953380 12.527868 23 1
43.514732 86.319550 -52.438133 18 1
-6.421238 7.376082 21.854979 1 1
-36.978283 114.959600 -95.097191 21 1
23.173908 110.109760 78.515373 3 1
5.466755 102.826110 64.280853 5 1
44.796566 86.579330 -43.639244 18 1
29.588427 95.431969 96.313622 3 1
22.190783 100.837850 47.184204 4 1
-32.293736 137.326860 19.617680 6 1
-6.771487 116.556640 -4.080890 11 1
57.870037 69.437271 -34.094322 17 1
1.046469 9.057045 18.168196 1 1
54.385422 72.170883 -28.267899 17 1
-4.175045 90.860352 1.447459 0 0
8.159858 106.961460 54.928787 5 1
17.166546 138.946660 50.838833 2 1
18.993509 118.795560 64.273041 3 1
-35.111332 135.492340 30.213243 6 1
13.420988 136.648540 46.377071 2 1
27.526052 91.350418 51.161877 4 1
39.133030 105.478850 85.123222 3 1
-30.185135 126.330890 -36.881958 20 1
-14.994672 109.371540 -26.345598 0 0
35.181084 81.893837 -36.135044 19 1
-3.234679 -1.289648 1.241731 0 0
-52.169651 118.999860 -38.186272 20 1
24.870741 85.458893 100.469210 3 1
-13.566213 103.057440 -23.091606 0 0
-36.586239 125.570370 -32.172989 20 1
15.079741 115.083920 -39.629528 22 1
6.234305 135.967580 31.789021 2 1
-55.368664 120.650150 -26.626060 20 1
-18.649632 61.037220 -8.853459 16 1
0.190931 116.193060 -51.283325 22 1
41.966415 78.987312 -29.221481 0 0
3.732073 3.968583 24.116798 1 1
27.051628 99.344620 90.280975 3 1
-53.847149 53.555012 35.290932 9 1
-25.762688 136.081880 22.276686 6 1
-5.185082 69.347908 55.006805 5 1
-42.704082 117.821550 -93.520653 21 1
-57.902679 58.015823 6.091870 8 1
-3.887481 35.568325 0.041708 0 0
-35.696548 125.258720 -35.923847 20 1
-48.317883 121.598730 -29.026613 20 1
-63.068111 41.807228 9.316089 8 1
-1.465831 15.093120 -0.528966 0 0
8.942836 140.510640 57.433918 2 1
-13.158062 131.750640 24.338711 6 1
1.857410 12.796959 -23.047735 12 1
-44.696575 56.217121 37.852074 9 1
14.017538 112.665280 80.062042 3 1
-1.072470 90.034050 0.892082 0 0
-20.361330 124.034520 -63.376244 21 1
-4.959056 45.496399 -0.158512 0 0
10.903421 101.692000 100.582030 3 1
-35.435062 136.903880 23.233168 6 1
-15.685539 121.589000 -33.474045 0 0
-52.373924 134.752730 -8.611457 20 1
2.927755 77.760048 20.352238 0 0
-61.594978 127.796080 -13.916581 20 1
-13.046158 91.222115 44.392456 5 1
-0.603245 100.601970 4.385442 0 0
17.673679 104.499070 54.613773 4 1
19.694172 104.644860 86.920731 3 1
-56.150654 62.145798 1.290708 8 1
-11.754304 77.259697 49.746284 5 1
-0.409176 4.943545 0.203041 0 0
-46.526684 130.097760 -17.827511 20 1
14.109911 115.123990 53.613354 4 1
-22.272305 126.460940 -49.654907 0 0
-43.819195 130.671890 -73.377777 21 1
-8.129114 83.759071 48.788292 5 1
13.813105 139.469680 49.612240 2 1
-3.716081 23.267548 -3.034528 0 0
27.860701 130.575070 18.258013 23 1
21.462429 99.742287 54.683411 4 1
-27.403334 111.995830 -94.180809 21 1
5.546716 113.869330 -17.113464 13 1
59.658863 73.352997 -65.504074 18 1
-10.939037 91.260750 46.849274 5 1
-4.468709 130.001950 -15.844611 10 1
-10.632022 123.474860 -50.093475 22 1
-4.889302 116.713870 -11.034438 10 1
32.851936 82.968201 39.463047 4 1
15.203644 109.810040 54.113010 4 1
0.284986 19.124624 6.803812 1 1
16.813471 127.645710 10.996736 23 1
63.501202 76.734024 -56.763382 18 1
-40.309418 124.051910 -79.546822 21 1
-38.113155 129.305390 -67.941368 21 1
-1.851896 94.669815 4.414732 0 0
0.425206 22.890518 -1.378367 0 0
-27.605370 131.460940 24.509737 6 1
0.827777 66.896942 6.645748 0 0
-15.702453 125.394960 -71.899490 21 1
4.640249 101.271690 37.525398 0 0
39.905357 76.783966 -29.600451 0 0
29.847332 98.201691 32.099449 4 1
3.193204 89.922112 29.469685 0 0
-2.977465 128.380870 20.288002 6 1
-23.942074 123.603440 -79.196022 21 1
0.331288 138.448610 28.899055 2 1
-9.362134 117.704950 -88.145363 21 1
19.635500 113.850430 33.410362 4 1
-7.243619 107.539760 40.518646 5 1
-4.513345 14.127515 -24.713320 12 1
-14.069018 114.407470 -27.542046 0 0
-30.626862 127.063950 -63.779686 21 1
37.205563 83.157669 32.162457 4 1
-0.817531 81.881935 -0.679419 0 0
-24.997751 66.274223 0.264468 14 1
26.941870 95.492180 93.252914 3 1
13.032623 130.777800 22.155455 23 1
-0.065563 35.455231 -0.430677 0 0
-6.492494 42.923042 -2.579054 0 0
-10.364347 121.390680 -86.414764 21 1
-25.809076 126.416050 -58.757915 21 1
-19.822983 121.146020 -71.059914 21 1
20.334896 86.330711 97.832779 3 1
12.228045 112.998030 50.001484 4 1
-47.326706 126.168720 -83.360916 21 1
-3.911306 79.194649 -7.883804 0 0
-17.954897 133.319090 12.293004 6 1
-60.999676 51.695881 9.303781 8 1
-59.688168 68.462936 22.911572 7 1
7.075876 139.687580 54.884697 2 1
-21.787828 60.887966 -4.662247 16 1
29.756163 76.930748 -44.530415 19 1
4.937507 134.423770 22.283640 2 1
10.228580 134.562550 35.085854 2 1
14.275375 114.571650 74.510292 3 1
-23.196560 119.969780 -72.816528 21 1
-10.167645 73.626648 46.134850 5 1
-11.163462 99.088310 40.920490 5 1
61.708981 71.341148 -18.285526 17 1
-7.592421 120.416460 -88.659790 21 1
-63.054649 116.579580 -44.359669 20 1
-49.319969 132.734790 -12.920335 20 1
1.890276 84.069481 60.032635 5 1
-0.456283 107.173930 53.190464 5 1
-4.719420 128.401050 -19.294840 10 1
29.174767 82.300354 49.952049 4 1
47.726707 78.220024 -30.004639 17 1
-47.677917 124.145340 -23.818760 20 1
6.270303 112.270720 82.132149 3 1
-50.939121 129.402340 -16.650572 20 1
36.511822 132.104550 15.616529 23 1
14.379670 115.829530 45.765980 4 1
-40.523350 125.894980 -76.562317 21 1
-14.972780 93.299744 37.965359 5 1
-17.939499 129.908580 26.172335 6 1
-10.897150 102.715550 36.478008 5 1
-2.734609 39.960022 2.126797 0 0
39.627930 130.811480 7.493614 23 1
-2.365668 70.152771 58.502758 5 1
7.762309 115.416630 -9.823436 13 1
0.356510 140.403340 46.214764 2 1
-46.250465 65.988396 30.402504 9 1
-16.702110 61.879921 -4.208777 16 1
-6.007998 14.721450 -22.047176 12 1
-24.814030 110.751420 -105.891910 21 1
-31.215218 137.586500 14.608416 6 1
-65.400391 118.621340 -35.779297 20 1
-5.957053 18.452358 -16.985659 12 1
-27.635841 106.201680 -108.143710 21 1
-5.376855 119.155560 -45.458820 22 1
-14.735163 76.616875 43.664120 5 1
7.571101 10.684297 11.473842 1 1
7.924476 119.724510 69.725533 3 1
-15.980583 88.393974 39.670712 5 1
64.118736 63.285183 -26.167227 17 1
-60.943214 67.260742 19.491354 7 1
-2.127342 88.701424 58.766254 5 1
-25.923462 124.788700 -34.346073 20 1
-31.358799 71.667839 -8.294239 14 1
-63.688332 122.469210 -23.047182 20 1
21.967787 102.315220 90.173790 3 1
43.628128 87.071320 -47.205685 18 1
-12.029853 125.959850 -5.790056 11 1
-18.809111 127.890680 -64.935013 21 1
19.386112 128.046420 9.299599 23 1
41.834030 103.389080 87.114937 3 1
-2.278134 22.015717 6.402705 1 1
-2.128226 101.236320 54.070877 5 1
-17.150591 52.476780 0.603914 0 0
-14.956248 129.445210 25.096519 6 1
-24.003300 106.447430 -108.000960 21 1
31.862600 79.322021 46.701469 4 1
21.003897 133.510330 3.859849 23 1
-37.585896 121.869830 -43.332592 20 1
59.551270 76.621948 -60.950638 18 1
-59.534184 63.737717 18.031450 8 1
8.379663 112.810040 58.441879 5 1
32.063999 88.737541 38.396141 4 1
-17.378901 63.927376 -9.057405 16 1
-27.878582 113.158940 -100.789410 21 1
-48.508904 64.095482 30.020267 9 1
4.334079 129.357700 -31.337746 22 1
-3.311078 129.869030 -32.166275 22 1
58.007648 69.069908 -28.324860 17 1
3.129199 113.447720 82.806290 3 1
39.466080 80.157578 -33.472858 19 1
-29.723688 129.145800 -58.530396 21 1
-24.212521 134.753600 13.852352 6 1
-1.945318 78.091667 1.980886 0 0
15.249120 135.043950 -4.943436 23 1
-43.099777 125.643380 -24.487286 20 1
25.844477 95.840622 48.747417 4 1
13.542801 133.712340 2.165881 23 1
23.380039 105.684390 31.915775 4 1
-9.274423 2.560161 22.138865 1 1
-2.140761 97.950958 -0.438992 0 0
-3.568493 93.712196 55.621140 5 1
-3.172093 10.951758 17.302269 1 1
-60.972279 49.224400 5.668729 8 1
-45.210033 65.906410 16.316305 0 0
-0.297063 121.834420 -37.663830 22 1
-53.144535 125.589640 -22.382896 20 1
-10.363340 120.374690 -83.584068 21 1
7.247053 116.360470 51.633835 5 1
-75.879539 116.619820 -33.463440 20 1
-13.636154 82.670067 48.569649 5 1
-54.958626 118.823440 -34.638138 20 1
20.920023 104.052180 56.208069 4 1
18.455820 112.056980 43.101410 4 1
17.364716 138.190090 37.773914 2 1
20.302567 115.496400 68.646011 3 1
-26.222500 137.247180 16.493994 6 1
16.122562 132.116270 19.425632 23 1
-36.450382 138.685130 -12.493627 20 1
-16.223661 130.745250 15.675020 6 1
20.902914 109.469960 40.702076 4 1
28.949753 100.618660 24.162226 4 1
-26.836706 68.701790 -10.090682 14 1
-2.258249 126.040190 -36.411793 22 1
-0.545433 135.787320 26.572124 2 1
-37.256077 130.214360 -65.046173 21 1
5.658751 131.455580 -28.066797 22 1
-15.324844 132.372150 31.115507 6 1
-68.296486 119.939570 -27.683458 20 1
25.055565 134.435530 -1.040126 23 1
21.342339 134.331210 -4.630391 23 1
-23.447426 105.162910 -112.312590 21 1
-27.225466 133.954300 32.078712 6 1
17.400270 114.775280 71.574898 3 1
24.118780 107.853200 -44.373280 22 1
31.862213 96.302422 25.600386 4 1
22.087061 111.197960 30.572191 4 1
-17.091175 116.748870 -96.853737 21 1
-51.931061 122.043130 -32.903305 20 1
16.353050 112.712930 -44.718906 22 1
-60.606602 123.989880 -17.557634 20 1
19.811163 99.851440 91.909744 3 1
8.745704 135.122300 27.050865 2 1
23.972998 114.969170 68.772568 3 1
-9.097801 19.225559 14.633191 1 1
-1.219555 79.474854 55.923874 5 1
-46.941753 71.543373 24.631470 9 1
-13.531562 114.398250 -100.712040 21 1
7.569644 103.592340 96.304169 3 1
6.619180 7.848250 16.078043 1 1
20.267384 129.329190 17.136816 23 1
-19.696899 126.645850 -42.078720 0 0
23.493603 104.145920 43.024525 4 1
25.822054 133.136410 5.635518 23 1
33.838394 106.639630 84.710861 3 1
29.684774 84.683937 47.524319 4 1
-67.610428 61.257446 34.127460 7 1
6.319086 106.630740 93.072273 3 1
9.575005 106.746010 65.182358 5 1
37.606396 78.234680 -39.937183 19 1
-26.533857 137.047730 12.253324 6 1
16.154100 124.108320 -31.041500 22 1
-31.305489 108.368520 -109.723460 21 1
-78.374458 116.502450 -30.147884 20 1
2.163333 117.669950 -13.392254 13 1
-53.612400 69.861320 16.714893 9 1
-0.725316 63.731129 0.184091 0 0
22.124266 112.494320 -43.113735 22 1
-5.550630 106.337270 43.064751 5 1
5.373977 105.465680 62.871712 5 1
-31.029263 123.564790 -40.260143 20 1
-2.432679 139.323930 32.903263 2 1
1.343700 1.988159 25.630598 1 1
-21.267839 125.324680 -58.941620 21 1
-8.971441 116.574220 -91.584435 21 1
3.799357 73.864540 67.511345 5 1
-70.547920 54.941498 32.775043 7 1
-33.308636 118.627020 -84.366074 21 1
-0.612556 117.082160 -54.816730 22 1
-35.224548 123.379570 -77.624542 21 1
-6.165599 93.168266 47.702496 5 1
-42.391933 54.180702 38.883453 9 1
-26.914194 116.936580 -83.056793 21 1
-0.450676 143.165470 45.725292 2 1
8.959433 119.121810 -37.802738 22 1
-33.087231 111.390790 -99.998146 21 1
23.006887 132.119370 16.280594 23 1
-14.460461 137.615600 10.894676 6 1
-38.171539 122.019830 -83.665024 21 1
23.859762 96.954025 92.071747 3 1
-20.553677 58.129055 0.594764 16 1
-62.747677 117.574270 -31.446451 20 1
-25.917849 64.032532 -1.465577 14 1
34.053238 104.800250 87.329613 3 1
0.808874 129.604390 15.430312 6 1
-58.051174 122.443920 -27.189699 20 1
-30.570738 111.668550 -97.245026 21 1
-1.883078 64.593857 63.256767 5 1
-53.587185 69.627373 12.057816 8 1
-72.467537 121.446500 -19.979053 20 1
26.045574 116.900280 67.779297 3 1
2.809709 17.217245 11.544440 1 1
0.916121 69.268990 65.772453 5 1
1.345858 114.976420 -47.310329 22 1
-7.941324 132.350010 14.479583 6 1
17.394636 112.099990 37.659760 4 1
-10.970382 124.135330 -75.899872 21 1
-3.933644 19.543709 -6.221400 0 0
-18.083096 62.398041 -11.512787 16 1
-12.391795 94.601677 42.421032 5 1
-68.788902 116.030210 -37.413494 20 1
-2.623669 111.279170 6.617466 0 0
-24.061064 108.659940 -102.838810 21 1
20.757776 100.382680 -55.497681 22 1
-0.212143 92.626045 59.671177 5 1
3.392632 14.145862 14.416601 1 1
29.562798 103.732510 88.579613 3 1
-17.688860 86.967056 41.852604 5 1
-61.061443 45.931435 3.879158 8 1
-27.049778 119.144840 -77.435005 21 1
-61.802906 44.889137 7.685026 8 1
-69.623627 59.443150 29.551039 7 1
1.101943 71.085480 13.917141 0 0
16.936457 136.995350 45.903042 2 1
1.862894 119.233060 -42.356495 22 1
-59.949436 123.478290 -22.566912 20 1
-17.952658 46.038574 7.240971 0 0
16.973257 107.456510 -48.177582 22 1
32.349270 96.213806 95.952507 3 1
2.915356 111.995030 -53.279221 22 1
19.185503 132.351060 12.298728 23 1
18.920891 132.275450 17.468489 23 1
2.360791 76.906105 66.847946 5 1
5.475803 140.065340 44.665634 2 1
9.990460 13.924021 8.411456 1 1
-6.161695 101.029320 47.682091 5 1
11.312852 137.833630 32.899620 2 1
18.547623 117.260770 -37.129395 22 1
-42.992672 63.971550 34.359417 9 1
-29.023497 119.101280 -79.808487 21 1
31.753374 130.681900 3.057892 23 1
0.528476 40.556908 -0.645700 0 0
9.940056 110.263340 -48.423424 22 1
8.198241 113.930720 80.375389 3 1
-5.696258 42.931808 2.353410 0 0
-71.198624 58.554588 20.882248 7 1
-42.128883 123.043570 -41.974709 20 1
24.209866 116.729920 -37.356907 22 1
25.920027 130.835590 2.161560 23 1
-2.062032 15.796742 -25.149765 12 1
-3.254970 104.687160 47.013596 5 1
-30.896097 114.613620 -96.775803 21 1
6.036837 97.373360 32.743019 0 0
-2.747005 83.892456 1.885048 0 0
27.132071 93.205002 56.702991 4 1
-0.999095 115.134050 -11.008441 13 1
13.527697 132.100630 11.561987 23 1
4.607127 136.760030 43.714199 2 1
57.399933 78.505913 -19.893707 17 1
29.341026 89.260124 100.099020 3 1
29.012350 99.122116 92.712891 3 1
-43.944828 121.400260 -89.687584 21 1
5.141592 20.617655 -14.391191 12 1
14.084017 118.991870 61.771854 3 1
1.850245 109.833490 49.433842 5 1
-4.447765 97.265816 52.695301 5 1
18.852623 109.247010 54.564934 4 1
51.273636 81.288902 -24.000786 17 1
-19.277569 137.825910 8.572802 6 1
-73.307602 123.058750 -15.360676 20 1
25.400522 104.293610 88.346992 3 1
22.794191 103.266690 48.787048 4 1
17.301815 133.494460 -2.895043 23 1
-21.512119 62.722198 3.535246 15 1
-39.367249 115.140160 -96.661934 21 1
-2.962690 23.125225 -5.935390 0 0
22.583197 84.173203 -41.899956 19 1
-8.236927 104.779950 39.667706 5 1
26.077518 128.498410 10.305337 23 1
-2.673020 52.823120 2.692823 0 0
-9.061940 124.943460 -40.418125 22 1
-64.088547 56.086231 14.197762 8 1
4.876010 19.156086 8.417107 1 1
36.847752 97.561195 95.790276 3 1
13.119293 50.577206 -10.838048 0 0
-72.573273 115.778020 -34.728283 20 1
-35.600311 58.658085 13.129440 0 0
1.383709 5.393425 -30.319126 12 1
-24.337433 60.554230 5.644590 15 1
-30.494850 125.096550 -68.575943 21 1
-2.588481 138.972110 29.497143 2 1
9.538776 107.306920 -53.350197 22 1
-37.221630 122.711440 -35.486820 20 1
-6.027772 12.092110 17.397593 1 1
-45.352398 128.228640 -78.370056 21 1
18.026730 107.871090 57.853710 4 1
-54.997723 60.681522 32.466473 9 1
-74.983192 57.502987 18.237041 7 1
2.430925 6.367333 22.793051 1 1
-2.851187 77.794495 54.311344 5 1
-4.369997 62.673706 1.798567 0 0
-24.775789 111.374020 -96.089478 21 1
-5.774223 128.504440 21.598011 6 1
6.330986 110.571750 61.563618 5 1
-0.723662 87.213562 60.777256 5 1
-5.617966 120.839540 -49.482502 22 1
8.300683 134.083400 32.474583 2 1
-22.869795 115.367380 -86.626961 21 1
-28.647699 124.977120 -43.161995 20 1
-1.389624 15.894294 -21.636415 12 1
-74.684464 119.882600 -23.044851 20 1
-53.596893 64.111191 25.859539 9 1
41.120037 102.021160 89.884705 3 1
5.946746 118.070290 -42.210674 22 1
-18.861303 121.898830 -85.005615 21 1
51.529564 81.616577 -57.770203 18 1
-0.362114 77.854729 63.524849 5 1
-0.928580 61.844357 6.702977 0 0
-13.565503 126.737010 -48.965908 22 1
-3.885953 130.614580 15.981367 6 1
-64.885986 51.004314 12.894148 8 1
35.645779 130.444700 6.271700 23 1
18.745365 114.837940 -41.876114 22 1
-1.329803 2.674583 24.209003 1 1
13.098898 118.354860 70.242729 3 1
4.478731 129.998210 12.035825 23 1
0.772970 84.669044 57.502560 5 1
42.550957 87.396225 -41.957390 18 1
-11.951228 50.970161 1.850015 0 0
35.081413 131.972290 9.549725 23 1
35.319786 84.835770 30.727352 4 1
24.797226 104.509740 -49.727833 22 1
-31.812958 135.349610 29.496735 6 1
9.316651 142.317140 65.139336 2 1
13.709434 136.058880 43.172001 2 1
-45.626823 122.107060 -42.961529 20 1
3.010352 105.695560 93.119240 3 1
-13.807240 55.216236 4.709924 0 0
4.172690 127.076950 14.026663 23 1
-5.181416 101.928740 -1.540042 0 0
-7.356181 129.376920 24.915468 6 1
-42.448021 122.326270 -84.500885 21 1
-15.257174 119.917570 -89.787926 21 1
-0.382757 17.661213 -0.973641 0 0
-6.179399 17.390808 13.897179 1 1
-20.504519 129.190800 24.167398 6 1
-6.091687 131.162490 30.147860 6 1
7.246078 46.635410 -6.507338 0 0
12.681648 140.072250 53.193832 2 1
-7.382409 121.109270 -52.934494 22 1
24.462687 112.811140 76.308640 3 1
-4.466996 68.229820 2.559641 0 0
20.826641 103.712040 44.587601 4 1
38.630009 107.801540 79.206108 3 1
11.051905 113.832950 54.877434 4 1
16.578154 118.479530 66.022507 3 1
-37.033562 130.382770 -22.514154 20 1
-15.835843 114.126760 -29.719584 0 0
3.121980 136.595500 40.517860 2 1
9.457554 49.588802 -10.161381 0 0
-1.544732 131.444410 22.011696 6 1
-13.004736 88.883003 42.236210 5 1
-3.341594 21.462975 -15.611826 12 1
-5.813918 105.938310 -2.817360 0 0
-0.097136 58.013226 0.649596 0 0
-1.889384 139.990220 41.250431 2 1
-3.402452 109.711040 47.696823 5 1
9.955059 18.569866 -14.821791 12 1
-17.001347 124.608190 -79.072067 21 1
-49.257309 120.073240 -46.061447 20 1
-15.949748 112.081340 -96.849754 21 1
-3.985809 33.108368 -1.364924 0 0
-78.377792 53.481274 30.315800 7 1
0.245508 75.068291 14.673669 0 0
-32.248230 123.387460 -34.046494 20 1
-49.835052 66.617668 25.860727 9 1
4.033666 133.572630 28.115635 2 1
-68.314590 116.531290 -29.015074 20 1
-24.961075 64.798584 7.691992 15 1
-33.307213 116.687600 -93.429550 21 1
25.480143 97.598648 39.530254 4 1
29.102961 93.898170 40.730938 4 1
-14.095242 121.215070 -78.102203 21 1
-23.859144 122.286990 -67.779350 21 1
2.587661 88.168747 61.555107 5 1
-0.605727 142.653700 42.089546 2 1
-11.488932 118.599540 -5.174879 11 1
-57.262859 120.189150 -36.031414 20 1
-22.162275 59.389919 4.189143 15 1
5.610268 15.001765 12.595591 1 1
-10.645866 125.037420 -72.406357 21 1
-62.111881 121.423410 -27.625532 20 1
-53.565060 68.111732 19.633547 9 1
-17.176186 127.079270 -7.535025 11 1
-1.073302 0.627043 1.496748 0 0
-18.176882 128.837140 20.349192 6 1
-50.216705 124.070340 -22.141548 20 1
-4.951935 83.591835 54.592789 5 1
-36.726505 122.188020 -40.682835 20 1
-18.203150 122.454430 -34.327282 0 0
-39.061100 122.205250 -47.069477 20 1
-40.605232 114.772030 -99.447083 21 1
-26.872625 65.830757 10.980865 15 1
23.009222 129.826580 18.692663 23 1
-8.927740 87.143219 -12.091563 0 0
8.300969 105.564670 60.039631 5 1
13.831816 117.156430 -41.022514 22 1
29.332661 92.065353 36.230152 4 1
5.900180 96.565918 67.259766 5 1
-38.934711 118.495220 -96.091240 21 1
11.559187 108.510190 -50.002308 22 1
-0.466478 103.546680 55.361256 5 1
-28.150835 65.910004 -2.963073 14 1
-25.386595 124.518960 -63.771084 21 1
-40.079144 120.906600 -89.010925 21 1
-13.928436 114.544900 -91.912842 21 1
-77.110268 49.457687 30.921282 7 1
19.970049 108.482960 50.161388 4 1
-34.273220 125.131410 -44.304745 20 1
19.174675 103.162470 51.706688 4 1
20.457817 110.289760 -42.776680 22 1
-79.482765 117.982590 -24.027777 20 1
-40.382011 129.117770 -71.430389 21 1
3.977968 126.966070 11.253124 23 1
-6.678130 127.254200 15.836843 6 1
-13.713699 62.656265 -8.356558 16 1
11.805147 138.358220 44.893509 2 1
-60.508343 56.822399 6.468805 8 1
-49.630009 71.700455 20.386444 9 1
-35.693890 118.584820 -91.010254 21 1
13.626354 113.433360 -41.596741 22 1
-8.209546 68.311913 49.708847 5 1
6.893496 131.803500 19.784367 23 1
-35.314316 136.347470 -15.080976 20 1
4.703968 98.568108 63.164516 5 1
-27.129955 132.178050 34.370869 6 1
-42.503708 137.664000 -9.181190 20 1
-49.672127 121.134110 -42.081573 20 1
-57.296291 60.319847 8.538351 8 1
-13.675513 118.952710 -83.369522 21 1
50.523529 80.035423 -64.434891 18 1
-9.343122 97.116661 -18.840137 0 0
9.900571 130.610140 15.251227 23 1
-15.769454 60.639320 -1.487538 16 1
-47.648396 125.182540 -26.388618 20 1
6.363375 113.205620 51.377453 5 1
6.635425 140.914670 50.212128 2 1
-39.847820 127.986420 -25.649942 20 1
-45.782883 61.639542 33.940407 9 1
-56.479588 64.658363 14.314339 8 1
-57.921959 58.884792 -0.303660 8 1
-29.197720 113.591920 -92.144058 21 1
-1.277432 48.317394 -3.090011 0 0
24.091757 132.482800 10.279905 23 1
-26.495964 121.664860 -81.966713 21 1
-22.504053 131.569960 34.148609 6 1
62.512211 68.011177 -23.128019 17 1
-64.347015 66.948395 20.633259 7 1
-33.087521 134.839690 21.014444 6 1
24.714220 90.849945 47.300838 4 1
-27.920004 124.104870 -72.207420 21 1
-10.191570 86.304855 45.736267 5 1
-72.013008 49.666386 33.104031 7 1
-27.751043 106.089580 -112.138600 21 1
2.720289 11.203712 17.365944 1 1
-25.248440 108.281580 -109.650100 21 1
1.875590 84.290482 64.395264 5 1
-69.597809 118.535600 -23.384872 20 1
-3.298510 118.349450 -5.914551 11 1
-3.018351 126.801400 -17.493650 10 1
-5.709609 40.960171 -0.801747 0 0
-35.201267 112.288210 -104.208190 21 1
34.244080 110.748830 72.393608 3 1
-19.283848 135.483550 16.964216 6 1
-2.662038 143.162980 36.393646 2 1
-2.766877 121.934040 -11.116645 10 1
-3.419065 60.379646 0.527998 0 0
-18.286871 123.374050 -38.536083 0 0
20.105349 105.705660 -50.456814 22 1
12.247119 137.018450 48.877048 2 1
7.988716 140.808530 60.731339 2 1
31.690313 94.695892 32.677757 4 1
2.856098 102.523540 55.643017 5 1
-55.767372 128.344420 -13.952387 20 1
-1.321115 9.734495 0.129808 0 0
-20.286053 47.501911 7.118805 0 0
-8.996604 92.499115 48.836510 5 1
0.417667 131.587200 19.456511 6 1
-33.746315 132.787840 33.827053 6 1
-6.211500 80.225327 -6.677500 0 0
-6.269633 133.067720 12.257158 6 1
2.404646 76.480164 15.753037 0 0
-32.162346 115.775740 -89.626610 21 1
1.328045 80.538918 60.360271 5 1
22.416019 131.140410 1.858817 23 1
4.380537 115.383640 53.828484 5 1
21.498343 105.862750 38.474342 4 1
59.034527 82.942078 -45.067085 18 1
-64.951881 116.058290 -40.078461 20 1
-28.807777 122.861110 -77.216339 21 1
13.702814 128.946010 7.390785 23 1
31.184858 66.788406 -25.163845 0 0
25.204561 92.198158 95.204590 3 1
12.243491 116.027800 -21.120665 13 1
-54.029728 131.749570 -10.481220 20 1
33.341652 94.488121 28.085987 4 1
-9.431907 11.364747 18.606264 1 1
4.220370 98.812721 36.292934 0 0
5.948437 110.490730 53.373390 5 1
23.985607 89.448624 97.233337 3 1
-64.526413 67.174789 31.198153 7 1
-36.185490 132.469620 -18.884558 20 1
14.870429 114.494090 42.135353 4 1
-18.093857 122.043050 -75.092354 21 1
25.358068 102.469950 32.279118 4 1
25.597214 96.871056 52.301903 4 1
-10.922812 128.554730 20.999342 6 1
-15.087183 128.186080 -44.187202 22 1
-11.496199 67.014893 -6.550271 16 1
-44.185886 59.401794 36.394802 9 1
-2.088268 7.309018 -2.863601 0 0
59.959583 75.542206 -19.494312 17 1
20.645931 134.300380 0.396980 23 1
-3.326859 47.354824 1.372727 0 0
-23.758713 133.659620 30.323307 6 1
-17.050810 108.605580 -105.303180 21 1
-38.166916 125.091190 -27.953533 20 1
-74.541420 55.559547 22.616945 7 1
-69.942474 123.904210 -15.922101 20 1
-63.615318 47.285286 9.956558 8 1
-2.260115 72.709106 62.686859 5 1
-17.888109 59.380836 -6.534290 16 1
25.556234 87.898613 99.354218 3 1
17.340803 55.480774 -15.973759 0 0
-7.267116 46.895618 0.590215 0 0
4.754044 118.206090 73.245430 3 1
-24.007746 121.060850 -84.306969 21 1
22.161728 84.775635 99.148720 3 1
43.656567 86.736122 -38.007324 18 1
0.463002 111.695880 51.685299 5 1
-8.654186 89.945374 -12.636970 0 0
1.103665 100.418770 59.039036 5 1
29.519638 115.982760 69.255074 3 1
-2.077197 117.878460 -11.428540 10 1
-33.309811 127.906620 -64.948013 21 1
0.287124 15.018557 12.121098 1 1
-21.066557 112.689010 -94.158417 21 1
-18.702316 61.412003 3.398361 16 1
-4.641688 107.179570 0.228403 0 0
-15.660674 134.708470 15.787669 6 1
-13.029160 107.578200 -22.860334 0 0
-7.219368 123.029660 -38.034416 22 1
-1.624553 125.116520 12.614717 6 1
-16.930805 124.139550 -67.706528 21 1
-7.700258 66.021736 52.626484 5 1
19.460276 111.039830 78.623398 3 1
7.743806 118.236170 -14.801240 13 1
-9.694142 105.405050 37.391056 5 1
-4.066300 118.108480 -1.614048 0 0
-52.529579 62.192318 31.707346 9 1
23.897007 112.549510 -40.681355 22 1
17.636944 110.188010 -44.160648 22 1
1.424220 114.557660 50.454521 5 1
7.820604 115.457790 -41.518944 22 1
-8.539105 79.551071 51.963776 5 1
4.239888 11.977364 12.679906 1 1
19.795362 116.029400 72.829018 3 1
-4.201077 126.770610 -34.571949 22 1
-0.828155 19.356472 1.394294 0 0
-24.081907 136.320720 19.055546 6 1
-12.910513 115.361780 -95.507294 21 1
21.723715 99.833595 51.516048 4 1
-14.144857 138.717450 8.429268 6 1
-69.149254 58.512508 36.869915 7 1
12.709017 134.927860 -3.963486 23 1
-36.330959 124.691970 -39.608810 20 1
-18.549873 125.456220 -73.405098 21 1
-71.134636 54.785660 30.075792 7 1
-32.935799 113.541100 -94.921913 21 1
12.510468 133.443250 5.063136 23 1
5.221090 138.687040 49.568027 2 1
-0.844148 125.846390 -15.628401 10 1
9.393336 107.637190 88.228951 3 1
5.055697 143.522600 62.186985 2 1
-6.821658 120.951710 -41.149311 22 1
-31.915934 122.789460 -73.669411 21 1
-44.374489 119.644100 -95.706215 21 1
2.671679 114.570600 80.015320 3 1
-21.477926 114.961400 -99.293434 21 1
17.744099 85.025566 97.928009 3 1
-35.639755 127.035030 -68.959129 21 1
-10.091943 18.902317 17.137623 1 1
0.582615 128.844240 -33.235035 22 1
44.949703 80.483566 -29.669752 17 1
3.289271 9.058072 -26.683990 12 1
-1.875435 110.319730 0.402778 0 0
61.885155 81.495575 -44.543316 18 1
29.133127 132.235670 8.899212 23 1
-27.671457 132.605510 -25.393461 20 1
-8.973744 129.397190 -34.277069 22 1
-5.381908 144.828200 38.810303 2 1
28.711374 63.917591 -23.036869 0 0
55.701351 75.786110 -63.547180 18 1
20.435307 100.852720 57.134506 4 1
-25.177055 133.198000 37.138519 6 1
3.812345 94.730148 32.827789 0 0
46.539021 76.114380 -31.219084 17 1
-35.628529 125.269180 -72.547775 21 1
10.517326 130.592540 4.378941 23 1
-7.706191 122.854570 -4.623239 11 1
-33.925003 126.958700 -30.805405 20 1
-8.453364 119.118300 -7.465713 11 1
6.675661 109.520230 -52.679497 22 1
-15.296502 109.903610 -101.697200 21 1
-54.686646 66.052032 12.836258 8 1
3.601499 98.421272 59.892208 5 1
26.406717 88.802925 46.814072 4 1
-1.371676 116.002370 45.788105 5 1
-61.585716 119.830250 -33.559757 20 1
1.625428 106.764210 90.949348 3 1
-47.468742 121.721780 -40.613033 20 1
-71.525230 118.382670 -30.106060 20 1
60.001057 80.498703 -48.970188 18 1
24.761522 102.917070 40.715382 4 1
23.238955 118.467990 65.067230 3 1
-11.157035 43.500481 5.280690 0 0
6.221311 92.489204 70.331116 5 1
27.442604 105.070690 -47.438526 22 1
-41.195354 123.567000 -39.305874 20 1
-33.324883 119.693680 -86.841064 21 1
-77.174744 119.641940 -19.131235 20 1
15.025716 106.875720 87.551826 3 1
-10.214816 90.725296 -14.851002 0 0
23.109230 61.223255 -20.067366 0 0
12.313075 131.339290 2.501689 23 1
1.232682 80.279076 64.813866 5 1
5.326762 93.060379 29.219229 0 0
-22.442516 126.640540 -33.352314 20 1
-17.765772 58.223164 1.392294 16 1
16.062391 112.695550 77.536285 3 1
-0.345704 110.841090 46.214569 5 1
6.200565 109.185510 -57.039066 22 1
21.623592 56.683350 -18.409945 0 0
2.546857 125.682720 -35.656509 22 1
-9.811839 136.296260 10.595435 6 1
-34.980846 130.029300 -63.561241 21 1
-58.367390 54.631817 -3.332312 8 1
-28.942789 134.938250 16.696177 6 1
-3.611098 5.167594 -0.588086 0 0
-44.829071 128.102680 -22.636429 20 1
34.140125 92.645790 97.589691 3 1
31.652014 129.377470 10.172197 23 1
-0.789586 76.437729 -2.374723 0 0
20.944704 104.935900 53.561737 4 1
16.113630 133.523790 7.487221 23 1
-50.901684 69.594864 15.780121 0 0
-26.996161 128.789490 -58.230209 21 1
-55.024612 127.349760 -18.087410 20 1
-4.875389 0.552431 22.983450 1 1
-19.330683 120.661820 -87.344437 21 1
28.344896 94.368370 35.127113 4 1
8.552406 105.018520 63.397644 5 1
-15.836169 113.026280 -100.581700 21 1
29.026714 129.379460 6.638573 23 1
19.105820 104.418050 -52.590294 22 1
-0.574535 19.847744 -19.118986 12 1
19.653446 134.979890 -2.591274 23 1
-56.091686 68.571884 16.749166 8 1
14.621719 129.855710 20.091557 23 1
11.507014 111.161830 -45.571552 22 1
28.434980 101.127710 29.347988 4 1
-32.964310 133.011900 26.138086 6 1
-4.357967 94.050461 0.252687 0 0
-9.026707 15.556336 16.737436 1 1
-13.993093 128.493180 19.897856 6 1
-62.373173 40.894695 4.282814 8 1
-23.713120 113.299030 -101.675860 21 1
-55.141582 119.816760 -45.201645 20 1
34.353558 108.457960 76.203278 3 1
-38.129925 113.564190 -104.361090 21 1
6.593322 100.780080 39.603703 0 0
-7.011459 70.749466 50.560207 5 1
-1.056656 2.014379 -1.848470 0 0
-61.782269 51.582283 4.165030 8 1
-12.931702 96.949104 37.136929 5 1
-8.707425 44.300552 0.221329 0 0
-62.827065 44.218063 5.154375 8 1
-15.957396 130.221240 28.117407 6 1
-9.104979 123.585940 -6.872397 11 1
14.808348 108.778650 -47.103996 22 1
36.819359 95.777306 97.776489 3 1
28.534861 105.648540 86.529114 3 1
-18.415352 127.702130 -4.932005 11 1
-62.269714 66.425743 22.360954 7 1
-8.222174 102.495800 43.535629 5 1
30.924654 111.167380 73.567871 3 1
-0.385314 72.334671 0.012307 0 0
-21.520920 130.812710 -30.984016 20 1
-1.370319 40.707802 -2.793760 0 0
-47.142265 128.759960 -20.048672 20 1
5.798143 44.356499 -6.413473 0 0
-16.757788 54.325935 3.535315 0 0
-4.424830 122.103810 -41.692249 22 1
-53.803074 57.608509 31.639559 9 1
0.194288 12.774807 -27.349173 12 1
-59.006248 68.965340 17.264200 7 1
36.994457 78.870308 34.548664 4 1
4.487364 120.290140 -37.858124 22 1
-29.716454 70.237289 -11.514744 14 1
-7.955517 127.111980 -72.518738 21 1
-76.846863 115.763330 -27.915611 20 1
19.267315 110.237650 45.252777 4 1
0.399321 136.458790 33.503460 2 1
-69.090324 121.387730 -22.517809 20 1
-3.514959 11.572811 -28.233265 12 1
-3.210306 68.924446 -2.295794 0 0
-37.108807 134.551440 33.787357 6 1
-30.408806 136.462600 24.591413 6 1
-11.073920 77.202309 45.541275 5 1
-11.402915 95.222092 -17.414125 0 0
33.372242 75.239182 -46.394276 19 1
-3.308383 20.774233 -8.489321 0 0
-22.787243 125.134260 -74.083862 21 1
-60.602531 53.798939 3.075304 8 1
-5.101583 121.345310 -12.329846 10 1
-23.433968 129.990770 26.033129 6 1
1.547064 133.070250 23.149704 2 1
-56.336205 123.801310 -19.547970 20 1
-40.910931 124.007330 -35.187496 20 1
-0.745050 70.247711 61.288052 5 1
27.444304 94.002663 44.644451 4 1
48.781025 81.838028 -53.996593 18 1
-6.385776 97.020035 49.880077 5 1
4.479060 113.470840 -50.173634 22 1
-2.624204 57.829838 3.146417 0 0
-66.149414 119.751920 -29.942152 20 1
-10.496449 92.256607 43.176346 5 1
9.085462 16.082060 -15.783925 12 1
24.040874 105.592000 37.365292 4 1
22.362431 106.646880 85.878044 3 1
31.785067 98.656693 93.636581 3 1
-0.400548 18.095295 9.390552 1 1
-4.796391 19.658278 -19.039707 12 1
-30.813791 118.291480 -88.627846 21 1
-5.432501 106.124370 -5.432601 0 0
-23.949739 66.401894 -5.286328 14 1
-63.280071 124.789940 -18.020731 20 1
-39.905006 136.029300 -11.740142 20 1
-57.433994 61.572392 27.087833 9 1
15.846961 117.134790 72.595413 3 1
-29.067339 120.956750 -83.077179 21 1
2.193290 137.021790 30.690575 2 1
-21.911606 126.965070 -69.746536 21 1
-19.379227 125.072650 -67.339333 21 1
-58.756527 120.448940 -24.853668 20 1
0.155458 47.484814 0.445308 0 0
-26.095787 124.823950 -70.088203 21 1
-10.086962 125.636910 -36.768005 22 1
-1.922370 23.879005 -12.159965 12 1
9.954965 135.044510 39.957458 2 1
-36.229961 127.631620 -24.911163 20 1
-4.126345 8.976896 21.098373 1 1
20.570047 128.502670 14.644323 23 1
21.199980 111.594410 34.582047 4 1
-51.979355 121.173060 -36.668961 20 1
12.297461 123.799640 -32.491253 22 1
25.832397 93.068840 53.545822 4 1
20.707289 130.490300 20.569483 23 1
37.665577 81.335838 30.307978 4 1
-59.467701 60.851627 15.240417 8 1
4.359326 115.150580 -43.962627 22 1
-4.115835 131.334010 -18.105976 10 1
-11.584571 123.452690 -44.200932 22 1
-28.836823 120.853630 -74.554771 21 1
-4.660919 113.327840 0.474434 0 0
-3.890227 74.263107 0.644514 0 0
-11.846903 122.825880 -80.782280 21 1
-12.997929 130.726840 32.168720 6 1
9.656881 116.812480 72.825531 3 1
-3.097911 126.176540 -12.780943 10 1
-2.278371 143.632640 40.217384 2 1
-5.254970 46.508957 -2.875319 0 0
6.804588 107.773960 63.600029 5 1
4.064000 103.043160 62.060944 5 1
-61.628540 54.330711 7.013848 8 1
-2.092679 10.670375 -31.756311 12 1
-49.848480 119.021370 -43.673279 20 1
-7.664789 115.240810 -1.747900 0 0
15.293186 86.299316 96.096344 3 1
-59.823112 121.468000 -29.069796 20 1
21.105949 110.813290 37.407349 4 1
5.830048 14.685443 -18.609610 12 1
2.193246 95.823936 63.766342 5 1
-59.946499 130.075440 -11.407137 20 1
-14.829102 91.307465 41.919048 5 1
10.445535 115.695110 49.333656 4 1
33.667221 72.763512 -25.961544 0 0
9.608674 116.442760 -39.792301 22 1
-16.935699 118.399510 -30.141636 0 0
-49.446518 134.493120 -10.592677 20 1
4.626299 114.298780 49.582260 5 1
-64.237358 64.875153 33.248642 7 1
18.393305 111.851050 34.627525 4 1
26.728930 95.863411 36.890774 4 1
-37.131111 134.597630 26.884470 6 1
-16.611286 132.697970 23.764879 6 1
-55.930626 61.280991 3.980727 8 1
12.490588 131.517170 16.829420 23 1
3.985370 116.019260 -8.044129 13 1
-22.746439 126.779110 -39.349655 20 1
-22.916750 62.022984 -0.499708 14 1
15.599228 107.357480 50.560062 4 1
-65.804008 65.442833 17.553165 7 1
-4.216363 20.527502 -1.162799 0 0
2.495756 138.295930 35.783184 2 1
54.591236 80.318695 -21.351303 17 1
24.144291 119.772290 -32.731445 22 1
-42.196957 121.598660 -47.299335 20 1
-10.389761 125.189690 -2.107538 11 1
9.268381 109.564350 60.199642 5 1
-3.383642 64.582603 59.126411 5 1
30.222363 90.136337 42.330265 4 1
-60.503483 48.048702 1.436135 8 1
-12.981184 122.350810 -75.803215 21 1
-9.123715 115.463620 -94.068558 21 1
-20.326918 109.651390 -107.519850 21 1
-3.492202 76.468353 -6.792587 0 0
-31.465679 109.257640 -103.670520 21 1
7.771142 119.944850 -39.978432 22 1
24.327303 80.091904 -42.373142 19 1
-4.455652 4.201347 22.311274 1 1
-4.462371 97.135048 0.556060 0 0
5.718657 100.964680 62.467270 5 1
-36.185123 110.023880 -107.936410 21 1
-8.635928 21.455988 11.332185 1 1
19.710606 119.541570 -36.621765 22 1
-55.434948 65.949623 8.958504 8 1
20.020380 121.364370 -32.645741 22 1
33.867428 107.042980 80.251511 3 1
-66.199944 63.045120 21.562227 7 1
30.074791 108.036640 83.305367 3 1
3.505429 108.270030 51.834782 5 1
-0.526580 102.062300 52.085377 5 1
30.716761 108.022030 79.576096 3 1
27.703405 108.983570 78.896103 3 1
5.750785 109.572480 85.645836 3 1
7.863715 132.400300 7.350918 23 1
-8.183815 93.359703 -16.326300 0 0
-55.041332 55.984119 33.990681 9 1
-34.066605 122.978000 -36.008011 20 1
-57.609093 56.970573 1.436698 8 1
12.077379 119.179310 65.706886 3 1
29.012535 92.855255 95.953308 3 1
-2.922505 109.623210 -5.931230 0 0
-2.122274 103.508050 6.199774 0 0
-64.870735 51.728046 16.228010 8 1
6.602875 95.115158 33.907169 0 0
14.844352 137.837010 51.418625 2 1
-69.825424 120.231670 -25.597462 20 1
-22.916103 51.121895 9.820954 0 0
8.157721 138.702350 52.615456 2 1
-11.610864 80.944069 45.441814 5 1
-29.880016 134.570710 31.802734 6 1
5.486830 103.295970 36.129055 0 0
-63.412060 50.525784 8.920811 8 1
19.535807 81.213966 -43.709194 19 1
-1.465584 87.812889 -0.399140 0 0
39.700367 81.997978 -31.650265 19 1
-6.659923 123.395610 -81.126122 21 1
4.822688 108.555910 89.400070 3 1
-72.490494 118.690850 -21.900356 20 1
-2.034203 78.291992 61.546726 5 1
-18.574409 111.561990 -97.313599 21 1
25.261753 129.817670 17.204679 23 1
27.967306 99.445374 35.474712 4 1
23.426186 98.151695 58.866917 4 1
-17.675751 132.508440 28.307346 6 1
-74.274261 117.941890 -29.179749 20 1
3.553126 107.619210 59.201454 5 1
-11.067341 72.092224 48.022869 5 1
-46.221184 123.641500 -31.498837 20 1
-3.676433 16.354786 -20.403900 12 1
-56.717224 57.929905 30.189867 9 1
-4.097756 89.741608 56.309422 5 1
-8.312146 78.371300 48.529278 5 1
-48.038441 126.811710 -23.134418 20 1
7.499780 133.956920 2.866607 23 1
18.736750 109.793770 81.057396 3 1
-23.567722 117.455470 -81.053711 21 1
-7.871445 85.322266 -10.477915 0 0
36.184147 76.837158 38.137505 4 1
-0.803397 21.987408 -3.716371 0 0
14.103025 110.925870 48.651031 4 1
2.380156 102.528230 59.827106 5 1
-2.134108 107.192990 46.683792 5 1
-44.679180 134.634960 -12.169029 20 1
6.475102 124.930390 -33.359814 22 1
-20.272564 122.852980 -66.060097 21 1
-16.678896 113.712630 -93.259521 21 1
-2.323492 123.487230 -36.823196 22 1
-29.881489 131.256940 -25.135303 20 1
24.540094 101.441540 44.767761 4 1
2.811957 141.392120 53.819523 2 1
45.652649 82.932854 -55.672050 18 1
29.911346 89.985512 37.650406 4 1
16.371668 116.509570 39.599766 4 1
-32.610100 72.174446 -5.995781 14 1
-1.982904 120.858320 -42.187443 22 1
-8.295661 73.333748 48.194046 5 1
-5.183718 108.340930 45.611874 5 1
5.265008 137.913790 39.932533 2 1
-32.101204 73.594475 -11.544612 14 1
-7.300004 132.647750 -19.992086 10 1
0.060979 30.164948 -1.424799 0 0
15.590040 117.202070 35.048836 4 1
-40.672348 129.984480 -68.989845 21 1
-4.416166 71.608887 0.482550 0 0
-43.481869 121.756000 -34.933880 20 1
-15.626946 65.861687 -13.161626 16 1
50.563950 74.424820 -29.745792 17 1
1.502808 -0.926205 0.241267 0 0
-4.485753 110.477430 43.635601 5 1
-28.361540 107.833420 -110.338290 21 1
-30.177460 67.450455 -7.597367 14 1
15.392107 109.193640 83.359642 3 1
10.518257 135.721130 28.931627 2 1
-52.686581 61.462547 29.121145 9 1
-55.208656 122.452360 -22.061251 20 1
27.112783 81.387550 -39.702419 19 1
-37.860298 124.923130 -34.327732 20 1
-12.380731 65.323372 -10.249521 16 1
16.502058 117.146410 -40.232090 22 1
-78.256645 54.735241 22.056894 7 1
-0.534854 54.374855 2.927908 0 0
-12.339634 117.551520 -93.636024 21 1
-36.688465 124.511970 -45.077068 20 1
19.032547 108.473130 -46.143684 22 1
-28.053249 53.996845 10.684999 0 0
20.746933 117.073030 65.038620 3 1
-14.087805 126.907670 -63.184650 21 1
31.606236 130.750700 15.776667 23 1
-21.974014 137.685530 13.320064 6 1
-26.094027 129.120760 -31.078770 20 1
-6.354713 89.894577 48.867718 5 1
0.095150 6.323136 -1.926460 0 0
-56.765713 132.221760 -10.033837 20 1
-6.242050 120.070250 -1.792424 0 0
-31.300684 129.900380 -60.414467 21 1
-66.138565 64.958038 23.928196 7 1
-14.709253 133.176540 19.121853 6 1
-2.321356 118.220470 -47.722061 22 1
12.431002 116.437500 -16.627371 13 1
-34.525944 74.241745 -10.129584 14 1
-34.120636 125.064130 -40.979141 20 1
-70.172722 122.370260 -19.246309 20 1
-15.189355 82.361862 42.179207 5 1
33.989330 81.790108 41.438797 4 1
-66.312248 62.830200 32.313534 7 1
-56.967136 62.900066 12.293493 8 1
-9.095432 94.643684 43.322296 5 1
-64.977737 121.524780 -25.150885 20 1
-34.814190 115.360060 -98.457077 21 1
-59.413162 49.854694 -2.446992 8 1
14.927283 112.544750 52.257599 4 1
1.453794 42.944435 -0.773812 0 0
-21.193066 123.642000 -80.862015 21 1
-20.294598 130.947630 29.329426 6 1
-51.931866 123.927300 -26.679531 20 1
-17.216692 125.544660 -62.632767 21 1
15.441487 138.370350 41.667290 2 1
2.175040 20.868706 -16.334072 12 1
2.369873 20.372501 7.616405 1 1
-9.658596 101.379020 39.133862 5 1
-1.851085 115.193560 -1.858521 0 0
-1.337462 119.999790 -39.847664 22 1
11.620637 130.062550 20.032990 23 1
4.847599 131.719220 18.205158 23 1
-13.584780 132.100250 27.534870 6 1
-21.284910 122.254640 -83.454720 21 1
-38.328827 133.669690 -15.911361 20 1
20.659529 114.793180 -38.205486 22 1
-0.144568 22.454367 -15.656084 12 1
-48.048283 121.898040 -37.174358 20 1
-75.842957 57.167351 20.711388 7 1
15.394575 134.050930 0.434365 23 1
4.717182 83.596695 64.845245 5 1
-21.437130 117.941120 -91.290176 21 1
-39.478344 128.836820 -21.233818 20 1
3.536229 113.719500 -55.270676 22 1
-46.693401 135.809100 -9.949076 20 1
17.262270 111.175700 49.808411 4 1
-29.830511 104.733080 -112.737630 21 1
-46.370361 132.969730 -13.712997 20 1
32.377159 101.429990 91.175980 3 1
-43.382259 123.586240 -82.485840 21 1
-50.093750 126.139370 -19.222715 20 1
-12.219835 136.430270 11.433197 6 1
23.447756 102.488390 87.839424 3 1
-20.110338 112.481320 -103.733360 21 1
-6.075143 103.876250 43.528980 5 1
-2.739446 118.776010 -53.387352 22 1
-37.664764 123.421450 -31.312693 20 1
55.885750 69.789856 -32.385372 17 1
-29.078432 133.894820 34.849380 6 1
-68.658470 118.474390 -33.182274 20 1
-3.494090 74.079918 60.892994 5 1
30.173306 74.241257 -49.213242 19 1
9.836248 112.968440 -13.030548 13 1
4.110912 6.600909 -22.741327 12 1
-53.223431 129.801960 -14.924976 20 1
-6.986569 67.395386 54.648888 5 1
-69.410721 62.338959 18.668026 7 1
-11.209155 98.760155 -20.823305 0 0
-1.283234 117.263080 -44.069920 22 1
-10.567999 129.095280 23.819176 6 1
-17.502518 92.022583 36.478100 5 1
