26.502398 67.475487 -17.791042 7 1
-31.034664 62.212364 2.430524 6 1
12.746630 24.755299 4.915443 1 1
2.516143 57.113396 2.073708 0 0
24.033175 69.509949 -11.617479 7 1
-18.434614 68.545029 8.285294 6 1
-4.873888 28.620485 11.623829 2 1
2.990288 69.441551 8.216256 8 1
-20.774536 72.899704 -18.473658 5 1
-21.112110 65.909904 7.347954 6 1
-21.277754 61.666553 -4.052938 0 0
13.047710 26.831816 3.702131 1 1
-41.784229 59.769169 -6.428835 4 1
1.703107 64.264420 17.132597 8 1
14.796014 74.364738 7.147110 3 1
-43.225948 58.546238 -9.610602 4 1
24.194300 29.310879 -7.740374 1 1
13.849199 69.864601 -0.243127 7 1
-4.201957 26.636269 15.760351 2 1
18.121378 77.878777 11.822563 3 1
8.896697 72.212753 8.829978 3 1
2.674924 54.733322 -2.140918 0 0
-29.262625 63.967228 -20.172474 5 1
-2.184985 27.487780 20.204514 2 1
1.248147 28.417965 16.485081 2 1
-25.554798 69.619438 -28.617460 5 1
-11.202898 53.035030 -2.756321 0 0
12.225238 29.446892 -6.219028 1 1
-0.195982 28.957840 13.510875 2 1
-20.573240 70.843323 -28.903049 5 1
22.361675 33.639099 -11.506551 1 1
13.475039 30.813011 -9.851670 1 1
-36.103855 63.959679 -4.162674 4 1
-2.297148 63.224964 29.599257 8 1
-31.385349 66.177773 -10.618685 4 1
-19.199596 74.730217 -21.477573 5 1
-26.513638 63.822208 -2.067195 6 1
-32.248791 64.015732 -10.637035 4 1
-4.883690 64.814186 23.058744 8 1
-16.559473 23.209850 8.447699 2 1
1.613372 22.021212 1.291489 0 0
2.303529 41.965870 -1.838539 0 0
-22.570314 67.132141 17.515471 6 1
23.237450 73.219742 16.516159 3 1
18.886332 76.084312 17.376650 3 1
23.952526 69.204933 -16.775293 7 1
-21.477343 71.992241 -29.266130 5 1
14.621191 76.276375 9.785536 3 1
-46.734619 63.183838 -3.214569 4 1
22.531660 25.273783 -5.744545 1 1
-19.479328 72.014053 -13.715141 5 1
-54.900066 59.490158 -1.645364 4 1
12.829455 69.651909 5.546604 7 1
-10.276439 54.876305 -4.924383 0 0
-32.864613 64.514969 -8.638922 4 1
-36.138538 61.101566 -6.505672 4 1
-26.936872 63.937267 17.400455 6 1
-15.835219 23.570644 20.813417 2 1
-0.569280 26.885622 -1.377447 0 0
-7.883116 26.849171 10.131785 2 1
-10.046994 27.697062 -1.639531 2 1
9.238773 32.741524 -14.135403 1 1
0.523167 71.667694 5.035585 0 0
22.181141 70.912964 -14.057453 7 1
-29.439119 64.010078 -17.395485 5 1
-48.357754 58.196594 -9.747143 4 1
8.496015 34.347828 -15.073813 1 1
-18.539564 70.827873 6.594298 6 1
10.059624 72.539375 10.199764 3 1
-2.370136 28.693241 13.954931 2 1
-21.483624 70.518379 -33.160381 5 1
-32.415234 61.967285 10.466119 6 1
-35.267746 62.301533 -5.239038 4 1
-45.242523 63.265266 -3.518410 4 1
-20.318279 71.404327 -19.704794 5 1
-21.877522 60.022411 -5.722910 0 0
2.184881 32.849411 -0.182533 0 0
-29.678349 61.092396 7.763925 6 1
-44.597424 58.979076 -6.338503 4 1
8.531175 30.235384 -7.179441 1 1
-25.941616 64.036507 -3.710992 6 1
-2.640780 30.204430 7.710218 2 1
-23.542391 69.491882 -14.381212 5 1
-24.334059 65.887108 20.585077 6 1
-1.539610 70.331703 10.727659 8 1
3.636034 65.633064 23.551821 8 1
-59.868366 53.949760 -11.062403 4 1
-55.695019 57.291302 -18.430407 4 1
-3.195226 26.286737 17.781876 2 1
-23.170761 63.744602 -10.758067 5 1
24.628456 27.663631 -7.029408 1 1
11.032615 31.016417 -6.297510 1 1
-28.353661 61.343285 3.772844 6 1
12.466803 72.918243 6.146242 3 1
-10.199883 25.751621 8.898608 2 1
-48.877998 56.512196 -9.739527 4 1
10.272071 74.634499 13.540440 3 1
-26.543734 67.094749 -20.652126 5 1
-8.154865 27.696335 0.338230 2 1
18.596180 69.983231 0.306528 7 1
12.179871 71.902168 14.745704 3 1
-1.634169 64.156059 25.415726 8 1
9.641631 33.327858 -10.655551 1 1
-42.838928 61.926262 -5.194415 4 1
10.416207 25.589502 4.446470 1 1
-6.851089 48.726597 -3.275176 0 0
25.409925 70.188232 -5.430065 7 1
-23.989115 64.309456 9.536902 6 1
-19.563852 58.519276 -5.478822 0 0
4.085354 27.570910 -4.592199 1 1
-19.042313 72.531662 -15.950130 5 1
-30.061016 62.107201 -16.292747 5 1
6.281944 67.651482 16.498768 8 1
2.678449 64.691132 2.081728 0 0
-1.892979 45.306908 -3.626724 0 0
7.590927 60.858086 2.817894 0 0
-15.680807 22.247988 21.463779 2 1
-17.856424 69.125397 3.474385 6 1
-23.707409 68.524933 -27.118456 5 1
-20.551374 68.479553 23.843809 6 1
-7.061908 51.275551 -4.082799 0 0
21.301701 26.452576 -6.013631 1 1
-32.819878 60.780281 7.859453 6 1
7.889648 29.590530 -5.854252 1 1
-10.984444 24.678236 13.844799 2 1
18.854988 33.482857 -12.066545 1 1
-28.341972 69.431931 -34.092857 5 1
7.209409 26.645332 1.115741 1 1
-0.155107 22.093830 -1.009832 0 0
-46.445156 64.637680 0.558249 4 1
22.561600 72.743980 18.394238 3 1
8.998917 71.765358 -3.609790 7 1
-44.805740 63.501297 -15.645025 4 1
-27.179897 67.030090 -22.860600 5 1
-8.538963 61.473507 32.319080 8 1
15.189046 74.353088 15.799733 3 1
-41.209053 61.096214 -12.879763 4 1
-25.134966 63.408257 10.314527 6 1
-42.215115 64.659721 -1.155301 4 1
20.730251 70.410698 -10.264306 7 1
5.026143 53.611824 1.431914 0 0
-26.372856 63.942177 4.448707 6 1
6.446024 69.270744 6.692152 8 1
-0.999869 62.945007 23.375189 8 1
6.471543 27.202646 3.749891 1 1
-55.454514 57.346287 -6.903192 4 1
-50.769814 60.996410 -18.729074 4 1
-23.332306 66.389313 7.839127 6 1
17.441080 26.183546 0.049290 1 1
-24.184370 62.839161 -1.714801 6 1
-29.793465 63.623222 -10.351649 4 1
-10.084585 27.965099 21.682253 2 1
-44.484959 62.332275 -13.966036 4 1
-0.667658 0.390828 2.286385 0 0
21.421495 71.317589 -11.222669 7 1
-50.267448 56.464848 -8.677562 4 1
17.159477 75.387436 8.467704 3 1
-58.112522 56.104168 -7.516711 4 1
-58.215538 55.251835 -6.087205 4 1
0.924934 46.263386 -2.554869 0 0
-34.002331 60.978306 5.946827 6 1
24.288881 78.059509 16.854345 3 1
18.858040 27.847929 -7.026173 1 1
-26.070723 64.293358 22.880648 6 1
-21.137554 70.220047 -19.268257 5 1
25.897036 69.370361 -15.829770 7 1
-0.742972 42.389656 -2.295193 0 0
-0.063375 2.030293 0.978321 0 0
12.053370 71.255615 -10.887054 7 1
-29.866135 62.312939 10.653623 6 1
-3.428548 64.730034 19.411348 8 1
-4.604934 61.400230 27.205545 8 1
5.937284 28.799673 -0.913455 1 1
15.197069 72.334984 -2.651370 7 1
-17.569984 70.045258 21.834848 6 1
-45.024616 61.098251 -4.188159 4 1
19.285555 26.477928 -3.098623 1 1
-25.492376 67.345634 -14.272790 5 1
24.935631 77.448090 24.775053 3 1
7.101459 63.778625 5.314569 0 0
18.071354 33.285740 -9.944800 1 1
21.714787 31.848476 -9.888433 1 1
-2.072422 64.848587 22.517324 8 1
-47.006908 57.195225 -11.779059 4 1
0.465476 65.612289 20.593510 8 1
-40.489990 65.201286 -1.302165 4 1
-15.256855 25.364994 24.138426 2 1
11.231957 30.206474 -7.601854 1 1
6.630229 68.462502 12.139914 8 1
-24.694118 67.634209 -24.253220 5 1
-16.539579 56.253231 -3.861713 0 0
1.560743 59.892063 1.463548 0 0
-4.566689 66.721924 19.149349 8 1
9.690843 71.869148 -8.113505 7 1
-20.359783 69.348679 -14.491682 5 1
-0.371374 0.087730 -1.205975 0 0
2.389154 66.219658 19.309853 8 1
27.095978 26.885387 -8.401767 1 1
-53.541145 61.054729 -3.090868 4 1
-35.873348 63.778591 -9.798045 4 1
28.271660 78.048416 18.496559 3 1
17.017244 72.599594 19.193024 3 1
-7.001260 28.395559 3.885800 2 1
-0.094829 12.134089 2.148084 0 0
-23.967531 63.505981 -6.002010 0 0
-27.118763 62.289654 26.167086 6 1
-50.282799 59.736881 -5.733313 4 1
0.324786 10.171130 1.795916 0 0
12.599028 69.838089 11.150257 3 1
-38.175148 67.883698 -17.140965 4 1
-20.714989 60.898205 -5.738588 0 0
-35.584576 65.980194 -1.746200 4 1
-9.612917 27.799635 4.571043 2 1
-11.410614 27.298450 1.374518 2 1
-19.239164 67.186829 12.974291 6 1
20.324604 69.907433 -13.223814 7 1
8.241777 66.711639 12.285659 8 1
8.692999 68.253181 14.136596 8 1
-0.499243 75.902008 6.349701 0 0
-18.850525 68.606956 18.863523 6 1
12.628847 74.018791 16.923307 3 1
4.121909 59.138569 -0.906220 0 0
21.849594 71.629982 -4.394124 7 1
-26.417667 62.040306 24.310337 6 1
-19.556454 69.248177 2.143314 6 1
-25.895451 70.517784 -32.850185 5 1
-12.564285 26.485086 13.286744 2 1
17.095181 71.296936 11.402253 3 1
-0.621710 68.030434 13.455105 8 1
-6.773103 26.970886 12.094574 2 1
12.192424 68.634972 8.614650 3 1
-13.960465 23.739424 20.171125 2 1
-53.032860 57.303982 -17.195391 4 1
-28.203136 65.303154 -18.201689 5 1
-15.557562 21.294819 19.727995 2 1
-28.873249 62.808239 4.440844 6 1
-15.587665 23.446636 23.522034 2 1
9.357403 69.620956 -1.580485 7 1
-0.366683 38.670101 -0.195680 0 0
1.298494 63.378014 -2.081630 0 0
-23.926678 65.974121 -16.345133 5 1
-52.981026 54.552593 -13.570728 4 1
-0.437084 24.983849 -1.430744 0 0
-24.005859 64.451820 22.756931 6 1
-46.775440 59.290615 -7.317751 4 1
-0.585130 42.884617 -0.119728 0 0
-52.217979 58.991009 -3.091493 4 1
1.905129 63.884041 22.933659 8 1
1.743833 17.447287 1.588404 0 0
-12.927839 24.681297 4.409544 2 1
5.360702 58.148674 3.127715 0 0
-24.149559 68.049927 -17.085560 5 1
10.620909 68.807236 5.770160 7 1
7.613005 71.175690 -1.266513 7 1
-21.204865 65.941246 10.975225 6 1
-33.167686 63.368282 -4.567743 4 1
-43.111412 63.210968 -16.764616 4 1
8.074577 67.591957 9.634803 8 1
2.932959 33.255772 -9.970871 1 1
20.729904 72.127922 15.714727 3 1
6.393101 60.729961 3.958864 0 0
-54.390404 53.780521 -13.968995 4 1
-23.216606 63.732002 1.164584 6 1
4.466854 67.805283 13.057227 8 1
-20.857115 65.937462 2.054661 6 1
-56.298130 53.242062 -11.360730 4 1
0.965445 13.473413 -0.122874 0 0
9.212657 31.916948 -11.205036 1 1
4.879712 68.545486 10.353411 8 1
-47.569420 59.620922 -5.251202 4 1
26.762775 77.401535 25.882696 3 1
-1.961903 2.489278 -0.663867 0 0
0.598344 57.854973 -2.285511 0 0
2.949659 45.535641 -0.613066 0 0
23.958899 73.917114 23.131470 3 1
-24.578289 71.574699 -32.455769 5 1
-31.540176 62.192883 6.892352 6 1
3.998300 31.727928 -6.995931 1 1
3.662548 64.987541 -1.595256 0 0
-9.735067 25.697834 17.856735 2 1
17.160295 70.627342 2.955549 7 1
-7.027238 66.028107 21.261808 8 1
-18.172409 20.141346 14.941439 2 1
18.056843 28.821033 -4.997877 1 1
-47.000698 63.274570 -0.472534 4 1
-20.689829 65.942970 4.654747 6 1
25.779278 69.881493 -6.782042 7 1
1.673975 51.289753 0.923380 0 0
-31.698149 61.219650 14.087210 6 1
1.951359 39.730045 0.115171 0 0
-26.233070 62.563175 21.824135 6 1
-45.016857 64.938492 0.557972 4 1
-25.777992 62.875797 8.458679 6 1
-27.696804 69.418091 -30.542910 5 1
-6.575180 27.732004 7.516145 2 1
15.579871 25.683556 0.250809 1 1
-47.661953 64.450813 -18.909855 4 1
1.434047 -0.158045 1.289168 0 0
15.021689 32.120121 -7.939659 1 1
7.202363 65.554375 4.058573 0 0
-41.474827 65.415413 -18.674177 4 1
-6.411562 64.935669 23.646849 8 1
15.463648 70.467079 12.973399 3 1
1.369027 43.349022 0.056849 0 0
-49.093838 59.385258 -13.520823 4 1
-17.591970 21.225872 20.238409 2 1
1.191146 30.531328 0.860888 0 0
-9.302556 27.948961 8.107380 2 1
16.285280 24.800451 1.630524 1 1
32.362251 78.517540 25.325123 3 1
12.038936 32.284149 -11.623636 1 1
24.775234 33.998978 -12.378237 1 1
-4.700817 27.565327 22.035826 2 1
0.344530 66.015648 3.559242 0 0
-19.063950 68.257172 -0.469585 6 1
-2.955409 0.357545 -0.385338 0 0
14.790858 69.309044 3.618725 7 1
17.101912 69.991951 4.675789 7 1
12.388762 75.119270 6.245186 3 1
16.641701 77.097809 7.999413 3 1
-22.700670 66.757240 -15.683913 5 1
9.498138 70.592949 -6.273044 7 1
-49.416718 59.606285 -4.539514 4 1
-37.587090 62.830418 -3.523659 4 1
-58.040794 52.934036 -16.718307 4 1
-38.132618 66.855179 -14.915462 4 1
-44.620201 58.041790 -10.258147 4 1
19.842081 77.741058 14.725810 3 1
-21.573349 68.259956 21.231228 6 1
-17.093206 74.700516 -21.842567 5 1
-41.846565 63.626610 -2.276585 4 1
25.458828 74.175507 23.647884 3 1
-38.161324 64.923012 -2.840652 4 1
3.411604 50.172192 -0.595515 0 0
-25.524242 62.352104 3.238719 6 1
3.397309 27.089474 -2.785908 1 1
0.535715 6.527155 0.436905 0 0
8.936301 68.275627 1.545300 7 1
-19.049803 72.810661 -25.033924 5 1
20.215302 34.775482 -12.941366 1 1
-23.289953 63.355286 -3.180920 6 1
-22.013510 66.228287 20.116528 6 1
14.890867 72.712135 18.331516 3 1
-43.049690 62.732548 -13.503068 4 1
-52.242210 59.804447 -5.347376 4 1
4.568664 28.963999 -5.039218 1 1
-28.562027 65.476013 -6.793619 4 1
2.323541 23.250053 -0.432443 0 0
-17.473900 71.279602 17.139215 6 1
8.079072 25.550512 3.968762 1 1
17.966896 34.520821 -12.442982 1 1
25.194550 68.073830 -16.842676 7 1
-25.060284 62.559277 1.363019 6 1
-28.691181 63.075684 -18.755535 5 1
-24.636875 65.256668 7.937538 6 1
-39.630146 62.324184 -3.597951 4 1
5.488779 67.616608 6.012512 8 1
12.856461 70.149101 -2.477398 7 1
-11.982381 26.645636 16.246738 2 1
-13.666438 25.850115 0.114914 2 1
-14.367013 24.709932 16.790144 2 1
-61.287167 50.939671 -16.141697 4 1
-1.042951 14.599632 1.449139 0 0
-59.916874 51.673546 -15.818283 4 1
29.149099 75.065468 24.334461 3 1
-13.077101 23.752335 8.256301 2 1
23.392254 68.986923 -14.951596 7 1
-19.150717 67.168236 7.201556 6 1
-55.825161 53.099430 -14.817812 4 1
-28.681391 62.025772 -10.585227 5 1
23.484015 31.686165 -9.967318 1 1
17.089146 31.728697 -10.575751 1 1
4.162199 66.260109 21.200321 8 1
-7.391716 27.676147 6.367190 2 1
-33.968666 62.866589 -6.544300 4 1
-1.973409 66.250824 14.506789 8 1
18.155388 74.009140 10.608063 3 1
-20.363489 73.266350 -19.879669 5 1
0.826049 28.418200 10.509661 2 1
-0.491340 71.853577 6.787910 0 0
-20.084824 60.001236 -4.333510 0 0
-22.204895 67.365097 15.937577 6 1
-30.297329 66.386780 -3.541640 4 1
10.625103 71.941154 13.214396 3 1
-4.226746 27.434031 13.201941 2 1
-28.864864 62.801083 2.940930 6 1
-60.160751 52.045628 -11.079057 4 1
-29.066118 61.029293 12.520023 6 1
-2.073868 28.607231 15.846758 2 1
1.913712 29.463772 -1.186765 0 0
-0.305057 67.461617 0.337980 0 0
23.018454 70.104958 -6.058043 7 1
4.740561 32.685169 -12.899876 1 1
25.752033 75.706818 15.563095 3 1
-22.040346 64.708588 -1.322959 6 1
1.606376 15.120883 0.683231 0 0
1.722582 21.104786 -0.778457 0 0
21.999714 28.919922 -7.057248 1 1
-12.398057 24.792349 5.785034 2 1
15.979012 27.845112 -1.506233 1 1
-19.107386 72.427933 -22.254610 5 1
3.455657 64.544052 19.191893 8 1
15.151732 74.351173 13.904433 3 1
-39.521320 59.961025 -7.016551 4 1
0.813459 73.003166 0.148554 0 0
-32.187996 60.529240 11.362452 6 1
-0.987680 68.357704 2.786627 0 0
11.457736 28.867451 -4.682394 1 1
-28.175480 62.676159 -14.820420 5 1
1.530781 57.230953 0.624425 0 0
-18.138714 19.755676 9.882688 2 1
2.518146 65.232864 24.753941 8 1
14.810630 69.336823 6.115655 7 1
0.548016 59.571049 0.218948 0 0
-6.643988 67.440201 18.922184 8 1
-22.583263 61.159302 -4.368824 0 0
-58.467529 51.266922 -13.757654 4 1
19.729074 71.831642 -4.897189 7 1
7.786354 27.414841 3.172805 1 1
-21.536749 68.226654 6.992024 6 1
-33.520046 67.022064 -12.085321 4 1
-2.678132 69.273148 12.347321 8 1
-0.465328 39.947830 -0.802765 0 0
-41.994503 65.369705 -16.437656 4 1
21.770460 73.437653 21.407160 3 1
-16.918280 22.278389 4.236191 2 1
-14.121591 25.257116 3.504307 2 1
-49.790955 63.341129 -18.660322 4 1
-30.848850 63.946064 -19.196381 5 1
-19.034830 18.784153 13.490269 2 1
7.601066 32.493507 -12.808423 1 1
-23.209967 65.952202 1.180808 6 1
1.852238 48.706390 -2.197499 0 0
-24.135143 65.426712 4.210190 6 1
-24.032457 66.524979 -10.318512 5 1
25.561934 25.327543 -8.208339 1 1
-40.958466 59.279995 -8.895109 4 1
18.530836 23.656431 0.026985 1 1
-42.513828 60.443489 -5.249564 4 1
-45.623543 65.867325 -19.489428 4 1
27.343357 74.716789 24.812263 3 1
23.362467 74.681801 25.482460 3 1
-26.574392 66.000854 -13.962770 5 1
-9.057758 27.932558 19.140720 2 1
-46.383823 59.071102 -10.579988 4 1
-18.124449 75.051315 -19.377995 5 1
0.041229 35.875530 -2.065227 0 0
-16.832470 21.763035 6.887965 2 1
-17.893148 18.636255 17.341684 2 1
-3.514552 62.500546 22.516594 8 1
5.264790 61.021629 3.193392 0 0
-1.477219 10.101791 1.151657 0 0
-25.295485 61.616158 -4.570694 0 0
-22.185602 70.447189 -13.561053 5 1
-39.260006 65.092148 -13.690952 4 1
-22.172764 67.207527 5.239111 6 1
-2.735883 64.790985 18.206007 8 1
-20.445229 69.038506 13.198033 6 1
-7.969063 28.076712 17.531721 2 1
20.643019 73.214951 13.206604 3 1
-3.520395 61.899223 24.728628 8 1
0.488757 74.080803 4.066951 0 0
-1.247143 27.052023 0.335614 0 0
8.583181 63.259705 3.976848 7 1
9.106394 65.472511 6.254869 0 0
-3.637254 68.173752 15.879498 8 1
-59.240070 53.516071 -9.390019 4 1
-38.974178 62.157497 -5.685157 4 1
25.359951 70.285751 -9.108825 7 1
-28.148397 63.149929 15.467331 6 1
16.971949 26.225134 -2.543783 1 1
-27.435404 63.440659 9.938302 6 1
-48.071888 63.910969 -1.673206 4 1
-38.651657 65.478630 -16.177460 4 1
-38.587440 63.081871 -14.175198 4 1
27.047848 74.756691 20.208157 3 1
-22.958502 71.710922 -29.653519 5 1
-62.023151 52.780415 -11.846518 4 1
-14.471519 24.917635 9.611648 2 1
-39.894596 63.913357 -3.833493 4 1
23.245071 69.980644 -7.446742 7 1
3.841542 56.780540 -0.796456 0 0
16.870924 73.066849 9.938575 3 1
-0.591616 6.421541 -0.871808 0 0
13.396166 27.975201 -3.930086 1 1
-19.997366 69.956474 6.676348 6 1
-35.839127 68.252480 -14.863963 4 1
16.304165 76.071831 12.239354 3 1
-20.213522 71.557884 -18.264509 5 1
13.641565 34.329933 -12.436933 1 1
-1.075723 5.110428 -0.759834 0 0
-20.143087 69.095001 4.611427 6 1
-16.391388 71.156364 3.989886 6 1
6.890625 29.052130 -2.256749 1 1
26.430542 67.923866 -16.115385 7 1
-0.458213 71.964081 2.662928 0 0
-10.855057 53.679840 -4.494864 0 0
25.940685 68.665939 -13.501051 7 1
-7.139570 62.244110 29.282530 8 1
-10.988482 27.032137 15.085486 2 1
-2.616645 -0.878269 -1.246522 0 0
-23.745764 64.885193 18.669321 6 1
-2.763795 61.707882 29.120008 8 1
-7.845634 28.021568 12.169310 2 1
2.848873 31.560352 -7.917964 1 1
-21.495531 68.008148 18.488684 6 1
-22.061947 69.970428 -26.069935 5 1
-0.218972 70.314903 2.017025 0 0
3.543737 66.631676 18.326300 8 1
-28.330650 62.619331 21.189331 6 1
21.310734 27.260489 -7.585461 1 1
-28.472860 62.351418 22.877930 6 1
-30.972210 61.982159 -18.638304 5 1
8.380004 32.910023 -9.615694 1 1
-6.649332 26.548100 20.141033 2 1
-37.847202 62.146843 -8.677769 4 1
-12.801788 26.761538 18.809404 2 1
-40.742874 66.148804 -0.307567 4 1
-7.379292 29.046135 0.548921 2 1
3.550753 67.155014 1.216883 0 0
24.400501 29.216959 -9.758708 1 1
-20.164902 66.912979 -0.786236 6 1
8.121005 68.087013 4.597472 7 1
-27.431259 63.499943 12.049519 6 1
-23.797699 64.362679 7.302871 6 1
-18.928280 67.813202 5.551057 6 1
-43.118618 66.725540 -18.420872 4 1
-23.954414 64.534180 14.389514 6 1
-13.739701 25.137312 6.846124 2 1
-26.178469 66.271599 -16.632927 5 1
15.990004 69.881592 0.739849 7 1
2.467299 60.919243 -2.351857 0 0
-2.099266 28.660681 18.600012 2 1
-2.215501 5.917224 0.911598 0 0
-36.822243 66.859276 -15.572896 4 1
-4.768830 28.129929 8.900723 2 1
-35.140564 66.041634 -14.070064 4 1
-35.705036 67.155861 -13.407171 4 1
-31.728632 66.155006 -3.022948 4 1
-12.321951 25.475483 21.001534 2 1
14.610699 71.381760 15.122868 3 1
-12.089993 27.054050 23.611439 2 1
-29.343397 61.765236 -6.587205 4 1
-24.623241 71.365173 -30.513378 5 1
-22.358967 69.885788 -21.114271 5 1
6.121836 58.907566 0.825910 0 0
-25.775772 64.761497 20.113689 6 1
5.635674 31.059757 -8.274441 1 1
22.099476 71.119087 -1.487924 7 1
-40.483799 62.291374 -14.047445 4 1
-0.672304 72.989632 4.957032 0 0
15.608661 26.469282 2.440121 1 1
-27.524549 61.859478 18.716211 6 1
0.745005 28.042868 3.355793 0 0
-52.958710 56.279716 -10.210866 4 1
23.882149 69.727562 -9.604667 7 1
5.480540 28.123779 1.880159 1 1
-2.610870 26.766949 3.643996 2 1
-56.288944 53.527214 -16.536236 4 1
-27.388218 61.789799 21.786045 6 1
12.522529 74.117096 14.304293 3 1
17.830654 70.830200 -9.061497 7 1
6.515836 30.409021 -4.771386 1 1
7.263342 28.394001 -3.407479 1 1
15.057540 71.866501 -0.734960 7 1
-54.861679 58.323055 -5.935361 4 1
-18.586708 18.524328 20.540134 2 1
5.281768 29.401217 -2.983307 1 1
-24.163982 67.192543 -21.650249 5 1
-18.385656 20.177778 18.766016 2 1
-11.215755 27.078104 9.852422 2 1
21.553045 78.131729 12.568363 3 1
-50.789715 60.866974 -1.574371 4 1
-58.172482 53.559860 -18.763943 4 1
4.790909 65.568642 12.061747 8 1
12.201538 28.411417 -2.229935 1 1
-46.808487 59.712509 -15.294629 4 1
-31.702589 62.585224 -5.524348 4 1
14.696807 25.129137 2.943508 1 1
9.750884 27.629318 0.370992 1 1
-19.179012 72.795097 -28.174223 5 1
-49.399025 58.758080 -7.028318 4 1
8.908889 33.773289 -12.315149 1 1
-58.204197 52.905052 -13.696910 4 1
1.154431 61.458576 -2.355886 0 0
0.142390 65.497765 -0.736752 0 0
-46.797165 60.909637 -3.936851 4 1
5.941337 65.559006 16.437872 8 1
-25.897346 62.799637 25.844803 6 1
-56.070988 56.329571 -8.216533 4 1
-20.052357 69.332558 20.005863 6 1
17.726080 70.674484 -11.828759 7 1
-0.959019 44.696922 -0.299333 0 0
-26.393463 64.937935 -10.138575 5 1
-15.207237 21.693016 11.833065 2 1
-22.277712 70.260483 -34.837585 5 1
-53.791924 55.763786 -14.044909 4 1
5.797033 30.333055 -6.936330 1 1
3.511745 64.944756 16.211243 8 1
-18.781473 17.428616 16.815784 2 1
10.024783 67.086975 4.049828 7 1
-20.437948 71.205544 -15.596451 5 1
-16.224627 20.261332 19.099606 2 1
-57.629559 52.962215 -11.224791 4 1
-30.608105 60.885448 12.060232 6 1
-41.043625 59.881756 -11.314306 4 1
-27.418926 63.720478 -8.250704 5 1
13.970806 72.705132 -3.356801 7 1
22.663403 77.269157 20.193783 3 1
-28.269476 61.084679 -1.130487 6 1
-25.309732 64.952736 11.195407 6 1
-39.264408 66.778099 -16.079182 4 1
17.984339 70.705292 -5.984824 7 1
2.089392 30.653406 -0.357729 0 0
-0.773482 64.656990 16.301807 8 1
-15.465799 58.403946 -4.341191 0 0
-0.123836 63.960312 -0.053768 0 0
-21.678286 70.035194 -28.675447 5 1
28.948929 75.957443 20.559277 3 1
-0.742341 29.361052 -0.054873 0 0
10.820415 70.286758 -3.842427 7 1
16.505949 29.821102 -4.775345 1 1
6.954686 68.588287 2.421452 7 1
-13.764897 54.700916 -3.200727 0 0
-27.345865 69.915268 -36.487667 5 1
-21.013054 72.629990 -16.111155 5 1
-22.277107 68.599770 -20.689749 5 1
10.213284 71.274170 11.049632 3 1
-37.719372 63.055828 -4.859817 4 1
-37.495155 61.642426 -5.277853 4 1
16.031694 77.408798 10.105207 3 1
-12.067729 24.256268 9.628261 2 1
-10.218612 59.147202 37.554115 8 1
24.724483 24.609043 -5.133714 1 1
1.208336 36.953934 0.419801 0 0
-23.334206 66.240593 6.359949 6 1
32.872280 76.362160 25.856695 3 1
-16.044617 23.572680 4.035415 2 1
1.700691 67.831528 9.602774 8 1
12.147731 72.853104 -7.001801 7 1
-12.414512 25.380371 0.356897 2 1
4.872820 33.226624 -10.617573 1 1
-49.597244 57.993359 -15.316881 4 1
6.442536 66.721275 5.679666 8 1
-36.122181 61.370697 -10.243893 4 1
20.166491 32.797874 -11.639396 1 1
13.005624 72.759537 16.618124 3 1
-45.019802 60.720615 -12.267496 4 1
-25.617952 68.593613 -31.297419 5 1
-23.759123 70.694519 -37.090126 5 1
19.168516 70.497147 2.597781 7 1
-48.633102 62.696213 -2.706599 4 1
-52.707966 56.825127 -8.992181 4 1
-42.690971 61.024372 -10.914124 4 1
-4.378672 66.776695 17.620468 8 1
16.478842 72.113007 -3.005893 7 1
-45.202759 58.320679 -7.512951 4 1
-34.175797 64.041786 -12.673037 4 1
-5.178833 61.086594 31.657581 8 1
-23.028717 68.859978 -11.681808 5 1
-2.201779 2.241301 1.269513 0 0
-55.396580 55.488972 -10.247306 4 1
6.277621 66.097580 10.111940 8 1
-0.656053 28.718481 18.083839 2 1
-51.723682 55.972759 -14.491244 4 1
-4.485390 62.242611 31.480112 8 1
-28.696709 61.081837 10.165354 6 1
-48.153694 57.373039 -7.802214 4 1
-9.440478 53.749680 -3.524625 0 0
-3.532614 69.050026 13.490628 8 1
-4.153206 28.536089 14.086766 2 1
8.003665 31.700045 -7.030391 1 1
-26.457392 62.178928 -6.656079 4 1
-26.101870 62.845093 15.883368 6 1
16.065292 70.374702 -13.307808 7 1
-16.470627 21.383049 22.999811 2 1
-24.488293 64.992699 -15.575086 5 1
0.712525 63.422173 24.356594 8 1
11.374962 70.518532 6.491622 7 1
-26.013735 67.033188 -19.002705 5 1
-12.854004 53.069824 -3.897400 0 0
5.654044 30.958086 -5.668104 1 1
11.856825 70.483467 -4.998645 7 1
-48.485893 61.334072 -2.789993 4 1
-29.247921 65.093910 -22.599079 5 1
-25.369192 66.386375 -20.961218 5 1
-18.567717 17.859524 15.375949 2 1
7.330373 61.466499 4.616909 0 0
-8.769607 27.911114 -1.246576 2 1
-9.409111 27.445005 3.161341 2 1
-52.795040 57.437996 -15.027745 4 1
-50.284443 58.543671 -13.617050 4 1
-44.845402 61.306164 -15.872291 4 1
-0.428763 36.317905 -0.119859 0 0
-26.102718 68.130264 -28.682465 5 1
2.424193 69.434677 6.756193 8 1
15.749949 72.972939 -8.068334 7 1
-26.900078 63.738956 -6.355470 4 1
-54.232319 56.655807 -6.281275 4 1
15.229113 72.614952 -5.418808 7 1
-0.431651 -0.784163 1.631660 0 0
-33.360748 65.506111 -2.998303 4 1
-4.583279 27.993637 6.128578 2 1
11.769729 70.929832 1.538172 7 1
-27.579374 67.508530 -26.869228 5 1
0.939263 62.549015 1.738113 0 0
-42.039558 62.808475 -4.583620 4 1
-6.387844 26.276766 18.010618 2 1
13.059495 71.214104 14.009299 3 1
-36.810532 62.246334 -7.763079 4 1
17.808260 29.752632 -8.340420 1 1
-16.901638 57.987411 -3.625923 0 0
-16.561012 22.256596 9.694688 2 1
-5.148714 64.051918 24.714218 8 1
3.102987 59.522301 3.072398 0 0
-37.494228 60.130680 -8.720719 4 1
-21.214865 70.225655 -10.039556 5 1
1.081943 65.468040 12.317327 8 1
-48.242229 58.872082 -12.372955 4 1
-9.399140 28.098265 0.852542 2 1
-26.949900 62.478542 -10.014461 5 1
1.201676 68.530792 11.286135 8 1
-34.579823 63.073399 -11.340500 4 1
4.715356 29.212412 -0.517615 1 1
-0.016850 41.048367 -0.029051 0 0
-24.801863 61.233776 -6.045766 0 0
-11.849126 24.312265 16.485004 2 1
2.556565 50.778889 -1.909188 0 0
1.478302 70.843094 0.978333 0 0
-14.010173 24.289370 2.583441 2 1
4.836498 27.628761 -3.301412 1 1
1.642418 67.591957 13.315786 8 1
-3.131606 -0.941762 1.373062 0 0
27.759659 76.174538 17.852736 3 1
-36.004322 63.680855 -13.636281 4 1
23.893539 24.173191 -4.129535 1 1
-20.341795 68.417389 0.851867 6 1
-3.458973 28.398542 7.604994 2 1
-18.861122 68.624374 20.193064 6 1
-1.229641 5.858208 1.900718 0 0
19.130486 78.162712 12.640331 3 1
1.632496 55.823090 -2.312152 0 0
-23.260763 64.822716 8.551437 6 1
0.009651 19.349915 -0.734883 0 0
-0.955730 63.965355 27.862755 8 1
-0.501004 34.946301 -0.009943 0 0
-18.729132 69.597282 24.220072 6 1
2.193804 19.497007 0.678029 0 0
-17.341070 20.975824 8.306134 2 1
-3.427473 28.064651 4.269881 2 1
-38.155327 60.253788 -7.082474 4 1
-8.754194 60.640743 36.112072 8 1
3.943048 68.772514 5.836153 8 1
8.403974 67.166565 5.580413 7 1
-11.154491 27.525814 20.879936 2 1
1.752787 68.111496 2.902317 0 0
3.728128 53.302422 1.472517 0 0
-19.979078 69.877480 10.823202 6 1
20.819809 70.436440 -6.352765 7 1
18.296341 35.573780 -14.979501 1 1
-24.368303 65.807495 16.542555 6 1
-7.424395 28.597589 21.281443 2 1
6.725601 31.955595 -7.388838 1 1
-18.126326 70.874290 19.808304 6 1
-49.069736 57.915356 -10.953174 4 1
-11.290473 26.829988 7.249228 2 1
-5.536989 28.725044 23.051159 2 1
25.612865 25.439592 -6.388629 1 1
-3.649352 46.293919 -1.196782 0 0
-53.885262 58.952881 -19.243746 4 1
14.026640 71.808968 -11.220315 7 1
8.979900 68.822853 12.026856 8 1
-46.986115 57.015415 -10.468239 4 1
19.035637 76.298691 21.039761 3 1
3.293306 30.861643 -5.543139 1 1
-9.482211 26.354370 20.323542 2 1
20.670759 77.798660 10.687787 3 1
15.881546 28.919262 -6.896060 1 1
24.460779 70.287498 -13.720386 7 1
-24.922371 65.409813 17.908829 6 1
31.116230 76.441948 22.013916 3 1
-53.847919 54.195538 -10.957606 4 1
-20.161953 71.446259 -21.131609 5 1
-28.596590 69.877579 -32.795979 5 1
-21.869732 68.079987 11.566261 6 1
-1.502254 46.886326 -2.734016 0 0
18.939466 73.616653 11.595367 3 1
0.145697 73.261871 1.262045 0 0
-16.790150 21.457022 14.651072 2 1
-17.827393 69.637413 0.872311 6 1
-21.164524 71.943741 -21.919607 5 1
9.378063 29.250910 -3.214706 1 1
20.782087 27.463762 -5.330255 1 1
3.658887 58.064213 1.592225 0 0
-13.939692 24.749929 12.107578 2 1
-30.964670 62.046215 -8.318861 4 1
-21.795269 68.975433 -19.267838 5 1
1.750455 28.448761 1.062760 0 0
0.057930 67.618935 11.187603 8 1
17.276213 69.861046 1.023827 7 1
-2.055457 28.870771 7.213191 2 1
19.949389 25.138594 -1.899332 1 1
-13.089160 26.175306 17.207283 2 1
8.602891 27.376276 2.140381 1 1
19.636137 23.567198 -0.712310 1 1
-28.427906 63.378426 -9.862649 5 1
-37.564148 65.727097 -15.478330 4 1
-7.561103 28.416689 2.643897 2 1
-31.840542 60.695385 1.906363 6 1
-23.881186 69.581703 -35.930355 5 1
4.245480 60.518444 -0.920382 0 0
-5.838840 28.951143 7.082094 2 1
-48.464931 63.432980 -18.623055 4 1
-49.077427 58.169147 -8.595742 4 1
-8.511713 27.062134 7.090081 2 1
-0.498005 66.268555 12.951939 8 1
-18.782612 69.651039 15.456251 6 1
30.963547 77.820953 26.792833 3 1
-29.835762 62.205997 12.016893 6 1
-29.141409 63.459713 -14.133928 5 1
-27.645300 70.317764 -34.877728 5 1
11.575190 68.866020 1.871199 7 1
-55.692165 59.707436 -3.549579 4 1
-55.493240 57.451550 -3.279583 4 1
18.372210 70.756943 -13.698819 7 1
14.137808 26.850916 1.920559 1 1
-0.382118 28.745491 -1.575950 0 0
-50.402805 57.816879 -8.342785 4 1
-34.300293 68.285393 -13.786410 4 1
-23.333450 66.639359 22.137182 6 1
8.995784 72.146721 10.966393 3 1
-59.217697 50.867729 -14.813578 4 1
-23.891708 64.910515 -2.207313 6 1
2.072548 69.263100 9.230772 8 1
15.337306 29.894045 -7.900214 1 1
-61.360428 49.682972 -15.595479 4 1
26.200583 78.287270 18.198061 3 1
0.229580 61.968952 -0.315384 0 0
29.149275 78.502220 25.008688 3 1
0.923475 64.577530 26.301956 8 1
24.657066 69.897339 -15.436934 7 1
16.465723 74.252625 8.518322 3 1
12.475915 31.127430 -6.570239 1 1
9.710660 31.099281 -6.275469 1 1
12.512712 35.383987 -15.832383 1 1
-49.170643 56.112980 -11.746200 4 1
-23.886076 68.492027 -19.767527 5 1
-37.861656 64.053169 -11.507724 4 1
26.231220 27.655426 -9.829326 1 1
1.340727 64.380524 2.450836 0 0
-1.053589 24.452425 2.138596 0 0
-5.920927 28.695057 9.712200 2 1
-19.107080 17.750439 18.884598 2 1
10.753257 70.348831 10.165727 3 1
-2.677594 67.538429 13.668449 8 1
-8.369835 66.337646 23.169275 8 1
-17.549017 21.188641 17.531052 2 1
19.496927 71.953590 -6.284310 7 1
8.368798 70.236565 7.684468 3 1
19.961929 71.917709 14.564846 3 1
10.355031 73.758400 14.537693 3 1
2.714438 26.499084 -3.731026 0 0
-57.370903 57.313095 -6.111224 4 1
2.625984 44.422653 -1.216410 0 0
-1.996581 63.810955 26.622541 8 1
-7.527598 49.504284 -2.472534 0 0
-56.911282 54.679657 -18.631718 4 1
-18.185461 74.548157 -17.391331 5 1
10.101204 67.104477 5.853371 7 1
-2.557624 46.448341 -3.366273 0 0
-27.423084 62.461334 -3.161362 6 1
29.448896 77.420853 18.919037 3 1
-49.514675 62.936352 0.090216 4 1
0.839903 25.984026 2.940916 0 0
-33.406750 61.422188 9.054218 6 1
23.792952 27.034887 -8.925635 1 1
-23.202572 64.101753 3.605176 6 1
2.220190 22.025810 0.006447 0 0
-20.996511 68.261154 15.899710 6 1
-21.372108 66.864243 -7.906463 5 1
-20.501062 71.655716 -26.817373 5 1
-22.322252 65.210426 -11.788936 5 1
24.812874 70.574722 -7.463390 7 1
-23.018002 65.612984 -13.772004 5 1
-37.188416 62.559650 -12.582920 4 1
-62.665871 49.077221 -15.254120 4 1
3.267405 55.408016 1.569299 0 0
14.762894 32.368141 -11.433620 1 1
-44.140934 60.396336 -14.013428 4 1
-2.550143 29.835215 9.095138 2 1
-27.327463 67.970314 -29.778812 5 1
-2.842908 66.631645 17.951252 8 1
8.177406 28.000851 -1.810527 1 1
-0.479508 69.214134 5.333588 0 0
10.329835 71.307022 -0.699863 7 1
15.012632 69.588921 2.334379 7 1
-14.678286 25.428593 19.047401 2 1
-23.285873 65.609795 -7.304422 5 1
-46.400978 65.197815 -1.003726 4 1
-0.348575 27.928932 12.574814 2 1
-42.812813 64.750015 -2.549847 4 1
-9.834480 26.577679 6.067851 2 1
-31.493273 62.121960 3.641842 6 1
-46.810322 62.341862 -15.437761 4 1
10.168285 32.684933 -13.231268 1 1
0.273984 16.044090 -0.748251 0 0
-54.877163 55.121723 -11.615490 4 1
-19.962692 66.570671 16.532923 6 1
-20.534430 68.704224 14.699317 6 1
28.972658 75.389954 26.743137 3 1
-47.956715 61.250031 -17.581150 4 1
-22.567833 64.886856 4.944893 6 1
-2.492481 62.591434 31.505917 8 1
19.407166 26.934013 -5.379611 1 1
-32.247406 60.630836 4.324230 6 1
25.086693 75.896065 27.146276 3 1
-34.615181 61.546906 -6.277293 4 1
28.655413 76.872391 27.615215 3 1
25.583782 78.196648 16.789642 3 1
-17.172232 19.117165 20.516172 2 1
11.301391 70.623077 -6.314023 7 1
22.160355 75.973183 24.993084 3 1
-7.732870 26.129650 15.876906 2 1
24.111568 76.380920 13.579156 3 1
-33.468849 65.333954 -9.973175 4 1
-9.970028 27.415144 13.733670 2 1
18.145185 73.440407 21.769947 3 1
-3.050903 63.721592 20.202150 8 1
17.328695 71.658745 -0.969041 7 1
-40.464756 65.079193 -14.635274 4 1
-5.803497 29.169319 5.440381 2 1
-15.716335 24.173038 7.878747 2 1
-27.023476 62.646008 -12.697549 5 1
-18.526976 70.639618 4.442259 6 1
6.723317 68.557640 3.897244 7 1
-36.998726 64.064697 -1.421999 4 1
-26.446348 63.838982 24.063843 6 1
-23.188711 66.708450 9.615486 6 1
24.083612 74.628029 15.287764 3 1
-1.088259 29.709320 9.758078 2 1
-56.802456 55.664005 -6.437193 4 1
-54.034748 60.247673 -19.236135 4 1
0.985856 66.312340 17.658573 8 1
-18.387695 73.279999 -18.839827 5 1
9.752118 34.121655 -13.226365 1 1
23.259670 30.805557 -8.912499 1 1
-55.247429 55.562389 -17.354647 4 1
-12.576022 27.167440 21.211485 2 1
-21.604504 65.141777 0.026711 6 1
14.681092 31.114368 -10.279932 1 1
30.635698 75.576523 24.844454 3 1
-19.921713 71.269043 -11.490427 5 1
-6.251679 28.332636 12.491570 2 1
3.523897 67.077034 8.669216 8 1
10.530586 29.374807 -5.514705 1 1
-57.689140 55.620728 -8.681633 4 1
-26.540354 70.238174 -37.438457 5 1
22.636591 24.422417 -4.784822 1 1
11.283371 70.841873 -9.040738 7 1
16.679653 75.538002 19.817198 3 1
-23.517759 66.553497 19.430323 6 1
2.303353 59.311916 -2.488714 0 0
-45.403828 59.419258 -8.689722 4 1
-23.897409 66.164513 15.213753 6 1
-24.898748 63.663006 12.045035 6 1
-28.515394 65.069305 -8.160932 4 1
-22.335356 62.396942 -5.225861 0 0
-13.686097 22.739748 16.558138 2 1
1.613999 38.049599 -2.191225 0 0
-22.512537 65.424187 15.708564 6 1
-17.190451 22.519533 23.050024 2 1
16.122210 71.187775 1.167636 7 1
-29.230999 60.859035 1.140952 6 1
14.454838 27.389692 -3.194278 1 1
-19.569515 59.981892 -5.522131 0 0
-21.233761 66.469666 -4.258624 6 1
24.904013 74.801834 25.737167 3 1
-52.924576 60.934425 -18.785877 4 1
-12.556787 25.285599 1.747412 2 1
-22.421036 67.483833 21.802967 6 1
23.045635 68.542999 -17.440414 7 1
3.297914 67.440506 -0.943661 0 0
3.206290 67.719666 12.834435 8 1
5.864326 65.586639 19.007181 8 1
21.332939 29.967344 -7.982516 1 1
2.153704 24.476051 -2.266847 0 0
-0.381782 66.081963 18.305616 8 1
-19.701200 71.715668 -23.641945 5 1
21.174797 76.840530 20.008196 3 1
-32.546070 61.392891 12.358193 6 1
5.204868 55.702339 2.508261 0 0
-6.440519 62.625843 28.176710 8 1
32.870770 76.710693 24.367113 3 1
-15.936885 22.517323 22.713020 2 1
24.437176 68.980782 -14.169873 7 1
-21.113510 69.398651 -17.082542 5 1
-45.310997 63.697399 -1.528535 4 1
-49.923145 60.545685 -15.236319 4 1
16.810307 72.794975 -9.613250 7 1
-59.505222 51.707222 -17.723063 4 1
-17.650610 57.146320 -4.735811 0 0
21.630575 69.884819 -12.483718 7 1
-4.729187 26.643677 20.018692 2 1
-13.545794 26.060263 2.684466 2 1
-40.857655 67.239899 -17.938219 4 1
-17.687359 71.048035 18.594894 6 1
-38.752392 65.647659 -1.969391 4 1
16.402411 34.883953 -15.492735 1 1
6.514165 32.855549 -14.665179 1 1
-4.149977 46.487629 -3.729975 0 0
11.100625 67.965698 7.071463 3 1
-29.819931 62.439762 9.032605 6 1
-10.839450 27.076429 -0.447208 2 1
0.410198 8.764026 -0.282209 0 0
-23.386072 62.285892 -4.081981 0 0
11.077147 69.261261 0.396302 7 1
9.829733 69.099449 0.113273 7 1
-19.176315 67.347672 10.748644 6 1
-18.661337 60.556568 -4.264260 0 0
10.004349 69.940262 8.984444 3 1
-14.739780 25.105955 0.732264 2 1
2.264958 64.991127 12.507021 8 1
28.755676 78.569229 22.501780 3 1
-28.458736 62.619225 19.883722 6 1
-21.889215 70.994682 -19.971987 5 1
-0.793265 31.057266 -0.688516 0 0
-21.548601 65.721489 14.660077 6 1
9.101223 73.111099 12.306861 3 1
5.609755 65.678459 14.777221 8 1
-5.855141 27.492537 11.149571 2 1
-9.072010 60.364384 37.725929 8 1
-24.236126 66.124847 -17.571114 5 1
1.343501 27.329939 14.781343 2 1
-57.025085 58.402977 -3.168420 4 1
19.660059 70.239555 -1.782692 7 1
18.128468 27.093037 -2.537025 1 1
-25.896515 67.946007 -25.168127 5 1
-3.365041 45.427666 -2.369926 0 0
-25.271894 64.425575 0.405254 6 1
-2.247986 62.665981 22.183010 8 1
-11.870444 55.293831 -4.929116 0 0
12.360859 69.288239 6.833898 7 1
1.957623 45.646805 0.249794 0 0
13.265566 70.760956 -8.075056 7 1
-10.224040 27.130424 0.859033 2 1
-28.509617 68.154930 -28.668982 5 1
-8.928471 25.765923 14.397692 2 1
-39.199177 66.236694 -17.423811 4 1
-11.958335 23.987785 13.410023 2 1
-48.650772 61.514637 -15.590783 4 1
7.913275 70.103317 1.112674 7 1
0.538793 56.295643 -1.706162 0 0
-20.174028 68.786766 -11.170693 5 1
14.150770 34.023125 -16.324951 1 1
-3.700526 66.053886 19.793951 8 1
12.568372 74.255493 9.120976 3 1
-22.629816 68.422523 -23.185328 5 1
-57.529934 55.054222 -9.993741 4 1
7.283382 33.989819 -14.065547 1 1
-42.672661 64.128632 -15.103989 4 1
-9.703838 64.757393 26.992022 8 1
-19.638454 70.386444 9.080426 6 1
27.612904 68.296150 -17.413422 7 1
-5.427043 26.473909 16.267941 2 1
21.475430 69.253098 -16.307102 7 1
-27.412695 61.667030 2.569392 6 1
-16.232431 21.088799 21.350939 2 1
-39.387409 64.374870 -15.844684 4 1
-3.362958 61.846687 25.984138 8 1
20.666300 28.379807 -6.234641 1 1
-45.955460 65.342690 -17.925003 4 1
-16.521021 72.429192 8.415760 6 1
-36.326115 62.502243 -5.903448 4 1
-30.616032 61.063152 0.504947 6 1
-5.069005 68.757042 15.354421 8 1
0.752958 58.356129 -0.237179 0 0
3.084783 68.582123 0.958042 0 0
-7.382916 28.459719 8.465085 2 1
0.054239 27.592390 16.840536 2 1
-26.316685 68.895409 -35.720978 5 1
-60.671837 49.935696 -14.167696 4 1
10.247126 32.173962 -8.111869 1 1
-1.657076 43.327328 -2.257663 0 0
-7.891327 61.682468 31.223520 8 1
24.602146 23.774876 -6.239999 1 1
22.134724 72.965294 15.096915 3 1
15.310441 75.369553 11.861919 3 1
-1.023817 12.608361 -0.169515 0 0
13.236156 70.823883 -10.635520 7 1
1.842074 69.120827 0.868928 0 0
-2.906749 64.519020 23.422424 8 1
-14.817842 26.411432 22.105026 2 1
34.694851 77.270622 26.794329 3 1
15.340936 26.790243 1.031081 1 1
25.922575 68.842552 -12.237044 7 1
13.774298 70.609306 -5.674805 7 1
-16.974730 21.357424 10.737942 2 1
16.783411 71.883171 -11.932497 7 1
-40.976551 62.798630 -15.116990 4 1
10.031031 72.279152 -5.649311 7 1
-10.524252 27.441366 8.087188 2 1
12.933140 30.403219 -8.711323 1 1
-32.905399 61.840229 5.255466 6 1
4.004788 65.121170 0.948119 0 0
-6.453347 28.541578 19.755751 2 1
-31.828789 60.694603 15.462955 6 1
-51.692635 58.137939 -5.354693 4 1
-17.801561 19.281584 13.375056 2 1
-14.937374 21.601875 15.342244 2 1
7.439685 63.309891 3.436531 0 0
-50.872566 55.856731 -9.597895 4 1
2.930327 64.251465 20.468172 8 1
24.199705 76.202553 26.150887 3 1
-9.080118 63.371227 28.244358 8 1
13.782935 71.232521 1.278857 7 1
3.378934 31.764927 -9.227870 1 1
-58.531925 54.016232 -11.501555 4 1
21.964111 70.223122 -8.437304 7 1
8.209536 71.577225 -6.370915 7 1
-10.937098 24.784952 15.548632 2 1
-24.992970 63.414864 -13.777169 5 1
-26.066742 65.836983 -11.152978 5 1
-53.309937 58.097374 -16.262609 4 1
-20.073151 70.411858 -10.560992 5 1
14.611791 28.465572 -5.966844 1 1
-11.428465 25.914972 4.087321 2 1
-5.767220 28.500078 18.611828 2 1
-25.350706 62.243000 -7.324559 5 1
-23.113153 69.325050 -17.989534 5 1
-25.397161 69.109917 -37.750885 5 1
0.931231 11.723169 0.178121 0 0
-27.339800 60.863422 7.607250 6 1
-6.673050 29.379936 1.529577 2 1
-4.591128 28.930059 3.591528 2 1
0.245709 16.242691 2.143840 0 0
1.060455 72.357574 1.237729 0 0
-20.297853 72.195923 -31.204668 5 1
-23.194626 66.811729 11.631723 6 1
-10.749412 25.596073 7.744523 2 1
-32.565708 66.455498 -11.041303 4 1
11.357069 25.663078 3.112270 1 1
-23.040598 71.187469 -35.472954 5 1
-0.310947 44.737579 -3.345878 0 0
-17.751148 59.581154 -4.069080 0 0
-17.131861 70.510246 9.298543 6 1
-17.520466 58.757908 -5.253190 0 0
15.698985 29.364351 -3.936680 1 1
10.248397 27.542891 -0.805221 1 1
20.464241 30.576807 -9.817621 1 1
21.181234 69.159546 -14.829968 7 1
-5.915201 66.406158 20.834675 8 1
22.356550 78.044289 15.773240 3 1
-16.312637 20.690088 13.029986 2 1
-21.281546 67.798271 3.190299 6 1
20.228649 34.337955 -11.501766 1 1
-24.100266 65.775375 22.708128 6 1
19.345018 32.358475 -9.856035 1 1
-9.343989 50.811516 -3.372893 0 0
-3.534539 27.992805 21.907166 2 1
24.093519 30.529219 -10.089467 1 1
2.976663 66.744675 16.905996 8 1
-29.610641 61.010563 6.175238 6 1
-45.126045 61.893276 -3.179321 4 1
23.871048 71.017014 -4.025739 7 1
-40.737206 64.163673 -2.084702 4 1
-9.277025 67.270531 22.080206 8 1
-6.179906 61.674007 33.313934 8 1
-18.014423 18.233442 19.240959 2 1
-47.846161 58.140076 -14.000216 4 1
-17.859390 22.403500 6.423494 2 1
-3.336252 28.579247 18.175943 2 1
19.894472 75.758087 10.375829 3 1
-2.609573 64.147568 24.641043 8 1
-56.480713 56.563648 -4.293065 4 1
-10.860188 25.340172 18.252146 2 1
-22.304327 66.514465 -1.216398 6 1
20.335585 71.590919 -10.272102 7 1
-0.126420 4.141456 -0.590100 0 0
13.245077 69.917580 4.396029 7 1
-7.132216 27.734392 23.314646 2 1
22.180916 70.212364 -2.346673 7 1
-20.244198 68.968620 -8.848602 5 1
10.574083 27.322365 3.072685 1 1
-18.629881 68.511703 2.562708 6 1
11.937952 68.195366 4.292212 7 1
-30.404364 65.024948 -7.496382 4 1
-10.440984 65.564346 26.015314 8 1
4.235238 65.328308 13.729613 8 1
-41.388130 62.474560 -3.485382 4 1
-26.347504 64.261986 -7.931183 5 1
-61.730350 54.443092 -9.216039 4 1
-28.343824 62.249630 24.109184 6 1
-29.092615 61.916214 -12.718039 5 1
-22.184353 64.061752 -4.246178 6 1
0.922893 49.141014 0.170192 0 0
25.452621 29.204113 -8.858193 1 1
1.302466 72.118225 3.590463 0 0
11.217262 28.847992 -2.846321 1 1
-32.760803 66.197083 -12.616369 4 1
-30.522493 61.653545 15.854082 6 1
4.135313 56.269608 2.823251 0 0
-45.148468 59.680447 -13.849869 4 1
-50.619328 55.414967 -11.616568 4 1
-8.409363 62.263382 30.258272 8 1
1.877825 47.011353 -2.088905 0 0
14.806764 34.426102 -15.146593 1 1
-34.047302 61.282078 7.339809 6 1
29.949055 77.899300 20.503010 3 1
-18.024830 75.075340 -23.919113 5 1
20.145477 71.039131 0.305090 7 1
13.087753 34.882252 -14.162678 1 1
16.688057 74.807808 16.603523 3 1
8.380672 68.661125 8.150370 8 1
26.093361 24.097929 -6.379449 1 1
-11.304726 25.733868 5.370591 2 1
13.489811 73.010513 -7.423678 7 1
-5.197497 28.429916 14.935946 2 1
-22.965502 65.391945 17.827814 6 1
19.529016 35.418724 -13.747153 1 1
33.049229 77.884720 27.665243 3 1
13.816137 68.769615 5.643762 7 1
-20.362520 66.769691 -2.247254 6 1
9.181392 64.801613 5.119894 7 1
-51.453850 59.337288 -15.223385 4 1
-30.122272 62.438698 6.590972 6 1
-25.902506 61.938503 26.801846 6 1
-0.117691 46.926514 -2.623046 0 0
-0.566568 64.470665 1.516999 0 0
17.229145 35.245346 -13.165551 1 1
2.289546 47.822414 0.506606 0 0
-51.594967 60.070759 -18.632282 4 1
17.852726 75.587898 22.515825 3 1
1.211202 33.164814 0.635475 0 0
-0.027102 37.698402 -2.058753 0 0
18.882172 72.000061 -8.299904 7 1
3.793532 56.241837 0.391880 0 0
-2.936989 27.365891 5.418663 2 1
-52.772385 55.590919 -8.982775 4 1
11.849660 27.205164 1.348187 1 1
5.149436 59.371162 2.081997 0 0
-10.605158 61.591522 34.884411 8 1
-52.676201 57.378265 -7.888527 4 1
2.138395 37.444073 -0.298502 0 0
-25.930447 64.647087 15.545455 6 1
-16.598974 70.588150 6.903052 6 1
-20.762932 59.203617 -4.987178 0 0
-28.043562 61.094322 14.665063 6 1
-1.883571 0.870183 1.768113 0 0
-22.405933 67.686928 -17.809286 5 1
25.781839 76.691048 14.747577 3 1
-30.702015 60.853191 13.419782 6 1
-26.971029 65.536583 -21.046497 5 1
2.001342 27.964460 -0.043295 0 0
5.430507 68.185287 12.203835 8 1
11.676235 74.271370 7.015720 3 1
9.056839 67.196205 7.131337 7 1
-24.599503 63.411896 5.192394 6 1
-28.162376 63.055370 11.049623 6 1
-25.501760 63.330803 19.396357 6 1
-34.956398 63.832272 -3.573575 4 1
-50.552917 62.104465 -19.221075 4 1
7.239110 64.597328 6.486452 0 0
-18.566919 19.887499 16.079725 2 1
-27.380653 61.708595 -5.991977 4 1
11.995652 27.574371 -0.235858 1 1
13.427145 72.606056 6.874872 3 1
-16.315567 23.921906 6.153613 2 1
-40.194290 61.571995 -9.733914 4 1
-13.816076 56.533470 -4.642851 0 0
2.964900 64.148895 23.793123 8 1
-26.337109 62.290863 11.206514 6 1
-3.030270 28.445971 9.896870 2 1
-0.634839 7.491158 2.107516 0 0
-0.917988 34.615757 -1.781084 0 0
-23.991793 68.930901 -25.993181 5 1
26.507730 75.315086 18.043331 3 1
29.484972 76.533035 28.456642 3 1
-27.708750 61.286152 4.817778 6 1
-20.212564 68.837395 17.139544 6 1
-30.780933 63.985756 -4.366921 4 1
-15.980942 23.264141 2.001207 2 1
-4.553302 62.376228 29.965195 8 1
-8.755705 26.217812 19.313005 2 1
2.678803 68.814102 -1.163965 0 0
-0.911064 24.601706 -0.123981 0 0
-43.351219 61.354446 -4.236092 4 1
-7.767894 67.618561 19.658262 8 1
-19.382513 67.052620 18.506128 6 1
-28.953083 63.905396 -16.002798 5 1
-59.365753 52.521805 -13.424552 4 1
-25.643732 64.539078 8.583624 6 1
-11.567189 26.924156 12.023488 2 1
-24.490520 65.286804 -9.085339 5 1
15.093474 70.744179 -11.532816 7 1
-38.478668 60.068504 -9.461197 4 1
-21.275770 65.363991 -2.134606 6 1
9.673483 69.492073 5.091528 3 1
5.115609 33.760559 -12.201715 1 1
-27.460131 63.584103 14.486149 6 1
-43.425980 58.626190 -8.137126 4 1
21.477715 74.481087 25.040722 3 1
22.649712 71.507683 -9.358280 7 1
-31.992929 60.918522 6.965376 6 1
7.911725 27.590523 -0.635106 1 1
-22.982065 62.062447 -6.559488 0 0
-26.412327 64.075150 9.709993 6 1
-51.930614 62.419884 -19.856190 4 1
-46.540230 62.999638 -17.937159 4 1
23.996479 77.646683 19.461855 3 1
3.058087 68.187141 11.351195 8 1
11.906188 33.244106 -13.823943 1 1
-25.687263 71.483368 -35.412663 5 1
1.139507 40.750553 0.357347 0 0
-47.146423 59.274101 -11.980525 4 1
12.697715 72.093102 -1.308299 7 1
8.854364 33.868126 -16.140650 1 1
-8.597066 60.954288 34.108101 8 1
8.945370 70.507912 8.728487 3 1
-1.450158 62.901043 30.430004 8 1
5.186615 65.792114 9.471700 8 1
-17.858730 69.623199 19.047194 6 1
33.999210 76.693985 28.125380 3 1
21.763323 71.911560 -6.560840 7 1
-38.264198 66.383209 -0.546697 4 1
-29.156624 62.433571 16.602146 6 1
-24.818003 68.039566 -12.825928 5 1
13.708462 70.813728 -9.490475 7 1
21.247663 71.405746 -2.364794 7 1
-8.694073 26.572855 9.260432 2 1
11.537992 73.063683 9.077231 3 1
10.529004 68.240211 2.425229 7 1
-23.077610 69.718582 -15.766824 5 1
-43.134251 59.388927 -11.967939 4 1
-20.726181 69.719109 -12.658028 5 1
-26.090963 63.267883 -15.038047 5 1
23.897013 70.733482 -11.524958 7 1
8.299646 68.016243 15.290759 8 1
-41.055981 61.921715 -5.577923 4 1
23.789097 71.016579 -9.539049 7 1
-1.449897 8.355074 1.609229 0 0
-5.705105 67.052986 19.596678 8 1
13.843679 30.018368 -7.979208 1 1
-1.603374 65.344162 20.899496 8 1
-39.786697 59.610184 -9.056921 4 1
23.107536 69.780357 -15.832087 7 1
-22.812304 66.758385 -7.895345 5 1
-58.121910 53.529556 -10.245039 4 1
-8.380475 27.688156 4.700807 2 1
4.184175 57.956787 -0.613363 0 0
-8.170225 51.127022 -4.567093 0 0
-26.042559 67.487709 -21.921274 5 1
-17.050249 71.588593 19.503870 6 1
-15.094733 23.228069 14.979627 2 1
14.308681 73.659775 18.905951 3 1
18.784246 76.903191 14.859329 3 1
-14.938729 23.082142 6.053618 2 1
-14.518803 27.044289 24.281219 2 1
-39.064774 62.997692 -4.754829 4 1
-6.685403 26.871349 21.314543 2 1
4.195084 51.570724 0.301797 0 0
-30.538202 61.969006 -17.413961 5 1
-23.218218 66.130249 3.728873 6 1
-30.231596 63.196678 -16.808491 5 1
-0.274372 21.360901 1.940555 0 0
-54.115986 56.989048 -7.966517 4 1
-14.049875 23.790358 5.163364 2 1
20.906750 72.192680 17.100103 3 1
2.351906 57.272316 -1.951426 0 0
-13.199037 23.018110 14.153459 2 1
9.325513 25.508322 3.825658 1 1
22.182077 77.474037 17.863789 3 1
26.191088 76.485153 26.937208 3 1
-16.466396 23.397537 24.364895 2 1
4.316218 58.736431 2.924546 0 0
-55.912579 54.267002 -13.049543 4 1
-29.672495 65.109833 -20.112373 5 1
-16.864416 19.644451 21.627405 2 1
10.061329 73.908119 12.231131 3 1
-0.929830 70.581268 3.989565 0 0
20.242994 77.305481 16.185406 3 1
-48.469028 64.774536 0.166030 4 1
23.615116 22.549559 -3.220820 1 1
4.982542 67.654762 14.206320 8 1
-39.985725 61.184956 -8.315040 4 1
5.528147 67.259766 17.365135 8 1
-54.216946 57.853683 -17.235264 4 1
-46.810215 59.923832 -6.157423 4 1
-10.885316 27.375998 2.979140 2 1
-4.420134 28.478792 4.958775 2 1
6.166996 67.912369 14.586089 8 1
-6.160735 47.837093 -3.778909 0 0
13.503100 25.634323 4.098573 1 1
-14.663042 56.643177 -3.304953 0 0
-2.584460 28.003925 12.060878 2 1
14.491231 75.114799 17.425858 3 1
-54.090572 56.114452 -16.713184 4 1
-20.555426 67.316063 22.162346 6 1
19.057562 71.497993 -12.954474 7 1
-37.248566 61.463417 -11.006974 4 1
1.206397 44.695717 0.145203 0 0
