218.824140 203.960400 -87.184334 3 1
-44.126404 267.371610 67.558075 0 0
51.273270 425.712490 48.395550 22 1
-89.174698 356.473660 -107.375470 17 1
-130.078060 347.205930 50.599590 51 1
-61.060730 344.647160 -9.053157 49 1
95.554520 381.627500 -34.673042 24 1
12.937813 78.752792 -2.802223 0 0
-168.462360 282.897400 8.884361 52 1
-2.730354 253.730790 -130.788910 41 1
25.804943 171.582720 -15.820262 0 0
-74.431824 230.516590 186.903520 56 1
122.375760 228.898270 161.639210 12 1
-30.952908 166.852280 41.609707 0 0
18.030949 288.435060 -111.249040 0 0
-96.932846 387.956600 -195.764300 11 1
165.139130 189.263080 206.726900 1 1
-92.355057 274.404080 115.124560 31 1
14.585526 268.245240 -129.433640 41 1
105.640980 386.763790 15.498149 24 1
-8.493621 72.767769 11.114793 0 0
4.577644 270.662410 -44.846970 0 0
19.169859 254.277390 -161.035580 37 1
71.415688 427.601100 113.357190 19 1
119.873740 456.150180 22.641191 20 1
61.696518 300.987580 309.219330 45 1
-65.880165 420.686160 -135.968570 0 0
-20.054966 209.470460 2.839158 0 0
132.438000 433.231450 97.868973 19 1
-90.506729 402.533170 -173.343370 11 1
-25.929607 271.528590 189.712330 56 1
1.387514 211.086840 53.832165 0 0
-84.547577 308.554870 -15.599232 0 0
-149.930400 330.823580 96.421295 32 1
-110.606450 204.495860 99.280968 59 1
-42.482880 277.366760 -128.647780 38 1
-157.099170 220.074780 -140.093170 26 1
22.737850 314.280550 56.071335 0 0
-106.681430 240.845890 -92.789314 40 1
-135.956120 263.721710 -78.549622 29 1
-1.231489 322.909910 -43.116982 0 0
-24.254877 225.195690 -49.518822 0 0
47.367569 318.913640 140.713030 0 0
116.713710 240.644790 -86.928886 6 1
-61.115826 215.753770 104.826070 61 1
146.056230 213.910030 185.622760 1 1
-57.762764 209.250470 15.403137 58 1
14.560774 141.792310 -28.216471 0 0
-178.601880 264.812290 -67.477570 46 1
151.010800 448.586940 55.311428 21 1
17.482893 285.596160 -4.585900 0 0
-64.336342 181.319760 64.707352 60 1
-184.308850 297.945710 -38.482430 46 1
-73.076500 242.129140 -92.252075 38 1
131.293080 190.891390 -146.368380 5 1
-12.957240 299.423370 64.325653 0 0
190.184020 381.394100 42.563999 21 1
157.797530 263.784760 -72.366928 15 1
-67.249588 246.647050 206.572740 56 1
-135.318510 186.501450 -169.677020 26 1
22.556667 292.362490 86.039330 0 0
146.342290 274.541320 -5.216458 14 1
-124.212180 200.530960 -76.907547 40 1
84.897705 452.535890 88.235573 19 1
35.530071 326.077730 227.843320 63 1
115.376660 237.908140 -51.790779 6 1
-159.808960 183.944490 -149.493790 26 1
-125.457400 238.636000 21.522850 57 1
-46.140598 265.647190 240.157840 62 1
181.544780 246.864120 -122.534800 0 0
-71.560989 419.545560 -115.449490 16 1
-17.210669 292.115840 203.837190 63 1
-35.107372 388.095700 -96.834236 0 0
-35.899815 252.436710 43.347237 0 0
-28.279375 423.343410 -147.161970 13 1
-33.251789 206.711290 -42.590504 0 0
174.390910 183.821120 -149.264340 4 1
12.677135 298.249570 19.201605 0 0
-144.894130 211.610440 -151.365130 26 1
-20.622566 180.377110 109.584330 30 1
-50.826988 193.083070 59.890682 60 1
22.397717 256.771300 -11.066068 0 0
-176.778590 341.884950 -2.111483 50 1
-12.439837 163.182540 127.459220 30 1
-22.607496 258.923890 -67.117706 54 1
167.488850 427.646670 77.778023 21 1
-167.077220 358.330870 56.581116 50 1
-42.402542 246.877110 -136.605260 38 1
62.805874 350.057460 213.414810 34 1
59.208336 320.943240 230.642040 34 1
-14.356999 286.995240 222.491670 63 1
48.318127 290.310760 28.896208 0 0
54.807766 278.662290 10.030916 0 0
24.221792 369.983830 6.177000 0 0
-135.149640 349.533360 31.993372 51 1
-17.644466 156.396470 35.393574 0 0
-60.867947 428.280820 -68.540451 17 1
167.718260 455.577610 109.122630 18 1
-126.168610 295.421080 -69.221207 29 1
-146.561400 193.862930 -157.117390 26 1
-107.607790 358.188720 -45.430183 47 1
0.032253 182.976700 -34.061344 0 0
-114.662670 257.111630 109.887070 59 1
-123.370700 216.899920 103.310780 59 1
-143.398540 326.808650 -27.954266 52 1
-64.346870 399.326900 -39.522213 47 1
-41.440777 230.657760 -156.724430 38 1
-221.167500 294.042720 1.539824 2 1
-30.351778 265.162290 262.987760 62 1
-108.377880 272.616520 97.703690 59 1
56.538193 253.383180 -112.441060 7 1
8.222182 196.167430 -13.753225 0 0
-55.793739 399.057280 -107.091480 17 1
-167.072270 326.037450 -24.089071 52 1
-158.481510 310.214540 -78.708839 28 1
-26.885607 202.296890 66.405121 60 1
10.711866 139.965840 14.360921 0 0
130.018250 166.423280 -140.978930 5 1
102.993980 450.104580 20.498726 20 1
46.429611 269.390380 -10.969071 0 0
22.257702 183.645490 -146.017850 9 1
-67.710533 223.652980 7.196940 58 1
-177.546010 282.422060 -68.183937 46 1
-19.299385 370.472560 -76.819412 0 0
-0.800938 189.450440 -86.050087 0 0
111.217280 446.719330 80.473434 19 1
-39.111370 272.122770 21.230295 0 0
-18.188211 184.932770 -5.211541 0 0
-70.420021 409.643130 -93.817223 17 1
29.583992 369.417390 -22.527876 0 0
-1.976794 432.183440 -81.844322 10 1
46.724689 344.504790 222.221980 63 1
121.609630 405.715790 50.412132 0 0
-124.985900 266.291930 121.337080 59 1
16.978659 363.521640 -50.845478 0 0
35.743980 338.172700 -3.808203 0 0
-25.973272 273.342350 231.248260 62 1
-101.656880 253.003540 -81.007912 40 1
-22.490114 214.776440 24.409004 0 0
9.658999 97.298958 19.732603 0 0
-149.343700 342.074550 76.869682 32 1
198.886730 244.674320 -108.067760 3 1
130.162260 251.221300 -62.452282 15 1
-170.505600 332.050420 14.350351 50 1
6.635470 168.876970 26.062471 0 0
10.716810 213.271270 33.363056 0 0
2.201309 155.414280 -28.854385 0 0
219.223430 236.382080 -83.185898 3 1
-74.346764 389.768460 -50.666382 47 1
1.596841 208.505780 -113.544200 0 0
-17.127102 253.003770 223.780150 62 1
21.259699 260.760740 59.023270 0 0
4.974047 245.004990 -157.315480 37 1
27.634436 301.510680 27.381008 0 0
31.472006 200.823290 -159.169600 9 1
-45.256504 394.983640 -159.286130 13 1
21.265884 275.552310 29.596870 0 0
-13.146324 281.557220 240.813660 62 1
-206.288130 188.207410 -135.655460 25 1
79.060638 193.085130 -18.548161 0 0
-82.299377 351.709010 11.927336 48 1
-66.084297 250.046370 117.365310 31 1
-143.607250 379.298490 0.633486 51 1
-165.998840 375.906560 31.777145 50 1
-82.369301 331.630130 -15.864558 49 1
-114.185920 247.466980 50.008682 57 1
96.918198 216.526720 -30.435682 0 0
-56.371216 253.094070 -111.470910 38 1
-176.150770 294.026180 -1.808963 52 1
0.735967 206.332490 -187.862090 36 1
19.177790 208.304210 64.501503 0 0
-99.015785 214.183270 86.249290 61 1
-29.597549 232.552320 51.393574 0 0
-157.748810 311.134640 -8.495426 52 1
49.824821 299.403720 1.057485 0 0
-79.746452 244.843490 126.904440 31 1
-58.807648 279.018710 -79.162209 53 1
53.650269 174.248780 -5.556452 0 0
-104.287450 386.389530 -101.891490 16 1
-37.125504 255.979930 -50.314373 54 1
-163.516530 344.572940 24.169361 50 1
-146.644000 193.113710 92.503349 64 1
29.989471 290.728820 8.568821 0 0
-196.265430 316.073090 -6.622689 2 1
-117.271420 199.922040 -119.308630 39 1
-89.061493 380.650480 -38.823322 47 1
-6.302268 39.816013 2.190047 0 0
162.167800 212.275300 87.350349 23 1
-135.606520 354.285490 88.618515 32 1
-60.026012 373.648470 -57.250248 47 1
151.694270 221.163830 171.083510 1 1
-117.224980 280.409610 115.780220 0 0
-142.872770 298.197810 -67.096619 29 1
57.132961 333.014470 8.601326 0 0
2.417750 193.296890 88.802574 35 1
-148.694470 327.369600 50.885529 51 1
-115.979490 211.818650 -86.555435 40 1
-182.309400 242.581540 -59.913090 27 1
-30.084862 122.967480 0.996768 33 1
-86.593010 386.911250 -95.112976 17 1
-34.304501 210.576290 53.210300 60 1
122.750420 469.482300 34.162304 20 1
-48.144741 394.967220 -37.071671 47 1
-47.138973 246.286970 -72.927986 0 0
-120.864790 244.737140 84.470749 59 1
-55.057022 419.192570 -82.211113 17 1
-145.709440 316.496770 -51.743961 52 1
4.803587 249.640530 -109.349490 41 1
69.893700 406.209320 37.451790 22 1
10.445203 207.158080 7.349011 0 0
14.819167 352.733250 -63.631783 0 0
-200.871260 342.550690 49.173347 50 1
-197.029400 287.488920 -103.482490 28 1
-15.020928 177.472840 -26.999596 0 0
152.725460 454.531490 123.507470 18 1
21.410831 312.940950 222.217530 63 1
-3.340731 267.076290 194.600450 63 1
-23.686312 372.554110 -168.465350 13 1
32.001266 196.954710 -2.131889 0 0
18.345263 425.766110 -99.320099 10 1
12.621668 116.576160 -12.966646 0 0
24.184076 269.754520 -143.111860 7 1
61.126450 408.414790 6.941878 22 1
111.683530 332.578000 199.920060 34 1
-92.805618 264.196040 40.485252 57 1
-121.076750 279.243990 -71.775444 29 1
-73.500999 216.333450 76.750336 61 1
-56.107418 281.214810 41.777439 0 0
-41.256882 374.961940 -167.075680 13 1
21.404613 248.979020 4.046072 0 0
-15.537455 202.098880 -11.586952 0 0
3.242972 176.553650 -180.842790 8 1
-3.080576 248.446670 38.287212 0 0
-3.195628 164.623200 -15.650343 0 0
-128.582790 380.212070 -72.050728 16 1
85.862892 335.633910 218.544080 34 1
25.591848 342.595210 -32.251884 0 0
13.231816 216.273220 -15.313319 0 0
-61.390129 279.614010 -98.950432 38 1
181.158140 401.111270 64.040749 21 1
178.915820 218.123810 169.603620 1 1
-53.486946 250.214400 40.732853 0 0
-81.915588 432.286770 -112.994220 16 1
0.201970 280.683840 -117.079090 41 1
33.673664 311.246060 5.068154 0 0
-37.719440 236.862230 30.311203 0 0
3.300946 230.807710 81.558876 55 1
-3.243655 264.649660 216.686250 63 1
26.634918 222.116550 53.707554 0 0
12.904945 253.882260 36.596668 0 0
23.409338 225.629040 -170.988080 9 1
9.120125 360.760710 -32.770035 0 0
7.562132 126.874510 -27.897774 0 0
-13.634235 236.432360 -80.584686 41 1
-25.578243 425.479400 -67.711014 0 0
-33.278564 181.905110 24.226051 0 0
13.962619 303.508390 242.266740 63 1
-170.668080 320.014680 -73.585754 28 1
-90.886520 239.171330 62.572330 58 1
-172.745590 313.470370 -51.114792 46 1
-231.590810 288.687680 -27.090765 2 1
-57.923191 123.664340 -11.294823 33 1
-168.170470 216.899380 -128.292940 26 1
-14.587106 443.111480 -70.867271 10 1
-16.778336 253.832340 -82.109879 54 1
-28.018593 354.567840 -50.182106 0 0
94.911026 452.115630 35.108082 20 1
32.756618 402.976010 68.123566 22 1
23.548283 316.559140 -16.544601 0 0
24.705685 144.707760 -7.841775 0 0
-102.617330 396.151890 -182.862080 11 1
-129.247960 322.703550 -62.254665 0 0
93.213066 338.950590 201.853100 34 1
71.408333 326.503720 257.025820 45 1
-80.031715 225.184330 105.236630 61 1
32.731655 295.555270 -26.561266 0 0
-33.041782 258.618870 279.856080 62 1
159.522510 433.335540 53.412090 21 1
86.821014 403.826930 18.650551 20 1
72.718811 355.219480 17.821531 0 0
201.844380 175.678800 203.223540 1 1
4.325240 170.941120 -59.059692 0 0
-85.831268 206.868450 67.995712 61 1
-10.060303 258.937160 170.553880 0 0
-44.824619 201.941740 -177.245030 36 1
32.460457 227.511180 33.733334 0 0
-4.378232 59.663746 -3.297854 0 0
-35.956242 314.228520 76.250526 0 0
225.267270 203.962750 -72.368286 3 1
154.495960 244.664690 146.694350 23 1
-137.323520 361.477810 20.898411 51 1
13.830592 334.564760 -22.088400 0 0
13.931124 100.383740 -20.723114 0 0
-53.806610 281.696750 -50.295490 53 1
-7.698438 235.844710 24.842861 0 0
8.433924 229.728810 -7.457240 0 0
6.566133 253.833760 14.685952 0 0
-50.357830 420.307220 -128.145310 0 0
4.670825 169.454280 -164.655400 37 1
19.492708 194.534230 56.203476 0 0
-103.432660 413.384120 -104.794230 16 1
-161.121000 361.492160 41.989784 50 1
194.502440 197.629910 187.618070 1 1
81.329605 317.082790 289.214200 45 1
-24.335876 220.471800 -187.492200 36 1
-158.226210 329.530060 -54.168633 46 1
163.163560 224.706700 111.244020 23 1
45.797184 298.695250 57.602470 0 0
94.721939 387.940640 -8.831702 24 1
-76.610397 415.686770 -149.015200 0 0
-170.252850 361.493530 20.537876 50 1
-210.001340 319.958800 3.069144 2 1
-5.866524 298.264590 230.564880 63 1
-66.989304 180.555600 80.591354 60 1
19.212135 184.951660 -9.541446 0 0
5.730144 149.311480 -0.410936 0 0
-151.977080 234.695980 -135.156040 26 1
131.902880 268.683140 -19.622587 14 1
-3.498704 142.988780 -15.028348 0 0
-100.445820 210.386050 -130.226390 39 1
-197.805570 307.654850 -86.670990 28 1
-93.798752 237.474930 46.438103 58 1
66.159256 408.056240 128.692670 19 1
119.031360 248.169690 -37.580791 14 1
7.424923 253.101790 -47.467690 0 0
-5.705441 307.747860 -42.586239 0 0
-13.938115 423.884740 -94.416550 10 1
20.782791 351.198150 -17.018188 0 0
-109.349460 370.282320 -192.424220 11 1
-170.595340 228.937850 -100.039250 27 1
-144.181050 207.487090 125.649600 64 1
-60.730999 248.151060 -30.122961 54 1
-33.241444 194.843870 54.048996 60 1
101.928570 329.488040 229.113280 34 1
-215.580200 315.080600 -30.385262 2 1
-50.361969 267.800140 -113.012120 38 1
-62.677925 208.302410 -3.448499 58 1
1.189172 362.127500 -171.456510 13 1
-120.185700 393.623320 -73.938293 16 1
-144.651200 163.751740 103.546120 64 1
-82.709328 342.688930 -111.290860 17 1
-49.860252 240.498000 -58.411041 0 0
-93.753387 365.999450 -46.764385 47 1
16.196482 229.075330 70.530823 55 1
22.063091 204.593400 -171.087890 9 1
-186.264310 217.548310 -109.244560 27 1
120.049100 442.331510 101.201440 19 1
-23.568714 140.150770 31.844187 0 0
-97.170395 234.902530 106.899880 61 1
-23.314442 288.711670 69.303726 0 0
189.772740 366.719670 47.897465 21 1
-112.377620 414.051570 -156.460360 11 1
174.873670 434.874270 38.322472 21 1
15.942229 210.156590 80.216003 0 0
-41.626831 249.262210 293.335270 62 1
0.938008 86.501297 3.439791 0 0
-144.277440 319.883000 125.555920 32 1
186.670810 409.635350 34.848370 21 1
12.475546 268.661650 -13.939936 0 0
-81.561089 245.238910 -138.372650 39 1
-12.227774 197.758090 -165.561840 36 1
29.384274 196.285830 -19.647043 0 0
8.996524 175.556900 -22.543480 0 0
-1.415461 210.790790 -2.171103 0 0
5.316542 231.273940 97.180481 55 1
-50.309811 274.697720 -65.091240 53 1
17.943794 300.373570 51.174923 0 0
7.568021 251.541410 -12.190319 0 0
-87.223183 355.390170 -8.862306 48 1
73.229782 385.012910 11.666840 0 0
-110.212420 217.816500 112.067150 59 1
-9.172175 210.573290 65.276787 60 1
64.438400 320.939000 280.020510 45 1
33.365524 240.312640 -0.457027 0 0
33.872700 267.477080 34.031185 0 0
189.318240 261.648560 -79.647552 15 1
143.911450 298.285370 191.184560 34 1
9.115892 20.268177 0.110328 0 0
62.091648 244.508320 -124.541280 7 1
-81.116302 249.408330 -79.039772 40 1
6.171956 331.065700 99.051414 44 1
-189.429780 200.434070 -128.723110 25 1
-107.086580 224.324740 78.001724 59 1
114.867740 252.052460 -63.626202 6 1
-81.500313 248.319090 40.881760 57 1
111.894450 365.480770 -25.576929 24 1
-186.851550 234.037190 -83.624901 27 1
-168.413250 252.803300 -83.545845 46 1
-210.993500 281.564850 -96.375130 28 1
108.811660 259.160340 -34.142311 14 1
195.925930 208.573870 -154.907210 4 1
-10.102302 169.446810 -183.276060 8 1
41.579506 273.103670 4.657819 0 0
-121.982330 347.150760 -194.269210 11 1
144.618290 243.378040 119.561900 23 1
-92.683731 421.623810 -97.126007 16 1
-138.618060 118.641810 118.202320 64 1
-71.402107 341.030150 11.033394 49 1
160.918300 445.609010 97.130234 18 1
-40.029472 189.393070 83.656914 60 1
-100.645780 179.350430 -127.347500 39 1
1.162573 331.942750 -30.113684 0 0
196.756130 244.489060 -123.304560 3 1
93.787064 440.310360 107.288850 19 1
32.080479 422.753510 47.400692 22 1
-161.692060 344.927340 9.080712 50 1
-3.084026 325.997560 63.152702 0 0
-20.444899 276.196040 203.239360 63 1
-33.424393 269.519740 -66.053986 53 1
-8.003548 219.067700 -28.412392 0 0
177.307170 180.414150 204.753310 1 1
-36.673973 241.850950 -42.458126 54 1
25.104633 333.922490 67.624931 0 0
9.766581 264.453220 -72.808983 0 0
-116.049480 391.945130 -173.220290 11 1
-141.143080 140.253330 110.101770 64 1
19.019609 185.162430 18.957161 0 0
24.134937 380.633940 -14.012154 0 0
-101.251670 353.111540 -98.957672 17 1
27.057924 321.998320 43.843216 0 0
46.740990 322.395840 73.942497 0 0
-118.989330 239.970050 127.505360 31 1
-15.398908 233.780290 -164.093190 38 1
-83.546021 416.733980 -125.221600 16 1
6.969635 190.341060 -186.131940 8 1
-15.492983 251.934050 -103.781860 41 1
7.999767 227.673200 9.462563 0 0
-83.862473 233.643570 -25.022995 54 1
-92.397171 409.796260 -159.738830 11 1
-170.548370 295.614410 -105.056390 28 1
1.121059 225.822780 -134.666630 0 0
-103.554370 227.462890 -84.277672 40 1
-26.773075 277.315640 48.555702 0 0
-56.460766 258.623990 180.402830 56 1
167.810210 422.256770 63.725437 21 1
-161.574550 239.511410 -114.588750 27 1
-140.914660 288.772400 -78.686783 29 1
-135.859410 220.202970 127.532330 64 1
-186.354550 335.513760 13.182076 50 1
-91.622009 167.545880 -132.288790 39 1
25.005905 204.718320 9.982768 0 0
187.290760 395.123960 48.448212 21 1
-115.841890 318.165770 -15.873946 0 0
-167.503750 307.019780 -30.127943 52 1
-114.225390 251.267360 -73.156815 40 1
-68.603920 254.759450 -98.750595 38 1
-36.252125 253.210820 -65.407089 54 1
-124.909720 253.752230 -85.551903 29 1
-132.285200 343.476260 72.752846 32 1
-29.476480 432.300690 -93.097244 42 1
-22.204643 277.944670 264.302090 62 1
20.542179 90.821579 -7.412609 0 0
-64.231247 319.031160 -28.739637 49 1
-21.515579 182.538530 85.616486 30 1
63.407639 412.604950 21.070438 22 1
-11.989891 198.019610 -45.221031 0 0
-43.482685 258.086760 54.929688 0 0
137.994160 244.103530 146.223050 0 0
53.720886 410.296420 60.477325 22 1
14.962230 110.545690 8.970591 0 0
-9.603310 296.633730 191.813100 63 1
-31.754923 206.060710 31.944281 0 0
204.632770 256.265500 -100.686410 3 1
-139.986480 316.357300 -38.127491 52 1
-7.156261 159.767910 53.608437 0 0
1.120812 100.301360 -8.243279 0 0
-142.818880 330.112670 -59.020592 52 1
-119.107030 391.531980 -100.295000 16 1
27.611063 225.164380 -10.444991 0 0
-76.808029 406.171810 -177.366000 11 1
-57.017750 248.575940 -135.443310 38 1
-106.529080 402.307250 -95.488380 16 1
12.684928 227.461650 28.317636 0 0
21.261539 281.383820 -133.503430 7 1
86.825294 350.175020 194.802380 34 1
-6.430730 193.949070 -3.112043 0 0
47.353401 344.919130 -12.703881 0 0
1.802158 276.978910 231.670840 63 1
-13.363495 205.410050 38.571743 0 0
62.753429 304.592350 -67.757469 0 0
16.475466 280.932130 -52.778278 0 0
31.440275 285.152340 25.291180 0 0
-119.158390 261.203830 94.253616 59 1
-120.488570 237.129260 39.706993 57 1
18.825996 153.801850 18.415359 0 0
44.344711 272.634090 46.996487 0 0
-80.707619 265.890050 -82.680870 0 0
162.864790 243.732800 -139.070220 5 1
44.213108 307.812100 124.466920 0 0
-39.745617 244.219850 -151.540920 38 1
113.327260 243.039540 154.708950 12 1
-73.411766 298.912110 -18.515867 0 0
-80.082008 225.493240 20.464811 58 1
-108.363710 359.254000 -203.019260 11 1
-2.654506 248.659640 -145.420380 37 1
87.047760 202.226750 160.659880 12 1
-27.726166 400.125640 -159.312820 13 1
108.690620 434.313480 109.307660 19 1
-191.125080 344.483090 66.898087 50 1
-35.306297 224.276380 -40.131779 0 0
-2.985023 192.760700 67.990891 35 1
14.528773 379.135800 -3.221868 0 0
-65.799515 240.175770 193.429200 56 1
179.150630 239.537990 -138.593510 5 1
-76.041328 348.538570 24.612988 49 1
-106.588600 338.812500 -55.612343 0 0
150.766020 234.504590 106.827670 23 1
88.659950 301.364290 -79.712296 0 0
105.862450 231.010990 -98.283440 6 1
-141.387300 335.171390 107.595300 32 1
40.426777 282.804140 -6.158334 0 0
-125.449290 223.103710 89.277084 59 1
-46.190697 249.082370 -29.004955 54 1
47.441814 422.940370 24.696194 22 1
-103.169990 245.197460 86.459816 61 1
-173.455380 342.881260 59.364929 50 1
174.959870 420.463040 42.641968 21 1
-181.633740 288.444310 -49.214733 46 1
44.635284 319.542850 9.456688 0 0
-63.417419 391.873570 -155.875200 13 1
192.055300 154.522350 210.742250 1 1
25.525204 247.646190 51.996895 0 0
-15.041761 273.738560 216.374160 63 1
150.604900 235.408840 133.685490 23 1
-65.821236 228.572560 109.904440 61 1
-124.241330 374.454900 -182.801710 11 1
-169.755100 334.892490 -13.071752 52 1
102.847310 381.640050 2.189422 24 1
141.326920 439.311680 77.300446 0 0
125.696260 315.912080 201.247850 34 1
-10.483520 319.256900 97.455116 43 1
27.017742 181.107830 92.014549 35 1
20.250410 334.103000 207.971270 63 1
40.076061 224.425810 49.217484 0 0
-177.923230 237.694260 -72.722336 27 1
-10.882786 206.094820 21.817797 0 0
177.937420 160.820270 216.521940 1 1
32.115891 282.177640 78.798973 0 0
-17.113655 175.594180 -41.708618 0 0
19.486097 234.790560 4.202474 0 0
35.878094 205.998460 -146.572220 9 1
4.380773 223.299380 44.737083 0 0
-78.612961 231.683110 92.116112 61 1
-66.918449 254.233960 45.350368 57 1
-23.569149 246.564650 -46.855343 54 1
134.263610 236.246110 164.671710 12 1
43.503460 287.263000 11.702387 0 0
-119.432690 243.642820 108.871470 59 1
-128.641050 294.293490 -87.147743 29 1
3.696520 47.924507 -5.903778 0 0
-227.134120 274.876530 -1.151839 2 1
-112.900340 242.325000 27.246876 57 1
-221.022030 296.760500 -12.606749 2 1
135.791720 434.222260 53.698147 0 0
175.599580 197.775150 -146.485340 4 1
-168.829190 366.492460 68.332146 50 1
-122.662910 404.970950 -160.258530 11 1
-33.912304 275.244200 73.576340 0 0
10.817503 338.972930 -56.589569 0 0
191.667820 182.711500 -158.183720 4 1
-84.602623 303.360140 23.392550 0 0
36.708134 324.434480 241.915080 63 1
22.388855 298.816560 -10.529375 0 0
190.762390 136.455170 215.114490 1 1
54.235703 337.648960 212.308110 0 0
-39.174137 191.761030 15.523645 0 0
-168.419680 303.355470 -61.709675 46 1
83.886612 428.279450 120.112170 19 1
-123.675440 187.489210 -87.325249 40 1
-17.191029 284.060360 191.911380 63 1
-40.992180 418.495820 -100.601620 42 1
-122.819980 309.462160 -67.419006 29 1
-146.928650 349.977660 61.647427 32 1
-215.121050 191.915530 -123.775020 25 1
19.112850 281.595980 47.728027 0 0
43.307091 296.790920 99.636230 0 0
-134.729160 359.075740 44.572460 51 1
-13.689679 234.158490 -10.038694 0 0
-144.250260 184.729690 103.769810 64 1
-171.369000 306.342960 -83.518677 28 1
-89.967819 194.523480 -142.986310 39 1
-85.202606 315.549870 101.470510 0 0
-113.228910 416.494840 -77.811111 16 1
97.689499 446.786190 86.063751 19 1
16.092890 201.026760 25.986900 0 0
-18.389658 231.285000 -38.277752 0 0
-118.344500 198.677870 89.023552 59 1
-36.031910 212.444080 79.930077 60 1
14.285024 188.156280 83.389473 35 1
-201.839830 223.453720 -68.062378 27 1
4.250485 221.292710 69.319641 55 1
-147.698440 311.125090 -69.417381 29 1
162.682790 227.543470 127.719030 23 1
-1.813858 360.250030 -42.452911 0 0
97.854851 429.818570 23.156124 20 1
-19.756962 269.012150 242.998860 62 1
-6.212959 221.291400 -174.973050 36 1
-38.108707 218.802780 65.861542 60 1
-146.959780 188.394810 119.700430 64 1
-51.970428 391.847050 -121.498010 0 0
-3.939696 177.933290 -1.539753 0 0
43.705074 331.094570 -14.585530 0 0
6.616632 202.175610 -26.234528 0 0
174.240100 217.862000 -141.191530 5 1
138.640500 254.487300 -40.509007 14 1
-112.439600 207.969650 -99.466652 40 1
25.726089 325.271000 217.432130 63 1
-130.003230 320.492340 -77.141624 29 1
-152.268510 328.324650 64.263451 32 1
-19.671492 177.557510 71.840141 0 0
-166.313340 261.771180 -73.144783 46 1
10.307507 232.304600 114.917780 0 0
21.200806 110.625830 -3.862642 0 0
45.808887 283.336000 56.820332 0 0
-54.499275 414.837340 -141.473280 13 1
-68.504936 404.515350 -107.040910 17 1
29.840433 276.464080 11.147867 0 0
170.813200 263.008670 -67.767960 15 1
124.637440 254.882660 -50.321712 6 1
-32.946465 432.717320 -78.500343 17 1
-63.856987 316.672420 86.000999 0 0
-15.876431 207.194990 -33.784721 0 0
3.171976 70.622948 2.570865 0 0
-58.277195 355.931370 -43.044739 0 0
15.450504 194.865780 42.333542 0 0
-96.159424 229.564130 -100.815570 39 1
111.724750 324.455810 218.904250 34 1
78.598938 315.083740 302.815860 45 1
-26.068956 301.363190 60.712204 0 0
-132.211490 228.334460 111.816910 59 1
-45.438877 258.155670 -39.435669 53 1
-77.144234 323.724950 -26.070835 49 1
-37.019951 267.866120 214.594160 56 1
-43.202133 262.215120 270.729460 62 1
16.135180 372.287900 -40.328819 0 0
114.526300 335.089660 185.200260 34 1
24.192307 215.385440 36.153931 0 0
3.031461 385.043210 -35.591503 0 0
-57.649590 199.619430 75.227417 61 1
-170.664960 323.590300 -42.113052 46 1
-24.205488 251.490310 -149.642760 38 1
-10.219328 313.321560 61.140537 0 0
46.852989 266.121770 -132.331010 7 1
170.828700 255.279630 -123.753450 0 0
163.153460 236.583510 153.875560 23 1
-157.758930 336.495850 -26.143194 52 1
1.447526 127.124750 -5.564050 0 0
-103.050840 370.306400 2.088475 48 1
54.421642 434.594880 98.295685 0 0
1.656182 108.498730 12.322930 0 0
3.437703 79.220078 -17.446775 0 0
-108.895300 270.213130 111.125850 59 1
23.088062 242.340940 31.052828 0 0
161.136220 196.444020 -147.062790 5 1
8.684586 127.269210 9.867888 0 0
131.427580 313.840760 189.071840 34 1
17.047894 268.618320 7.457807 0 0
-71.589127 261.405550 22.966072 57 1
102.875960 209.615390 166.420640 12 1
-94.751900 221.153840 -140.319630 39 1
29.697977 264.666840 46.668636 0 0
199.628490 196.494030 -159.935910 4 1
1.501115 294.737760 202.274120 63 1
-85.471527 357.536250 -54.989639 0 0
126.124470 215.959300 175.939070 12 1
-97.617828 402.268130 -110.843090 16 1
-17.807264 384.739930 -166.938600 13 1
-7.181235 244.330400 -90.819145 41 1
-69.227074 287.117740 -75.286819 53 1
-1.433986 170.124420 -30.025789 0 0
13.407790 271.657960 -32.311462 0 0
7.001471 197.585020 16.600513 0 0
-60.794865 211.190110 68.994514 61 1
180.997100 418.360660 57.777927 21 1
135.283940 306.686890 -105.424640 0 0
-192.957840 329.387510 -8.200440 2 1
147.558120 210.071980 -150.161560 5 1
-66.518372 247.323700 -118.172670 38 1
-5.388324 123.478130 -26.519379 0 0
17.977571 204.141920 -18.695692 0 0
130.605010 278.908420 -10.005141 14 1
-3.478640 274.357420 205.906980 63 1
53.094849 331.276580 224.415310 0 0
0.987842 326.517670 76.025986 0 0
-134.922160 355.852420 60.133789 32 1
-197.541900 225.301360 -42.372971 27 1
124.431940 456.272520 10.002788 20 1
-68.334618 349.606990 1.082764 49 1
5.813535 202.828890 -162.243070 37 1
-34.811653 247.813390 304.805790 62 1
-12.017093 149.127590 -34.137806 0 0
1.545741 266.062650 -127.162770 41 1
46.702259 302.130460 42.905159 0 0
-128.040340 258.008210 109.971450 59 1
-65.867088 393.238400 -113.818130 17 1
-11.019252 311.199130 74.655571 0 0
-30.672211 378.467590 -84.303230 0 0
-13.407346 317.695070 -38.007664 0 0
75.342636 397.632900 28.738049 22 1
54.293980 305.718690 12.016482 0 0
48.788574 320.407530 260.640530 45 1
0.727823 310.589750 216.664600 63 1
-116.235530 370.658540 -0.070099 48 1
-41.976662 265.741270 -135.817520 38 1
39.926399 191.456600 26.456326 0 0
-6.405899 9.419725 1.971435 0 0
-151.454970 379.179840 -20.007607 51 1
101.621950 253.246050 -58.536415 6 1
31.782875 255.171050 23.691603 0 0
2.633005 228.078990 -182.307010 36 1
-154.332810 320.201200 -31.751604 52 1
158.670560 455.467410 135.396180 18 1
-193.627660 228.331090 -56.448845 27 1
205.378110 233.346730 -100.926830 3 1
34.369656 212.027630 23.324972 0 0
154.316280 258.012910 -59.912666 15 1
35.931900 387.885010 26.404591 0 0
-95.469109 236.014480 -119.005550 39 1
-177.586810 358.943700 48.457733 50 1
-48.061752 276.576690 29.986544 0 0
185.209170 259.655610 -124.785000 3 1
-72.010773 410.823390 -128.114180 0 0
-77.850548 225.921510 121.624670 31 1
-135.751040 334.957640 48.979317 51 1
-46.124195 193.083070 47.223785 60 1
29.237316 181.546570 -23.855991 0 0
23.347925 335.553920 -65.469109 0 0
110.870630 222.333130 161.367050 12 1
45.034260 334.295070 166.035220 0 0
9.813932 330.623380 86.262787 44 1
-34.996696 260.848910 29.928802 0 0
-8.217336 114.043050 -12.308578 0 0
-21.541565 123.615550 -9.241535 0 0
-5.806812 185.881610 81.547821 35 1
-70.563652 335.637300 -10.726322 49 1
-167.014040 205.054700 -134.805370 26 1
-182.229370 327.641360 3.426464 50 1
-95.092812 264.453460 123.346210 31 1
39.700573 329.427640 65.293701 0 0
28.034019 188.045730 -157.017900 9 1
60.855438 348.887820 1.454556 0 0
-38.719273 308.223330 106.007320 43 1
22.371582 292.309880 -46.928951 0 0
18.420078 302.195740 64.290840 0 0
112.358230 459.381350 77.051620 19 1
-91.076202 238.947940 130.056720 31 1
-117.962880 257.379090 -105.266390 0 0
213.616390 222.185670 -106.831600 3 1
24.914850 175.285480 -2.696879 0 0
-161.105700 358.345980 -12.504619 50 1
-154.449550 371.541350 1.656035 51 1
111.332020 308.527770 -93.248558 0 0
-65.572571 237.765910 -23.197771 54 1
-142.309720 343.739440 93.883629 32 1
-163.651520 343.603910 -3.826165 50 1
192.648410 227.148450 -144.485500 4 1
-42.927116 273.659580 56.107388 0 0
-23.529985 220.923710 51.327431 0 0
-106.444980 243.943120 -105.741740 39 1
-93.112350 391.069270 -31.967047 47 1
-5.806349 137.080920 17.984915 0 0
-13.573276 304.924500 203.840100 63 1
203.121670 233.406110 -126.066470 3 1
157.234330 207.801120 -140.214940 5 1
-180.330800 341.395480 44.127602 50 1
123.183850 447.748230 72.877747 19 1
-49.461575 205.922450 57.887325 60 1
113.150670 243.091840 -73.979919 6 1
8.675582 297.829710 227.283570 63 1
22.913919 340.637390 106.182140 44 1
75.040627 336.384670 235.061720 34 1
21.354307 136.314440 1.735558 0 0
-25.491756 159.581280 129.153200 30 1
-33.266041 183.833710 108.504140 30 1
14.035904 361.944520 0.611722 0 0
40.501038 303.315430 69.000381 0 0
7.372358 88.979416 -9.681866 0 0
-23.265730 190.226550 63.170197 60 1
114.092600 376.295100 -10.270931 24 1
-97.913795 367.071380 13.737256 48 1
24.994247 275.597320 69.201813 0 0
-228.571380 268.057950 11.986375 2 1
-163.759610 314.254760 -19.713743 52 1
23.177898 307.835480 40.232758 0 0
-68.067116 245.276990 -80.235054 38 1
16.065706 154.617510 5.750971 0 0
-17.081305 221.366150 37.371807 0 0
-117.868840 263.946290 132.018770 31 1
-69.839386 373.714390 -113.496720 17 1
-198.915940 313.830200 5.887470 2 1
5.340609 183.481480 6.510402 0 0
-128.736760 384.798370 -176.395950 11 1
-8.734540 349.700040 -23.164291 0 0
14.004113 291.390500 6.469565 0 0
45.717289 300.206910 -57.422401 0 0
44.502380 356.898010 -8.175107 0 0
93.287254 449.310330 97.988655 19 1
-16.769665 172.257860 119.202450 30 1
73.767906 297.596100 106.892650 0 0
-16.443361 187.106310 -18.489798 0 0
-110.707670 251.614820 76.982147 59 1
7.767466 341.410220 -37.540802 0 0
30.559372 308.232570 -7.083526 0 0
27.461145 287.222840 -14.742686 0 0
13.744917 217.197420 95.330589 0 0
-117.727910 240.397000 -80.175545 40 1
-201.464250 211.538710 -44.746414 27 1
56.617874 308.134550 299.108920 45 1
-153.897960 353.884220 3.916499 50 1
30.923822 238.287670 42.629032 0 0
145.824130 232.533070 169.572370 12 1
-28.185768 263.558900 -55.665661 53 1
3.608597 162.037310 -4.950755 0 0
-69.636406 251.769390 57.694206 57 1
-77.460434 218.497310 200.374360 56 1
-158.757320 335.358920 50.067081 50 1
105.507970 247.258730 -83.458405 6 1
-6.962378 261.157960 -58.847286 54 1
31.779377 316.131260 64.990105 0 0
6.381654 434.395050 -91.562782 10 1
-5.673652 346.526890 -37.189880 0 0
-131.311890 325.469480 -31.987257 52 1
-233.129500 257.396730 -10.669405 2 1
44.427601 418.509740 40.314381 22 1
152.926480 267.840090 -49.484074 15 1
44.818928 277.010620 33.402370 0 0
-24.972155 204.462010 -175.301150 36 1
-92.378059 243.927810 -81.686134 40 1
153.873830 234.144230 -142.546130 5 1
29.660667 432.757660 -88.466209 10 1
127.785470 178.647020 -143.987180 5 1
121.485760 356.275450 -22.312107 24 1
-75.761360 261.310000 36.695019 57 1
50.343235 317.950200 273.077000 45 1
-132.444090 240.605740 105.949480 59 1
-152.315260 368.841400 16.186237 51 1
-116.729910 226.240140 -120.254770 39 1
11.408166 294.217500 -37.320450 0 0
75.694824 404.556210 48.686611 22 1
-93.501869 236.354100 -133.738430 39 1
-36.940742 263.370820 249.284180 62 1
34.541550 152.508410 0.619607 0 0
-42.178707 226.189700 38.144989 0 0
34.515171 251.959240 4.877299 0 0
0.109019 211.333540 -34.464371 0 0
-210.580870 309.455260 -20.117052 2 1
-173.543500 291.766880 -60.509956 46 1
-79.814880 243.915040 -102.900180 39 1
-62.254707 421.832340 -123.817940 0 0
-4.177375 357.474150 -54.620770 0 0
-79.119354 251.116270 -123.798110 39 1
-234.209210 277.821080 -21.084408 2 1
-84.624367 366.661130 -113.568100 17 1
-125.511000 370.764430 8.562238 48 1
-15.842857 265.331480 195.701370 0 0
176.066670 207.332950 182.787480 1 1
94.100555 369.806670 24.073189 0 0
40.247749 187.340160 84.642151 35 1
2.069690 184.514080 -170.999820 37 1
-58.420380 251.995850 -73.116829 0 0
20.039034 279.983830 -121.000450 41 1
-29.859764 320.369750 91.786377 43 1
152.027080 186.826480 -146.274830 5 1
-9.962598 222.874910 -160.752260 38 1
-180.217650 194.194990 -147.384400 25 1
-89.083374 330.777470 -108.404650 17 1
36.248684 316.519380 51.154198 0 0
9.750574 206.478780 -173.803070 37 1
-121.770320 279.732760 -84.417702 29 1
-141.981990 366.030760 36.839100 51 1
-104.953860 259.329650 -70.266335 40 1
-106.367550 186.281520 88.008850 59 1
49.244827 346.645390 187.728870 0 0
-149.923690 159.332730 130.498870 64 1
93.840553 383.228790 18.180700 0 0
33.551697 183.634190 -136.787430 9 1
0.720749 65.664215 -13.141567 0 0
-4.861398 255.408720 225.414180 63 1
-4.489820 221.171510 58.585121 0 0
181.718860 226.701830 -136.221790 5 1
-157.232450 323.249110 -1.796762 50 1
-15.235501 88.219147 12.518998 0 0
136.502470 274.262510 2.630793 14 1
-4.253942 241.014800 -3.501649 0 0
5.650728 219.694400 -165.221210 37 1
2.555460 394.218570 -22.019348 0 0
-148.380450 143.779050 125.044520 64 1
-4.612489 208.009400 -48.021923 0 0
-226.442500 251.154020 8.946697 2 1
-35.755905 194.825150 -171.398830 36 1
82.110397 387.750520 -10.239433 24 1
-138.676640 276.033200 -77.207657 29 1
6.761844 187.403210 31.692558 0 0
55.689484 277.718110 48.739140 0 0
58.152878 341.206760 230.180880 0 0
67.467537 420.763400 123.909190 19 1
154.425160 225.785550 159.354250 0 0
-21.115055 261.346920 232.500030 62 1
96.848053 385.760770 -22.637331 24 1
39.510021 300.001710 32.893692 0 0
-227.905670 235.994280 -6.159448 2 1
-103.110360 257.866240 45.472424 57 1
38.860409 401.337040 45.949425 0 0
-148.846830 324.093050 -42.324802 52 1
-150.081630 354.981960 80.142815 32 1
-177.878340 355.475220 62.156666 50 1
23.692362 322.800750 230.496720 63 1
-132.207380 364.848510 -182.711070 11 1
105.096440 375.111210 -29.966276 24 1
-65.612297 288.366700 23.050142 0 0
18.216209 312.071350 -5.968154 0 0
20.161428 338.997590 121.753780 44 1
14.972763 284.355900 74.342079 0 0
-96.088547 247.659910 -93.969391 40 1
63.577606 307.256620 88.618027 0 0
-54.764858 410.808560 -111.047420 42 1
-176.130650 339.446900 24.076235 50 1
37.480919 298.748990 2.378237 0 0
37.716137 360.811070 1.769471 0 0
-37.735104 293.915530 71.914734 0 0
218.779500 214.295120 -94.078720 3 1
55.970436 414.194000 45.947559 22 1
6.729023 181.473460 -8.433796 0 0
116.527550 322.933530 206.057170 34 1
27.458822 303.205750 12.233076 0 0
-21.286760 389.427860 -38.709648 0 0
17.456961 248.523850 17.386005 0 0
-85.372528 226.931110 82.417473 61 1
85.932388 430.513280 31.455069 20 1
-90.906204 313.114380 -25.329430 0 0
12.277679 215.985900 57.624649 0 0
-107.022360 256.444060 126.945680 31 1
142.613220 257.404660 -29.129747 14 1
-26.013958 275.383510 61.334358 0 0
-78.382484 214.183000 15.689980 58 1
17.787060 272.519500 57.300629 0 0
-7.927958 188.585890 8.723257 0 0
109.879980 382.797580 37.936348 0 0
-25.194323 197.640460 -40.160530 0 0
-86.110481 250.781660 52.877155 57 1
-21.570511 360.154210 -169.284610 13 1
-192.577290 318.136410 -24.645748 2 1
-11.633239 187.825990 -38.174297 0 0
-12.664546 136.826570 -22.064968 0 0
-49.449730 379.988770 -55.238163 47 1
30.340351 215.360310 -3.275279 0 0
-47.445488 183.225970 66.533020 60 1
-144.271300 208.983150 105.196330 64 1
-28.345335 189.620290 78.039108 60 1
-3.134233 193.298870 -17.968424 0 0
7.867847 439.197850 -79.314064 10 1
-172.100340 241.225170 -98.768631 27 1
-0.582676 241.956530 151.502140 0 0
-127.806120 235.442340 88.670151 59 1
164.071470 205.040590 190.720440 1 1
-78.386665 399.931550 -93.954735 17 1
94.305374 411.469820 24.790268 20 1
-195.115810 220.515900 -97.075752 27 1
3.690986 181.853880 93.182617 35 1
-102.955890 241.223660 61.206306 58 1
35.721653 173.332380 -126.987420 9 1
-153.852140 321.684330 89.157845 32 1
-109.035900 236.664670 110.441720 61 1
136.943570 201.435990 -149.212550 5 1
-16.209150 95.698624 23.633547 0 0
-10.091865 262.962550 -104.366080 41 1
-21.744392 250.999820 -92.981781 41 1
12.091128 166.357910 -178.571700 8 1
34.151848 376.576840 1.804064 0 0
-170.292270 284.866180 -78.787148 46 1
16.714437 318.306150 -38.965977 0 0
-125.244060 257.580900 -73.665291 29 1
59.288937 317.876460 252.732740 45 1
10.927546 228.761510 -172.212080 37 1
-147.255780 332.013370 84.520248 32 1
-129.014760 232.710370 122.802030 64 1
-2.297484 253.701310 -118.557470 41 1
0.263598 215.743350 8.919571 0 0
58.786457 311.846010 238.813830 45 1
-8.836903 181.162930 106.392490 30 1
-37.804852 129.831240 -5.546383 33 1
20.604273 328.331450 -12.018947 0 0
-91.584877 425.399810 -108.702220 16 1
-84.258224 214.260150 108.720900 61 1
-96.672630 363.118770 -7.256699 48 1
19.526628 257.793370 46.089672 0 0
125.919650 240.992360 -57.134090 6 1
-77.863297 385.807400 -39.622925 47 1
-29.530703 230.948670 -154.092700 38 1
-102.668340 213.658000 97.935699 61 1
-160.340500 345.774110 73.108437 32 1
162.188340 219.871250 -141.859850 5 1
-32.461636 266.908840 45.560459 0 0
-174.746140 299.978550 -93.921562 28 1
18.814020 186.450040 -185.048890 8 1
98.476524 399.936980 17.912989 20 1
-189.367860 212.190400 -125.527820 25 1
35.350636 167.127580 -22.793171 0 0
1.460303 120.186650 -16.423000 0 0
-179.171340 254.270450 -61.263966 46 1
7.078921 312.230500 205.550610 63 1
-141.731380 338.035340 24.650679 51 1
-221.060130 295.788020 13.586247 2 1
-102.961960 246.939970 134.938140 31 1
-139.571500 220.197970 101.634240 64 1
78.451431 395.344180 15.727731 0 0
36.479706 302.815700 -35.565506 0 0
-118.975900 302.322940 -87.934647 29 1
10.304396 192.760560 -34.593475 0 0
-74.326736 425.115690 -125.874950 16 1
11.227563 278.148530 2.700869 0 0
-127.434500 268.990970 -85.395416 29 1
-55.276222 249.955350 -123.143080 38 1
147.131360 445.774440 67.947136 21 1
-192.388640 345.420720 40.892876 50 1
-87.692162 225.070040 29.893312 58 1
-147.861220 204.067410 138.413220 64 1
183.928360 205.783080 -150.570100 4 1
-61.320057 317.237240 16.549030 0 0
18.311802 272.474150 -43.807911 0 0
124.447350 371.275820 -3.498225 24 1
-76.090767 283.368560 -99.470383 38 1
-22.841547 269.911900 254.783290 62 1
-228.312910 248.457170 -2.693828 2 1
-4.143064 137.286120 39.872463 0 0
-113.803050 394.330320 -89.694588 16 1
22.357855 353.013430 -48.230503 0 0
-196.771390 195.921680 -137.356960 25 1
-18.846905 186.316820 98.544769 30 1
29.151325 304.852360 -19.305826 0 0
131.503270 427.308110 62.635586 0 0
-148.338100 304.159450 -13.589505 52 1
-50.625843 291.174930 -16.271751 0 0
-48.836002 265.712890 24.401127 0 0
-67.341721 206.701870 111.521440 61 1
-34.691395 263.365050 191.184370 56 1
-14.357195 272.713780 -15.951752 0 0
-159.092560 350.731540 51.683731 50 1
-157.702070 340.577240 34.617718 50 1
139.891270 245.071430 158.084010 12 1
-163.046220 300.062590 -7.894216 52 1
-146.216160 181.911190 129.895080 64 1
-118.809770 220.248780 -78.004349 40 1
-232.740370 269.487460 -10.399055 2 1
-78.473045 409.121670 -84.890884 17 1
51.885685 257.266750 -122.879490 7 1
7.622003 260.182650 -61.775330 0 0
-60.776039 269.956790 -107.420840 38 1
-9.237127 241.680450 -103.663830 41 1
73.435753 344.580660 216.989840 34 1
37.744076 262.412380 -6.520944 0 0
-96.499748 269.385590 -100.853680 0 0
121.419410 275.609070 -16.974440 14 1
-15.151912 199.852710 66.303093 60 1
39.750706 339.934810 -21.643700 0 0
18.267094 265.295470 35.011971 0 0
95.884926 421.292390 14.594456 20 1
-207.901050 266.336460 -105.530400 28 1
-125.686290 383.622500 -52.869728 16 1
0.203938 145.257430 9.560161 0 0
13.963987 102.518750 -8.958768 0 0
-25.373831 264.264950 287.157780 62 1
107.535580 440.732480 14.629023 20 1
-5.048590 194.111330 -55.172295 0 0
142.569520 253.690050 -63.199619 15 1
-26.480259 251.839890 -57.203171 54 1
-14.073324 191.475190 88.316322 35 1
82.499123 379.528590 16.792448 0 0
-187.420580 276.214940 -113.514490 28 1
12.030362 351.627620 -7.140721 0 0
-180.521360 307.770170 -44.042168 46 1
52.179764 326.780980 -0.387123 0 0
-98.092728 154.275590 -125.802630 39 1
-34.208157 281.770540 -21.462664 0 0
67.948502 310.211330 305.077390 45 1
23.245657 290.643860 18.657713 0 0
-49.099106 259.140110 203.278200 56 1
147.216520 299.938050 178.565140 34 1
-102.380860 426.951320 -92.807922 16 1
112.561810 237.616730 -40.258759 0 0
-204.467820 325.364840 -5.930438 2 1
5.058783 219.826750 -124.784570 0 0
22.577391 397.423860 -1.305659 0 0
20.218296 260.475220 -136.367680 41 1
169.188420 223.071930 136.542660 23 1
38.865753 309.889620 278.707030 45 1
137.509120 439.013640 88.873550 19 1
205.309460 216.092960 -156.828750 4 1
-28.170622 232.096890 35.418709 0 0
130.012940 357.477170 -13.576328 24 1
-8.168549 321.702730 81.737343 43 1
21.444195 294.119870 72.886971 0 0
5.534086 225.097630 -46.026711 0 0
191.924320 383.317110 31.051014 21 1
51.078556 207.422180 37.936028 0 0
-168.303590 228.888980 -124.772190 27 1
-27.442408 413.493930 -153.779110 13 1
16.643883 306.650330 231.229830 63 1
163.255970 254.752640 -143.285250 5 1
1.191974 31.403809 6.205582 0 0
9.586743 168.492570 -12.973981 0 0
-120.605730 221.140670 122.333700 59 1
7.183132 341.931430 -15.781233 0 0
117.851950 442.477540 89.194374 19 1
-30.636435 264.505100 239.441160 62 1
-88.159088 250.065950 -114.592360 39 1
-113.723790 332.664030 -41.527958 47 1
-40.267227 355.488590 -48.214500 0 0
33.315090 180.691730 -148.588260 9 1
-112.578280 203.528080 -129.434280 39 1
27.839790 196.423810 -148.813290 9 1
-52.052528 429.259890 -76.831635 17 1
-149.007140 301.789550 -76.410843 29 1
-91.797768 393.703920 -186.636760 11 1
-116.341460 249.529280 94.155098 59 1
162.645110 217.399780 102.031670 23 1
107.973750 451.570010 90.626244 19 1
-48.036610 405.984620 -121.961770 0 0
-140.600780 334.778350 74.162888 32 1
-17.714331 221.050640 -177.807020 36 1
-82.087921 229.429110 -12.188566 54 1
40.153587 308.577940 291.240480 45 1
-52.221237 274.522030 -122.401330 38 1
-9.879322 199.123960 -176.937850 36 1
-40.436169 196.285600 65.567268 60 1
-27.937119 290.785740 54.528091 0 0
91.486595 397.285100 28.190468 0 0
-49.501549 260.380400 45.111458 0 0
83.643044 436.443020 111.546420 19 1
-148.854520 316.580600 -13.655736 52 1
-61.023453 257.819240 -88.797630 38 1
12.187740 145.607970 -17.488686 0 0
-61.108807 238.550890 -56.221657 0 0
139.975080 250.684360 -52.009449 15 1
44.445129 321.809050 151.761220 0 0
141.124010 224.422850 -151.497270 5 1
-59.995461 404.934420 -98.016800 17 1
13.996395 196.107540 -170.813110 9 1
-116.978770 403.229370 -79.849327 16 1
119.625000 261.675080 -30.802586 14 1
53.768185 289.498720 6.048440 0 0
-27.642508 267.467410 200.720640 56 1
-171.956070 368.778380 38.703629 50 1
-72.543518 240.703290 98.580444 61 1
-10.696213 364.306670 -171.099690 13 1
179.115310 189.350950 197.580030 1 1
-12.125226 140.963350 30.360929 0 0
-122.542060 210.300920 93.135666 59 1
-70.616425 227.456390 34.705799 58 1
-52.624668 296.666660 19.231737 0 0
-91.334869 381.453030 -203.494490 11 1
-104.808320 233.333100 42.605137 58 1
40.234436 334.835630 221.040220 63 1
-43.097656 383.361510 -159.376600 13 1
33.462639 295.405210 76.213371 0 0
-32.833729 395.447780 -105.547720 0 0
-136.656850 370.541600 5.577871 51 1
-147.588290 167.208500 122.362370 64 1
-47.637089 402.641910 -150.738800 13 1
-38.952171 267.223820 -42.396664 53 1
-64.148758 245.881900 -15.131646 54 1
-34.777012 195.311980 28.928564 0 0
-70.232742 383.871860 -108.058860 17 1
11.056644 164.069290 16.209644 0 0
-87.372726 361.878850 14.072717 48 1
-72.591576 216.431870 106.006840 61 1
17.013552 227.677570 50.709198 0 0
-103.849880 378.807190 -197.860490 11 1
65.337044 417.021210 39.900394 22 1
-62.770195 239.054370 113.912280 61 1
40.273651 290.318660 -55.247749 0 0
44.662155 191.365020 -136.131000 9 1
-142.995570 325.793580 115.125690 32 1
0.765539 139.335160 -3.151073 0 0
8.672348 258.608060 25.221298 0 0
30.182510 250.291850 -5.686205 0 0
12.644733 175.632610 18.806810 0 0
-91.240807 257.877440 -82.306488 40 1
-39.606205 418.822510 -148.412900 13 1
-93.316238 251.708330 44.026894 57 1
20.568205 203.410340 -156.288120 9 1
-110.946480 244.913440 39.336597 57 1
-75.175591 259.775600 -90.611137 38 1
-189.115600 318.614900 2.038816 2 1
42.458569 276.462310 -121.978360 7 1
-170.913560 272.902190 -70.135635 46 1
-117.524180 249.537430 118.626580 59 1
188.723370 377.321750 53.143318 21 1
109.075480 458.822940 25.510664 20 1
-3.670772 287.181490 232.284970 63 1
24.747999 256.596770 11.878646 0 0
1.700697 123.771020 29.978594 0 0
9.666101 204.902470 44.177780 0 0
-124.610150 395.936680 -84.335564 16 1
-8.211348 231.719180 81.396828 55 1
114.910220 240.404420 -63.020477 6 1
-9.703936 254.768780 213.341640 63 1
-138.028980 225.253520 138.651790 64 1
-18.983776 264.189820 221.658360 63 1
-165.907410 242.806320 -78.528923 27 1
7.859980 276.025270 -124.497050 41 1
-9.294574 265.047580 180.427580 0 0
15.000865 331.222080 -82.410561 0 0
-32.992069 241.571380 39.559017 0 0
-28.617281 261.179810 210.777980 56 1
167.593800 220.345600 172.870420 1 1
-44.300919 250.576290 -57.326969 54 1
-144.080250 153.370500 108.201320 64 1
-85.272659 253.309560 121.062370 31 1
-187.416560 302.991000 -86.522720 28 1
-8.978129 277.558110 225.912510 63 1
-45.408566 403.268310 -109.890740 17 1
5.391232 240.644520 -9.708767 0 0
-106.201260 347.058500 -43.487492 47 1
2.209592 319.520230 -31.918371 0 0
-22.572638 260.338530 22.649885 0 0
-169.247120 335.496340 3.533728 50 1
-120.771790 326.886600 34.012859 0 0
-148.021850 319.991090 -62.307640 52 1
26.051819 339.102910 -43.066074 0 0
8.450602 237.110860 -164.812810 37 1
-10.922700 215.571230 6.955106 0 0
-65.338158 212.471130 7.576105 58 1
-85.928230 405.652370 -125.948190 16 1
-87.021187 417.817200 -153.018040 11 1
11.870848 206.297960 -184.954390 9 1
197.836350 217.543950 -148.087620 4 1
-66.626373 246.648130 -39.856606 54 1
-71.963608 219.322420 87.991119 61 1
26.361704 214.909740 -168.735370 9 1
1.366345 27.498785 -4.762702 0 0
27.852148 186.202240 -1.781740 0 0
-101.479430 185.961870 -137.280690 39 1
25.413486 342.843810 -3.755839 0 0
-19.094931 115.968610 28.821409 0 0
14.236066 309.684810 214.068650 63 1
19.638542 258.658050 -150.057250 37 1
-107.391260 315.702300 108.322070 0 0
-86.390770 391.256470 -198.266070 11 1
-0.271900 269.673220 -72.296753 0 0
-130.874880 343.562710 61.292038 32 1
-218.699020 305.397710 1.190451 2 1
27.496336 342.258210 -20.965155 0 0
-180.812790 349.455540 26.918493 50 1
135.021160 448.451140 75.128166 19 1
-175.655210 255.571240 -74.656502 46 1
-18.458570 393.667510 -158.828020 13 1
164.634640 195.951350 197.418560 1 1
8.451298 328.295410 57.251629 0 0
69.668739 323.377960 268.620300 45 1
159.037550 450.967710 114.679180 18 1
-63.845570 362.089390 -50.695755 0 0
167.331910 430.689880 45.601257 21 1
-127.297900 227.679000 -77.817131 40 1
-2.460264 382.151210 -164.284420 13 1
145.521030 280.654510 4.871866 14 1
46.661362 416.056700 52.148834 22 1
-173.004170 324.076350 -12.428634 52 1
-64.857956 410.388090 -143.125180 0 0
126.148010 238.650100 -81.103996 6 1
-64.395020 412.456300 -84.379349 17 1
-111.134960 253.444050 31.556189 57 1
-47.835907 395.412660 -48.321415 47 1
-80.856415 421.675290 -109.381390 16 1
2.827577 283.665860 206.440630 63 1
-112.054810 412.228420 -94.667259 16 1
-95.759933 201.528270 -135.994080 39 1
-6.248447 235.060760 -157.315810 37 1
-73.881516 379.193480 -54.791969 47 1
-85.593529 215.271030 80.282349 61 1
-64.511459 244.323730 -99.462494 38 1
29.834768 409.474950 59.017113 22 1
-138.506330 343.623690 114.838480 32 1
-39.496777 256.113280 -23.358944 54 1
-109.762620 192.557940 -125.815380 39 1
-168.320360 206.728350 -122.984290 26 1
-47.463123 416.534480 -90.848579 17 1
32.547054 219.614350 42.345169 0 0
41.290546 202.561750 25.545490 0 0
-132.622130 193.351490 -74.985435 40 1
151.091340 433.729060 79.213280 21 1
7.380188 186.365130 -20.004181 0 0
15.364000 313.782470 -95.028450 0 0
-27.615896 276.559810 37.194843 0 0
43.021046 405.977230 63.353592 0 0
-102.444010 385.205020 -186.403660 11 1
-185.847890 289.129270 -103.339000 28 1
-163.078190 191.586010 -141.981740 26 1
-25.327213 149.353010 25.704292 0 0
4.888915 219.116710 -6.956866 0 0
-120.547710 302.097990 -76.244286 29 1
181.750950 236.817440 -127.456000 0 0
-17.727921 281.369510 252.777360 62 1
