129.063710 100.321420 -59.374912 20 1
8.132123 151.122130 -39.970238 17 1
98.826447 102.371490 76.906685 5 1
-18.167784 21.117271 -18.479450 18 1
45.366146 132.085680 75.874062 7 1
107.599960 116.697360 76.467941 5 1
21.892723 14.711642 28.053366 19 1
1.753099 74.761070 -112.370060 16 1
-1.960975 92.023079 7.549925 0 0
49.438786 148.911300 -71.123856 12 1
81.772675 128.941100 60.923553 7 1
48.060287 148.880390 -58.307835 12 1
14.071700 23.518957 10.973126 19 1
-3.510643 60.499256 -115.718320 16 1
-13.193204 166.592970 -20.770937 11 1
-26.233372 140.772900 133.981980 4 1
-3.978077 20.662859 25.985458 19 1
119.814860 73.331680 86.087166 5 1
120.297790 139.473910 49.924416 6 1
113.271900 130.067000 62.963947 6 1
17.101698 146.056020 -20.581606 17 1
8.465414 112.668530 -90.636162 16 1
-35.953362 91.292137 -62.788895 2 1
-23.042023 156.341140 -10.043151 11 1
66.262764 97.134369 104.559580 7 1
127.110670 125.245210 36.507412 6 1
-52.812347 156.797910 108.232800 3 1
69.578430 139.990360 82.478958 7 1
-44.537605 162.955170 100.686950 3 1
3.535771 144.897140 109.440670 4 1
25.798512 163.247020 -36.945480 12 1
12.784093 158.708390 -67.460907 22 1
-16.983999 25.437862 -11.236879 18 1
45.452145 154.694410 69.065071 8 1
12.380356 73.309982 -14.145599 0 0
-15.621560 157.166960 -39.572155 11 1
16.386200 159.800190 88.745644 8 1
72.443558 100.349450 102.907700 7 1
5.630943 121.129840 7.386621 0 0
-19.953581 22.465429 -32.914124 18 1
1.601170 182.969120 -75.876274 22 1
6.688611 158.202000 -82.791031 22 1
-34.130932 153.044540 103.429640 3 1
54.789852 147.594060 82.356636 8 1
-23.816031 155.092030 -33.753601 11 1
17.547138 164.432130 56.973190 8 1
-14.656100 129.633390 143.225280 4 1
14.136078 109.280160 -83.323227 16 1
50.719936 100.939790 100.896270 7 1
123.728260 102.713170 -41.995651 20 1
5.159639 38.684227 3.318814 0 0
26.952642 97.147171 -53.300949 9 1
-19.691278 95.093620 -74.554146 2 1
-29.526587 97.994049 -58.070171 2 1
53.472786 79.047287 -17.952065 0 0
-4.044004 58.735348 -95.589035 16 1
6.473752 164.950590 -22.651506 17 1
0.191359 165.660020 75.338165 8 1
9.765008 89.823669 9.102091 15 1
16.347492 151.019040 -33.767742 17 1
-11.406990 192.252560 -96.925781 22 1
4.185264 163.248280 -70.762299 22 1
14.659847 152.416200 4.303854 0 0
5.484326 92.402893 28.431015 0 0
115.518340 96.288216 72.747002 5 1
1.324640 85.271713 18.697374 0 0
14.007503 157.266310 79.769653 8 1
22.515049 11.583126 38.686745 19 1
18.403811 161.903720 -64.336456 12 1
112.780910 105.434040 66.462883 5 1
-12.853183 24.716042 -23.734417 18 1
-5.613387 157.297210 74.501938 8 1
80.583336 121.870650 88.238968 5 1
-19.095203 134.654040 -33.010925 11 1
-20.416687 129.749880 -2.168444 11 1
93.111183 120.999230 -44.019272 20 1
-18.537745 190.133700 -108.209670 22 1
-10.317659 154.601880 118.374340 4 1
-54.038071 141.094180 117.450620 3 1
0.310471 165.603530 68.054321 8 1
91.224396 120.782450 -33.657604 20 1
91.587479 112.395590 5.402911 1 1
3.424059 148.187060 -83.801331 22 1
78.424805 141.718990 72.844734 7 1
13.749379 81.185120 -74.292870 16 1
19.559622 101.940480 -40.016712 9 1
-28.505434 158.150770 -24.666468 11 1
14.581807 129.116130 -42.514820 17 1
-0.893674 23.182495 8.833865 0 0
17.227257 159.928130 72.278847 8 1
-25.050493 99.046440 -73.118149 2 1
13.292850 110.779960 -76.465714 16 1
11.682602 147.040590 -80.679672 22 1
79.047668 126.813120 70.755081 7 1
75.956223 138.488330 -26.903015 12 1
50.249866 122.876140 80.856041 7 1
120.746270 125.261220 34.738689 6 1
-5.513481 12.504215 -41.901089 18 1
69.245407 141.193480 -33.096897 12 1
107.423160 117.401870 -55.157593 20 1
-19.041916 174.538360 -115.083940 22 1
1.380871 100.676890 -91.210785 16 1
-10.317448 158.920640 100.548230 4 1
110.350140 103.358670 5.660912 1 1
108.372650 75.544418 91.603310 5 1
9.366149 110.712290 6.865839 0 0
99.186348 110.992360 -16.193703 1 1
24.972626 159.631240 -57.987835 12 1
64.320961 140.927370 88.534676 7 1
100.774870 119.919170 78.782295 5 1
-18.520306 149.881990 -20.325420 11 1
-14.784390 154.261490 -9.182011 11 1
34.731285 159.807430 64.848129 8 1
-5.458681 189.550160 -84.835365 22 1
55.583740 143.976410 -42.174797 12 1
60.267796 146.869980 -36.988647 12 1
52.596882 145.791850 75.949432 8 1
39.037445 134.109730 98.003891 8 1
43.049149 153.792270 -31.931633 12 1
-8.006974 180.444210 -98.458817 22 1
34.786682 155.388500 73.391327 8 1
-25.763367 157.389190 -121.402350 22 1
-1.680434 152.155090 -32.401863 17 1
39.972015 154.736660 62.233196 8 1
69.996941 117.970300 94.711884 7 1
67.042946 109.170190 85.871033 7 1
-5.385031 102.853330 -52.418705 9 1
59.726357 111.210260 -27.722404 21 1
80.832214 114.322810 -39.339935 21 1
108.918820 106.170840 -2.775273 1 1
100.571040 109.927000 84.699852 5 1
80.059677 135.718550 -21.771452 12 1
112.728610 116.391350 64.742088 5 1
47.634892 115.176540 88.218864 7 1
12.745022 134.718380 -50.499001 17 1
1.034881 -1.086467 0.746129 0 0
-6.097580 25.325674 -2.110246 0 0
18.690159 139.762860 19.510590 0 0
-10.510397 163.079670 -112.964880 22 1
-1.834180 77.107918 -105.314200 16 1
-1.352182 24.681711 -28.090878 18 1
2.299146 144.718610 132.915270 4 1
71.638672 135.504520 -42.516518 12 1
4.135174 84.820290 11.801423 0 0
-31.650719 130.705030 112.959000 3 1
-12.954848 103.113320 -9.525906 10 1
34.520786 145.591960 99.298004 8 1
44.891895 122.235300 91.073784 7 1
-8.758056 119.297310 -105.455050 16 1
-12.772501 152.071080 8.113768 11 1
-12.515064 127.394880 103.044780 3 1
-8.955113 22.788691 -35.248341 18 1
113.365890 146.616000 48.476875 6 1
-27.933954 150.089080 -126.745570 22 1
22.905836 122.797200 -72.170273 16 1
-1.710044 137.476350 -17.515247 0 0
2.028087 160.792600 -31.797306 17 1
-18.120012 158.504840 -1.988151 11 1
62.366772 138.694790 -45.821877 12 1
79.909012 133.079790 -31.364027 12 1
-10.578143 169.434010 -110.159420 22 1
0.167852 92.209358 -101.904350 16 1
0.116186 126.428440 -102.177500 16 1
-14.077796 137.469650 132.446260 4 1
0.033684 126.436870 -12.189435 0 0
85.362129 133.501220 76.500954 5 1
45.366470 156.283580 -37.807343 12 1
12.885391 136.927050 139.825160 4 1
117.611820 107.511390 72.085526 5 1
1.392538 162.163310 101.184140 4 1
-37.783638 89.084793 -75.842712 2 1
94.375992 109.928020 73.142281 5 1
-20.413216 136.085070 -3.571547 11 1
74.365410 109.612880 81.574371 7 1
104.291830 92.239655 78.875130 5 1
7.864879 152.804890 -85.752487 22 1
7.904208 129.163760 -94.331238 16 1
-49.450127 133.737640 118.160320 3 1
6.505973 152.925110 -2.575055 0 0
92.120514 128.659960 78.062088 5 1
-1.474455 112.858780 -9.000610 0 0
45.366810 72.561752 -14.691967 0 0
22.782057 111.409190 -73.510345 16 1
-3.938009 147.060490 123.538000 4 1
0.558765 43.866577 9.208376 0 0
15.606876 131.164930 10.919998 0 0
-5.106569 133.864350 138.076870 4 1
84.292877 118.731350 -45.078976 21 1
2.802221 96.976631 -85.946526 16 1
-46.792393 160.478130 107.383210 3 1
90.158310 144.776730 59.543278 6 1
54.566116 95.349121 106.290410 7 1
-4.512320 134.101910 -96.113693 16 1
98.071541 126.459760 75.312592 5 1
6.136897 163.022610 72.259720 8 1
60.773205 149.251250 80.733932 7 1
82.462181 98.795776 91.262848 5 1
105.311330 115.212120 63.858723 5 1
115.467510 108.121570 -34.434860 20 1
2.228762 148.216050 124.915400 4 1
-28.031691 125.703790 113.665910 3 1
0.557542 163.116500 -81.543411 22 1
13.246788 121.181260 -86.904442 16 1
47.070377 148.511170 -44.120728 12 1
3.735585 174.298170 -78.297501 22 1
-28.473377 145.375670 -15.336907 11 1
-32.223362 133.781300 -23.509588 11 1
104.688130 64.415527 87.575562 5 1
4.621119 130.408690 -83.178329 16 1
19.966328 14.108049 49.656094 19 1
-2.161243 172.319990 -91.940475 22 1
1.394257 118.899170 -101.205930 16 1
-6.433626 164.205540 -20.203335 11 1
-21.444901 134.215230 105.277370 3 1
15.238504 156.955370 -10.853476 17 1
-7.113059 159.042590 -0.126367 11 1
-27.054813 150.630110 -36.522964 11 1
12.759823 148.793760 109.406380 4 1
44.768559 157.988830 -23.992882 12 1
20.778669 152.128450 -21.290167 17 1
-10.757568 163.918030 -26.818001 11 1
-13.830396 146.478130 123.432400 4 1
76.660202 128.519820 64.851898 7 1
51.988453 153.988910 -27.066833 12 1
6.290770 159.063250 -6.778171 0 0
12.236360 124.358510 -76.568604 16 1
72.374359 142.888150 59.058491 7 1
101.923550 147.483340 47.804779 6 1
40.334812 151.339020 71.707977 8 1
100.464000 148.664140 58.873421 6 1
-11.088823 143.366300 -119.958410 22 1
-25.523495 96.994270 -26.321074 10 1
2.683187 101.706080 -37.913876 9 1
2.654820 110.158460 -100.568090 16 1
100.276570 106.808630 -1.203667 1 1
5.927145 24.275522 -25.665386 18 1
-23.796349 168.937810 83.386681 3 1
-13.182302 181.132060 -106.019230 22 1
62.119473 140.919740 62.163033 7 1
89.271782 154.976820 50.800632 6 1
32.214451 140.296840 91.959373 8 1
98.736435 95.168930 90.981735 5 1
56.619408 139.378220 -58.684063 12 1
-16.784937 102.713910 -30.985291 10 1
-28.061956 169.013950 -114.226720 22 1
9.699347 73.061722 -8.333338 0 0
113.690600 73.842468 82.113663 5 1
120.160190 131.961780 43.726578 6 1
123.620080 96.848526 75.183434 5 1
51.239922 148.593890 67.924278 8 1
5.082283 77.180199 -89.628754 16 1
107.991420 98.812065 86.367950 5 1
30.399996 140.405260 25.418024 0 0
83.901337 95.127968 84.501595 5 1
-7.027627 26.527714 -8.254088 18 1
108.418120 108.858450 -10.069197 1 1
-23.584217 92.098038 -63.843296 2 1
70.585663 143.509000 -18.232523 12 1
103.964600 125.614020 67.712311 5 1
-9.042924 158.192520 -37.056538 11 1
-21.365837 161.314320 -123.305470 22 1
31.422766 143.125600 140.285170 4 1
76.241646 155.013850 64.400436 6 1
-33.540852 142.814580 -29.320642 11 1
87.737350 160.160930 54.109940 6 1
84.834618 142.068340 67.994133 6 1
107.063890 147.771410 56.208149 6 1
-16.035307 159.565410 3.687277 11 1
-4.253919 178.358050 -92.113312 22 1
6.149457 18.754988 16.124384 19 1
2.676921 105.907960 0.520055 0 0
14.972617 100.916200 -73.429688 16 1
92.588699 154.643460 59.093914 6 1
4.939165 32.682404 4.363796 0 0
90.394165 138.010510 73.304070 6 1
121.654590 94.456306 20.684092 1 1
-1.392711 79.174820 -120.092040 16 1
63.679951 135.314580 -51.964836 12 1
-16.612179 145.159100 97.852669 3 1
61.465832 146.280780 -20.291447 12 1
14.053799 130.599720 -75.316742 16 1
60.039898 117.063650 82.199928 7 1
25.814802 149.674650 91.999680 8 1
127.252690 100.844400 -53.478855 20 1
-12.033646 157.321040 111.905430 4 1
97.971649 156.649290 50.850349 6 1
6.304749 73.610641 -15.744234 0 0
-12.485901 149.419690 2.384462 11 1
59.008636 133.650770 90.873329 7 1
80.566216 113.212490 -18.744421 21 1
88.283142 111.317160 75.445457 5 1
-2.404946 68.296822 -121.408160 16 1
9.442163 115.962340 11.624647 0 0
17.308201 164.002980 110.392300 4 1
10.928772 162.196110 -19.685825 17 1
8.696255 163.179520 -65.675552 22 1
85.012482 133.988100 61.597851 6 1
25.512184 96.771629 -68.043015 9 1
120.229610 103.773770 -52.498024 20 1
24.809074 165.588330 54.884819 8 1
-28.799952 178.772950 -114.849240 22 1
-2.658347 17.576771 6.968337 0 0
-0.505920 22.974504 -1.831239 0 0
3.678879 17.839653 -34.784489 18 1
14.703629 79.359695 -13.451895 0 0
-16.986362 159.666720 104.093210 4 1
-4.997176 159.400020 94.696121 4 1
5.013934 137.018950 138.110320 4 1
7.759897 116.428890 -82.089317 16 1
-7.319971 169.490310 -104.046420 22 1
76.223206 101.934190 88.211327 7 1
-3.381668 131.307710 145.803120 4 1
-16.593878 97.260841 -28.509056 10 1
-4.792017 158.916280 5.807920 11 1
40.813599 156.421520 -49.568733 12 1
7.538459 77.495316 -80.627724 16 1
125.525180 101.866450 -34.265812 20 1
-20.421680 136.916170 -44.219479 11 1
115.617140 101.172550 -3.954058 1 1
0.375124 77.474266 9.436718 0 0
3.773859 104.767730 -46.344585 9 1
-0.351400 67.912094 -89.084000 16 1
-0.450027 140.841260 57.794998 0 0
-33.152626 162.943420 -124.307370 22 1
18.449247 161.250500 -53.308311 12 1
-27.772440 163.288350 91.419289 3 1
-34.455563 96.316704 -72.103600 2 1
-17.401304 95.162148 -65.081505 2 1
-13.935414 151.300370 111.954810 4 1
2.195502 71.091957 12.176935 0 0
-9.330310 165.880160 -0.238852 11 1
68.228531 127.098560 73.192230 7 1
50.057331 154.948720 57.507797 8 1
51.583652 119.137950 95.806816 7 1
-7.640908 52.444923 10.410930 0 0
14.848142 133.396770 -82.784485 16 1
7.626794 155.991780 -24.481565 17 1
104.160560 114.443500 -31.283466 20 1
59.211018 106.241060 -44.487480 21 1
15.451723 127.538710 154.172420 4 1
-22.125631 126.534710 108.638170 3 1
68.504608 118.221400 78.225586 7 1
64.654640 152.320800 57.946526 0 0
12.219090 146.795930 131.659360 4 1
124.791440 97.847115 12.023737 1 1
-5.796855 150.917500 86.139626 3 1
-2.752563 164.386340 91.808418 4 1
74.649422 106.671910 96.472008 7 1
16.403189 14.229897 39.476833 19 1
50.386288 153.486300 74.508308 8 1
71.934662 112.518400 -45.942497 21 1
72.705688 135.525090 60.971275 7 1
-1.879814 130.885100 -88.093048 16 1
-11.728366 150.151310 -45.575542 11 1
-29.466291 90.908585 -67.189659 2 1
8.233764 155.343480 -70.519669 22 1
8.630218 65.736183 -5.739652 0 0
-0.744015 110.332740 2.373469 0 0
73.098572 96.778419 96.325974 7 1
-6.998084 146.023250 -26.088428 17 1
-2.766257 9.293695 -0.026958 0 0
13.239120 57.449471 -1.013043 0 0
58.305691 153.091080 60.388466 8 1
111.335990 100.557840 22.164104 1 1
58.458637 151.180760 -22.352186 12 1
14.812222 143.386930 6.668706 0 0
50.300602 149.419910 -30.841381 12 1
-1.642637 160.318710 -89.183983 22 1
98.655594 118.843180 -38.007195 20 1
67.102135 144.664760 -28.102257 12 1
24.346237 144.669950 -16.654741 17 1
9.731085 147.179380 6.092063 0 0
-24.798204 101.910350 -57.979134 2 1
87.828392 152.950640 62.290375 6 1
-2.105935 165.901260 -86.262238 22 1
12.251257 150.517150 -95.663895 22 1
-1.065947 158.320500 -9.711221 0 0
11.293351 102.200950 -35.525715 9 1
1.707810 165.352920 -15.728600 0 0
6.552293 162.354860 -51.601315 17 1
-6.510819 89.142418 -117.890720 16 1
-29.176849 131.851850 -28.962833 11 1
21.280687 133.135800 -26.030638 17 1
-17.371170 13.655557 -46.578995 18 1
57.333622 145.874510 -31.830957 12 1
59.637024 83.384552 -19.181990 0 0
-17.711527 167.242110 -108.377650 22 1
19.123262 60.751740 -3.304452 0 0
118.666370 68.406097 83.194252 5 1
-4.827727 4.239219 2.433847 0 0
3.683506 151.154680 -101.601020 22 1
-18.526983 166.015470 84.417549 3 1
-10.013408 102.619120 -33.875027 10 1
95.931122 132.641540 66.635002 6 1
98.988220 151.409840 40.673191 6 1
123.428500 133.970540 58.965813 6 1
-25.039576 93.051979 -75.540604 2 1
17.474943 145.884870 -36.290421 17 1
-1.804524 168.080080 -26.349218 17 1
8.424087 95.021942 11.420093 15 1
52.421917 147.011400 -65.581718 12 1
79.606430 103.556320 -24.508137 0 0
88.320702 130.429240 67.506622 6 1
5.826801 125.604590 149.180390 4 1
86.457687 110.499820 -27.454092 21 1
17.175100 16.999262 45.485077 19 1
-12.429025 172.914520 -100.734200 22 1
1.349691 121.055210 46.561367 0 0
3.316520 144.894320 -100.785730 22 1
-8.726377 109.597640 -113.394620 16 1
125.651410 84.159065 76.302010 5 1
59.566624 86.510597 108.706060 7 1
29.052742 165.591170 47.384571 8 1
116.798390 89.297600 76.389389 5 1
-1.345443 153.909320 -96.583298 22 1
58.352322 103.834390 -50.339870 21 1
32.751087 157.528670 59.565758 8 1
66.656845 130.944460 69.032860 7 1
118.806120 79.795212 85.313377 5 1
67.657951 151.621630 73.229599 7 1
126.362100 130.516850 51.121544 6 1
-2.632522 152.374740 3.281972 11 1
51.681908 129.703370 89.932373 7 1
-6.306713 114.146990 -102.141990 16 1
32.695816 153.532290 78.472664 8 1
101.660620 119.415100 -49.437904 20 1
62.426640 141.462860 -37.752693 12 1
-24.213398 148.434050 -26.464874 11 1
28.142139 161.149810 120.606330 4 1
99.200279 70.292137 84.469528 5 1
65.894623 112.572830 -38.692253 21 1
111.977200 112.779940 -28.005287 20 1
3.636354 23.507656 20.763529 19 1
114.111630 67.318810 90.040024 5 1
-36.519611 146.409290 108.560400 3 1
84.792427 126.690620 70.993690 7 1
69.028389 92.294289 106.335270 7 1
47.746437 137.928570 78.743073 7 1
-39.491982 137.101470 111.916630 3 1
104.617240 136.158450 60.585297 6 1
104.321590 103.030830 73.250641 5 1
-21.598169 151.426500 118.357800 4 1
-1.336623 141.893230 -91.038795 16 1
-2.045677 158.779430 -100.651310 22 1
91.872276 105.424470 90.520889 5 1
26.120174 18.060450 10.693901 19 1
41.774025 148.659120 -66.974236 12 1
17.265375 121.014520 160.118910 4 1
12.870916 134.977230 145.511800 4 1
3.695309 92.719223 -82.241539 16 1
102.684900 110.362980 68.158653 5 1
52.824722 152.325120 -37.329540 12 1
-15.419969 50.962612 12.749104 0 0
6.229520 86.510315 -91.001122 16 1
77.194901 133.343310 -37.341351 12 1
78.999504 124.576070 -37.003593 12 1
-17.842056 154.764660 -117.857030 22 1
-7.637704 23.447613 -15.909764 18 1
0.850197 99.829559 32.722961 0 0
14.253635 153.813900 11.568699 0 0
56.354595 139.006390 -68.408676 12 1
0.450550 164.249050 -36.775463 17 1
8.524378 160.800320 -13.822950 17 1
-30.513077 155.695540 -124.469660 22 1
13.386190 89.040161 -71.283386 16 1
-0.507858 47.417023 4.575301 0 0
27.532234 165.437270 -31.994179 12 1
43.709576 149.236860 77.102470 8 1
5.079515 165.566670 -29.201002 17 1
-3.538737 148.326370 -109.358550 22 1
14.464816 154.378750 -71.647491 22 1
-14.482100 141.578830 -39.094479 11 1
-6.249001 167.756130 -10.504108 11 1
21.656166 143.194460 -26.101131 17 1
-30.805761 150.229920 -17.108879 11 1
27.112196 158.646770 60.415443 8 1
-0.907153 179.708850 -84.300888 22 1
4.454265 111.680260 -85.691452 16 1
-18.378876 148.379270 -5.218515 11 1
94.587524 113.361790 -22.846401 1 1
100.158740 110.433570 -10.340145 1 1
-19.131184 143.627850 -127.742160 22 1
47.715706 161.609990 52.471718 8 1
19.528183 102.194840 -59.753181 9 1
-0.038463 85.767723 5.618351 0 0
-42.464462 172.208240 96.779366 3 1
-37.843624 157.131900 100.386200 3 1
91.252029 119.589960 67.747765 5 1
1.838194 165.691070 95.338333 4 1
120.136430 98.051048 8.824642 1 1
57.846470 109.713460 89.653046 7 1
1.681561 65.461945 -98.682541 16 1
121.957960 134.247620 48.570564 6 1
19.434059 98.249969 -68.411369 9 1
18.286766 156.952970 -17.970934 17 1
5.633924 82.166649 -21.037056 0 0
105.523540 104.018800 -9.226575 1 1
-4.849164 147.327380 -2.001249 11 1
-13.859248 143.547670 93.159081 3 1
111.161630 140.997210 59.354347 6 1
123.109660 97.675858 0.811004 1 1
-28.835800 98.842201 -68.612671 2 1
3.062251 133.822040 145.932370 4 1
21.681807 126.757040 -78.479172 16 1
109.105490 140.603150 43.370529 6 1
104.440580 88.786232 91.222176 5 1
-18.436926 177.773380 -104.511610 22 1
-18.263977 184.403810 -110.674970 22 1
-22.078638 142.527530 -43.818165 11 1
17.443830 119.583130 -83.207848 16 1
95.762222 136.594570 61.463543 6 1
-4.257926 129.391010 -18.289822 0 0
6.882164 148.410200 -28.869686 17 1
-8.373449 104.681940 -41.478352 0 0
19.624889 102.399250 -76.870613 16 1
-4.709084 154.084460 -20.853891 17 1
45.843666 111.265050 92.301880 7 1
83.481033 128.983670 81.514290 5 1
-8.357121 147.127370 128.096860 4 1
22.494558 103.797970 -35.213741 9 1
29.769772 10.207617 17.964811 19 1
20.759924 127.469380 -33.538277 17 1
5.728498 94.689873 -95.900291 16 1
81.480492 100.289670 83.405212 5 1
50.478420 136.803960 83.485611 7 1
-2.640657 149.785520 64.793404 0 0
10.558604 98.048325 -86.067566 16 1
20.291960 133.012010 17.468058 0 0
56.039082 107.258070 -38.045341 21 1
9.976692 160.522020 69.077209 8 1
67.000938 136.394990 85.877449 7 1
2.847900 143.455660 -95.416756 22 1
-9.294954 136.281360 96.246178 3 1
-9.491844 164.116350 -101.845960 22 1
25.837431 14.509119 18.467270 19 1
74.443352 145.249250 70.657623 7 1
101.532590 99.499191 88.885330 5 1
-1.507842 155.368500 109.017650 4 1
55.754009 129.675170 73.815941 7 1
4.052806 157.353900 96.955421 4 1
120.948130 90.731445 82.118477 5 1
4.819424 166.778550 -81.871140 22 1
64.948112 127.818670 92.732727 7 1
22.679480 125.833500 155.023120 4 1
35.199017 153.543620 -68.734093 12 1
3.695679 59.731922 13.164495 0 0
8.195879 141.591710 -78.485176 16 1
54.159584 141.438190 -53.231968 12 1
-21.947800 159.136810 89.571976 3 1
78.010223 112.166800 -52.057182 21 1
29.525410 6.313504 22.666023 19 1
42.506245 129.364530 84.670815 7 1
121.765880 105.771000 -47.503914 20 1
108.257780 137.609770 34.376842 6 1
42.250168 152.348370 -41.456795 12 1
-13.952562 173.963440 -111.991100 22 1
10.314938 108.174610 -87.999939 16 1
13.764049 126.860430 7.904747 0 0
87.855186 97.391380 91.742363 5 1
-0.192218 164.005650 -93.718582 22 1
-24.744608 132.295200 -37.802376 11 1
55.410542 114.013360 86.432556 7 1
11.903096 154.875380 -41.935867 17 1
11.490644 153.498250 -20.313107 17 1
11.261275 169.277950 54.065815 8 1
0.248714 152.845750 -90.592903 22 1
115.585110 135.211930 61.862717 6 1
-7.376092 104.211380 -28.346817 10 1
-1.815665 140.007860 -116.226710 22 1
5.998542 27.134993 -20.335627 18 1
-2.292673 53.402233 9.386433 0 0
96.438606 147.581380 55.267117 6 1
92.397995 100.377720 79.485878 5 1
-23.130030 152.697490 -123.007160 22 1
-41.074810 167.160060 99.460510 3 1
-59.700695 150.069380 118.425290 3 1
13.025819 122.775950 152.858950 4 1
87.014366 104.670270 79.283470 5 1
8.307052 19.234373 39.846687 19 1
65.863297 104.709290 91.346230 7 1
16.215439 96.189003 -58.296215 9 1
-13.605077 151.519040 -28.080271 11 1
36.832565 147.514370 33.994259 0 0
-3.303749 120.553320 -6.490836 0 0
72.098389 142.398530 -23.550459 12 1
89.089645 150.772780 36.698055 6 1
-1.897363 172.795810 -81.816147 22 1
-24.282057 130.514300 -26.873104 11 1
-12.943818 162.972850 -107.339610 22 1
4.728896 152.560460 117.536050 4 1
-8.543472 187.881010 -94.539917 22 1
118.237110 100.833910 78.641930 5 1
116.805770 142.205610 53.136486 6 1
-9.967035 123.046620 148.463500 4 1
0.134106 135.078110 -99.766403 16 1
-13.124063 140.135850 -44.188438 11 1
122.106940 103.563990 68.404457 5 1
-48.852341 139.410030 117.771410 3 1
38.578793 68.175095 -12.369867 0 0
-15.731597 146.898680 -124.828460 22 1
52.996490 148.344790 -51.333763 12 1
-30.231951 160.113170 95.106346 3 1
35.834869 158.508620 -23.396868 12 1
1.967889 162.148280 -20.550541 17 1
-4.797708 164.677960 -3.015362 11 1
72.399513 92.367653 -21.689182 0 0
74.679581 118.032100 75.394356 7 1
-5.814230 144.912630 3.259098 11 1
108.671550 102.021920 15.680302 1 1
9.471656 63.631920 -11.077219 0 0
89.911880 86.279602 84.391899 5 1
127.480370 128.095290 41.345852 6 1
-44.386650 152.622910 105.916310 3 1
6.945331 151.803160 -95.691093 22 1
65.246231 103.848660 102.333230 7 1
115.599570 112.129980 -60.066113 20 1
16.003214 104.983660 -80.475235 16 1
-7.243294 98.450623 -117.856470 16 1
-17.099503 155.412350 109.789960 4 1
-15.374747 151.139370 87.949982 3 1
98.290817 114.740710 83.516212 5 1
6.886214 80.419998 -73.907295 16 1
10.856462 135.398970 -76.966896 16 1
-3.467075 169.339200 -96.812958 22 1
8.903724 130.605500 150.222720 4 1
-12.267838 156.347240 -18.453249 11 1
81.750633 88.203438 88.265381 5 1
90.106049 114.500980 87.859886 5 1
9.905669 160.128980 88.551804 8 1
-20.631721 144.062160 101.584940 3 1
85.553978 122.073880 -39.426918 12 1
8.567138 86.919983 14.134299 0 0
-32.317142 148.452610 105.840560 3 1
-21.577740 102.274860 -62.423790 2 1
-14.064602 145.630000 -47.486462 11 1
-16.374695 103.952810 -50.917274 2 1
7.839310 157.651780 -56.634613 17 1
14.462363 155.938050 84.981010 8 1
-12.454576 92.407242 -67.055405 2 1
-16.158321 150.579240 118.049220 4 1
-0.064055 67.148766 -110.526170 16 1
22.775192 163.561550 -41.402885 12 1
4.664949 101.210060 2.293543 0 0
70.613281 114.350290 -23.782005 21 1
58.237099 136.203690 68.279984 7 1
9.640790 145.921600 102.535370 4 1
-9.421696 141.939650 132.658250 4 1
-7.623212 154.308270 104.318230 4 1
25.463486 128.508770 151.267200 4 1
-0.984704 107.350110 41.686481 0 0
-0.213638 149.956650 102.697940 4 1
-16.742638 139.545960 100.984290 3 1
3.690231 124.974040 154.091060 4 1
-10.282713 158.633850 -27.708155 11 1
89.279366 130.579250 73.434082 5 1
-4.258403 132.008770 51.676334 0 0
4.254820 85.093323 -100.470280 16 1
111.621150 114.451240 -51.646183 20 1
-20.702391 149.891220 92.660873 3 1
54.193573 107.474880 93.918427 7 1
-23.223814 146.812960 125.019240 4 1
20.517920 148.429690 -16.686752 17 1
22.782963 148.422000 -27.110685 17 1
0.927088 105.821270 -92.813263 16 1
-20.142443 134.522420 137.951710 4 1
-13.566334 186.246050 -104.400120 22 1
-30.732594 146.913510 -31.477922 11 1
20.271400 8.732602 48.850151 19 1
4.264518 72.328537 -98.201569 16 1
20.418175 97.112556 -75.175529 16 1
-3.163488 66.244133 -105.670850 16 1
19.487585 136.808300 -34.902035 17 1
4.649635 76.965607 18.148411 0 0
10.213565 145.391050 -95.123589 22 1
-1.486192 35.188606 4.351689 0 0
107.556950 142.386000 55.225666 6 1
-2.310874 24.441683 -18.070509 18 1
75.327583 148.083660 65.688293 7 1
93.000084 158.754320 49.008099 6 1
-34.843090 141.388210 109.646720 3 1
80.860023 103.878400 93.188240 5 1
4.919594 105.457420 -52.438774 9 1
-24.988594 174.956950 -117.661200 22 1
71.730904 107.228580 -55.313454 21 1
-3.688309 112.512560 -2.083203 0 0
100.646210 140.743040 38.446285 6 1
73.845627 135.578950 -22.557852 12 1
44.610054 157.547130 60.167419 8 1
12.634167 156.393740 115.145710 4 1
9.529396 136.248050 8.047765 0 0
-10.420954 134.341600 140.050020 4 1
12.671467 161.246950 109.116680 4 1
45.587276 144.788480 -60.733509 12 1
11.382196 154.206360 0.413749 0 0
-21.722363 148.945660 -16.114729 11 1
33.735382 153.494710 -52.862953 12 1
3.800915 158.100250 -89.226326 22 1
5.766684 63.833275 5.664878 0 0
123.438550 133.898820 40.002247 6 1
2.805065 117.965450 159.923320 4 1
57.242344 153.451780 70.223610 8 1
-21.742748 161.289350 -13.279839 11 1
33.476677 139.778320 97.162529 8 1
41.084305 160.584010 53.909504 8 1
75.808220 124.235360 88.317734 7 1
57.383015 141.464490 -46.496216 12 1
-8.070747 154.309720 -113.291150 22 1
16.866461 139.827740 -40.419678 17 1
62.971111 110.600960 -45.023869 21 1
91.924988 118.299200 -39.534737 20 1
13.846159 20.372704 32.018024 19 1
126.144530 94.891022 70.890541 5 1
0.125003 115.011670 41.988194 0 0
16.380917 158.749770 93.945412 8 1
-21.268101 101.629630 -51.124187 2 1
31.174141 164.056320 -22.805138 12 1
-7.641196 186.768880 -88.909889 22 1
115.084530 109.854390 63.157936 5 1
109.526200 80.962471 91.363411 5 1
113.740250 79.788376 80.270088 5 1
48.575203 142.159210 75.659531 7 1
3.638476 57.208298 4.578909 0 0
89.105797 156.061770 41.732685 6 1
-1.305354 155.534180 77.199821 8 1
11.743860 145.653780 -37.309002 17 1
-7.068717 155.473920 83.027626 3 1
-18.013607 150.088260 -121.049440 22 1
33.788277 154.875020 67.707245 8 1
6.962610 68.807602 12.661350 0 0
19.237190 160.815030 63.710537 8 1
20.920835 142.411410 -20.236320 17 1
-37.815853 87.908363 -70.685936 2 1
3.372230 23.207396 5.417843 0 0
9.222514 55.824036 2.824535 0 0
-2.279355 144.333210 -22.488842 17 1
60.040218 112.557300 99.832588 7 1
-22.499626 101.926080 -42.170048 2 1
-11.685802 163.054840 3.580423 11 1
22.431190 4.517574 53.605610 19 1
19.034405 90.326195 -72.456924 16 1
-12.884809 167.486980 -4.026775 11 1
0.798977 100.652050 -44.264297 9 1
36.662457 160.087300 -37.844395 12 1
29.166258 148.840900 87.296509 8 1
-4.253430 154.822340 118.534910 4 1
-26.900127 141.201050 -38.837807 11 1
12.938411 140.807500 -86.278854 16 1
-14.613281 107.102150 -55.792046 2 1
-12.158071 93.228828 -119.845410 16 1
-3.493636 70.083351 -113.847540 16 1
-0.504120 76.021751 -100.147360 16 1
10.515495 163.521530 63.149464 8 1
21.017763 140.543840 136.760480 4 1
-10.873538 127.854280 146.425670 4 1
-14.422069 166.728520 -14.976591 11 1
5.429606 116.048500 4.574389 0 0
2.637914 109.948740 8.728180 0 0
57.285164 142.593080 81.993843 7 1
17.406923 109.766940 -72.889694 16 1
-40.267113 94.218399 -62.077095 2 1
31.954876 144.331010 86.753426 8 1
69.698486 131.030180 87.343521 7 1
0.954389 91.540031 -32.993580 0 0
3.527635 75.289436 4.900700 0 0
61.975838 108.813860 -55.637241 21 1
86.000839 148.879460 59.436199 6 1
5.575356 104.189110 -58.918533 9 1
101.298780 131.204210 61.876656 6 1
3.818915 97.411095 -99.970428 16 1
-41.295719 86.071732 -66.963608 2 1
3.129854 68.651093 5.085219 0 0
7.286246 92.759041 5.520311 0 0
27.333874 102.560380 -69.388496 16 1
71.065590 145.161590 79.518257 7 1
-1.995774 23.861174 -8.726720 18 1
101.173510 118.884690 63.476383 5 1
-29.659452 98.041000 -48.980011 2 1
48.690735 147.700670 41.651314 0 0
89.651558 142.645360 65.590904 6 1
102.790880 153.823550 50.649395 6 1
2.309065 85.046104 24.221197 0 0
109.786610 97.053001 75.180954 5 1
-23.830225 125.951130 -24.347294 11 1
-24.253633 93.533569 -14.606020 10 1
3.790480 140.832440 -110.527900 22 1
-32.947002 143.268510 -129.662540 22 1
102.815700 106.594950 -17.651232 1 1
-24.606827 151.496140 -8.362289 11 1
117.681350 141.797180 44.456871 6 1
95.296227 78.944817 83.199631 5 1
25.040621 159.657460 -46.643127 12 1
115.367380 101.498830 5.268806 1 1
27.889021 8.137011 27.335033 19 1
56.978676 147.934010 -45.285767 12 1
10.494860 160.494370 -32.548504 17 1
13.700983 154.347600 -36.855003 17 1
0.318048 93.131485 28.624540 0 0
97.392464 146.325880 37.869259 6 1
-11.230012 153.253970 -36.514919 11 1
7.177860 102.779320 8.799649 0 0
-28.497532 168.008180 -121.331090 22 1
113.724820 62.496086 86.383667 5 1
-3.684796 97.487190 -104.854560 16 1
-18.593588 125.968190 142.729870 4 1
4.348565 137.195600 -96.433868 16 1
39.709625 153.389820 -60.162029 12 1
100.068850 84.352753 82.360741 5 1
17.522963 132.162860 148.783080 4 1
-31.143120 153.254500 -26.018221 11 1
15.108266 96.654808 18.517448 13 1
22.799261 103.520230 -44.100105 9 1
124.692440 78.856033 78.574242 5 1
2.418536 4.666750 0.876994 0 0
117.056890 109.149390 -46.298733 20 1
4.741745 74.402908 -77.244789 16 1
47.316982 145.805560 -67.325371 12 1
-16.063702 157.926590 -114.043880 22 1
71.747269 151.727780 64.705414 6 1
-9.419121 101.408050 -110.411700 16 1
9.691268 167.312390 103.035850 4 1
50.543392 141.943340 -58.787251 12 1
-21.523685 23.938410 -21.274155 18 1
74.333099 114.462560 -35.422058 21 1
118.316810 99.928757 0.308928 1 1
12.535598 146.817150 -22.943352 17 1
9.821083 147.992580 -85.662552 22 1
77.332321 112.010480 -23.389065 21 1
21.251818 123.703770 -82.659462 16 1
78.823425 108.168550 79.336052 7 1
-35.804192 159.878980 95.501122 3 1
14.048879 162.092150 7.312706 0 0
20.788960 154.280460 87.324417 8 1
19.485748 161.388760 118.036990 4 1
108.909420 88.598244 78.810188 5 1
-0.623794 84.614418 -115.651310 16 1
78.909500 112.110750 -28.428505 21 1
63.683151 125.161350 75.411926 7 1
84.662201 158.250240 49.656906 6 1
-10.472164 176.265240 -96.666962 22 1
48.298244 132.427980 86.563774 7 1
7.494581 151.307690 99.989143 4 1
91.131256 121.591890 83.589722 5 1
-3.175265 60.773426 -90.806854 16 1
43.718643 152.726910 -51.807934 12 1
43.857407 158.244600 -29.448095 12 1
-17.815386 124.032540 106.466220 3 1
-44.247768 145.096910 113.040860 3 1
27.966398 5.557630 31.894894 19 1
4.727301 107.766740 -96.327530 16 1
-23.190386 140.095230 -32.076645 11 1
-12.265239 149.833500 -40.278759 11 1
93.414589 127.954340 63.519810 6 1
108.079960 104.138050 83.899437 5 1
6.007115 159.136610 107.096250 4 1
14.698433 126.024170 -85.732666 16 1
3.787911 27.768631 -10.634633 18 1
72.744148 101.668770 97.911484 7 1
118.518560 59.540928 85.281914 5 1
61.779495 100.044330 103.860160 7 1
61.355389 117.368700 97.896599 7 1
-4.295253 124.663040 -9.493868 0 0
-7.130258 173.590270 -92.417458 22 1
-15.775988 156.406110 87.022438 3 1
7.477211 162.346690 -40.034412 17 1
82.361427 130.041560 74.151634 7 1
0.742337 74.109955 -94.490707 16 1
6.393435 104.047900 -81.744843 16 1
125.935510 103.226970 -62.375729 20 1
122.692230 88.267670 75.124489 5 1
-13.866950 164.460590 -116.665530 22 1
1.996391 14.769846 -0.461042 0 0
74.468437 136.623230 79.867729 7 1
-1.965866 137.200420 140.474500 4 1
-30.349499 139.528370 -25.287777 11 1
13.396053 141.819560 138.374470 4 1
-6.260396 159.041980 -108.153160 22 1
49.335369 134.887220 73.323792 7 1
80.197433 156.144330 59.859585 6 1
-23.770432 148.183870 -129.233260 22 1
8.335376 161.152190 -78.941689 22 1
8.115865 78.806152 11.382276 0 0
28.217096 156.267520 -51.827015 12 1
1.492523 158.705900 -44.092255 17 1
-20.642118 132.881000 -41.079628 11 1
100.060950 140.562580 63.162319 6 1
-14.712677 153.406280 -42.994503 11 1
23.020405 156.475620 96.894424 8 1
-28.976116 92.789360 -81.047798 2 1
6.060877 152.956330 -90.576775 22 1
-57.415333 142.608920 121.240380 3 1
-20.942245 154.537720 113.327360 4 1
86.010025 127.941670 63.593662 6 1
84.033875 133.923190 71.233978 6 1
11.025853 152.017490 7.866626 0 0
11.125524 99.534554 -40.237278 9 1
110.846260 131.203700 37.454502 6 1
-2.424067 154.793690 -25.607216 17 1
-7.984718 175.383820 -101.631880 22 1
-29.168037 152.410220 97.182167 3 1
12.868776 101.734260 -52.372269 9 1
125.141470 121.078280 34.181934 6 1
7.266723 104.319850 -38.551506 9 1
-27.290495 156.577640 -29.427370 11 1
-13.050013 111.431290 -110.393740 16 1
-27.242771 135.993300 -8.816539 11 1
3.615200 48.134972 10.093349 0 0
49.572601 155.555110 -22.863623 12 1
-6.375354 164.879010 -96.111351 22 1
29.008863 134.038020 146.083010 4 1
130.584260 100.991530 -64.392647 20 1
41.822372 124.799930 87.927933 7 1
-17.070799 159.602080 -121.180800 22 1
12.842692 147.768190 -70.652100 16 1
-8.230808 154.278660 8.701180 11 1
-29.298237 155.076970 -16.846474 11 1
45.670563 108.447930 99.040199 7 1
58.659279 142.621430 -55.276703 12 1
107.572320 105.911210 -14.122166 1 1
-2.209029 104.069980 -109.194010 16 1
32.029911 156.715060 -60.707962 12 1
27.322899 157.086230 -67.908257 12 1
95.721283 113.311050 69.572983 5 1
62.497986 113.246220 -23.980532 21 1
-23.382887 141.097320 -9.007614 11 1
6.943608 171.066360 -75.066315 22 1
7.115976 126.214040 10.552001 0 0
17.626160 161.424710 -10.567457 17 1
91.370483 148.990340 56.990505 6 1
6.568414 91.723541 -91.871178 16 1
70.278435 113.961390 -30.766994 21 1
104.151270 149.059980 43.530807 6 1
30.260998 155.212160 129.367800 4 1
29.384029 161.408340 64.358841 8 1
21.419373 118.285200 -74.163643 16 1
47.378422 146.506330 -49.623730 12 1
13.481075 117.429270 159.694000 4 1
3.963742 19.452942 30.620546 19 1
98.419724 106.003940 87.483788 5 1
-0.701036 68.610779 -94.084953 16 1
33.330917 163.543350 54.887108 8 1
-26.670437 145.065080 99.821640 3 1
-16.947107 102.321670 -42.719933 2 1
17.880646 139.775850 -23.619902 17 1
57.803932 120.796730 79.620644 7 1
-2.393336 158.954770 90.044746 4 1
-11.861233 160.888440 104.944420 4 1
121.630980 73.115448 80.863182 5 1
-17.371696 141.259320 131.528500 4 1
-35.461411 165.819490 95.523239 3 1
82.031685 148.316350 65.070885 6 1
-30.969357 90.446564 -76.303886 2 1
35.168228 150.571880 75.211388 8 1
84.627090 107.282590 93.364471 5 1
54.550041 149.872240 46.973949 0 0
117.973470 107.997150 -40.238125 20 1
32.136684 100.874890 -58.833473 9 1
-2.897480 60.563690 -104.990400 16 1
114.392650 109.167970 -54.434593 20 1
128.309980 126.251070 46.036419 6 1
76.661293 113.781280 93.571533 7 1
-6.580297 57.738857 -107.757160 16 1
74.084549 129.302920 85.548561 7 1
98.952141 107.051160 -6.417109 1 1
-24.210014 143.201350 -127.637210 22 1
125.115580 98.172729 -43.839680 20 1
97.940498 110.518990 7.686483 1 1
7.899488 64.372246 10.349327 0 0
-2.559026 -1.260715 -2.784295 0 0
-10.878074 145.010070 4.219559 11 1
34.141994 159.415950 -46.482185 12 1
1.030708 71.320084 -115.978270 16 1
4.728148 53.554298 1.186909 0 0
25.754013 149.573670 80.261650 8 1
-2.022597 103.179050 -36.895786 0 0
10.672939 122.086810 5.723331 0 0
71.527489 110.934050 -39.843243 21 1
1.699460 7.928190 4.970950 0 0
10.832293 147.547740 -42.580059 17 1
-23.119459 146.530230 -3.664840 11 1
12.645274 144.942580 -75.102501 16 1
65.944511 109.279060 100.199650 7 1
3.219107 87.884270 28.551594 0 0
-2.386380 120.665900 -106.426700 16 1
-19.965828 129.729930 -32.094128 11 1
6.062490 85.398087 20.771111 0 0
43.607353 151.462010 -57.606972 12 1
-8.823531 148.635850 -117.875880 22 1
15.694789 18.634193 36.343544 19 1
-31.431736 138.803540 106.594700 3 1
9.872884 91.110558 -74.199310 16 1
-25.462627 182.088650 -111.804640 22 1
13.381765 127.121150 12.896147 0 0
-32.692413 97.004715 -54.311790 2 1
-17.539873 103.559130 -70.269447 2 1
7.641521 144.404190 112.781560 4 1
-15.311474 101.861660 -20.543316 10 1
10.566120 80.694199 -78.127380 16 1
126.235040 122.105280 40.310253 6 1
72.478226 135.002700 -37.572548 12 1
87.690109 126.650590 -24.589088 12 1
0.118013 159.665830 -39.052929 17 1
16.532814 93.729698 -77.237122 16 1
-19.580193 170.073150 -117.272900 22 1
-2.326008 154.883790 63.384319 0 0
5.966990 155.548320 -76.302925 22 1
12.297232 138.326260 -44.741013 17 1
-16.230373 133.247960 -37.040241 11 1
83.955864 156.675090 55.672039 6 1
65.583748 140.725100 -42.539665 12 1
10.447860 75.631638 -70.131401 16 1
105.670980 81.460533 81.511978 5 1
132.547990 96.187187 -58.471401 20 1
22.810535 152.997830 82.820343 8 1
2.405526 103.538090 10.052715 0 0
9.424810 167.881500 -69.253761 22 1
86.267014 89.582138 85.637581 5 1
-17.093235 104.784870 -60.041859 2 1
-2.174398 105.570820 1.589192 0 0
-18.479956 146.197650 -34.046059 11 1
80.027176 133.721180 60.603073 6 1
9.362613 161.121670 5.729888 0 0
120.067820 96.208092 69.612930 5 1
54.416840 145.292020 65.580971 8 1
75.547668 123.769830 72.549339 7 1
-21.183800 100.023250 -25.817184 10 1
64.984161 115.792750 81.153748 7 1
-30.057798 162.453250 -120.197140 22 1
126.258830 92.542221 76.241058 5 1
104.623680 115.197410 -45.116310 20 1
-7.767781 148.164960 120.054030 4 1
29.559113 160.764160 -39.032173 12 1
-40.054852 127.848090 116.814640 3 1
81.562416 131.635250 -26.217070 12 1
80.121010 137.843000 75.563889 7 1
111.761860 102.174290 11.799191 1 1
-12.453301 162.006300 81.380013 3 1
-40.918995 148.352340 110.027110 3 1
15.757291 164.409070 61.655357 8 1
71.345345 122.274280 92.142693 7 1
60.791336 102.685160 96.569481 7 1
-1.825854 72.026199 -103.450160 16 1
1.677249 88.148155 -92.651619 16 1
79.869781 116.691460 -43.654819 21 1
90.845657 137.678130 61.584335 6 1
98.846802 121.655750 -53.962471 20 1
25.345324 152.830870 75.461845 8 1
3.968684 121.971680 -86.149414 16 1
-37.528019 95.004494 -68.208427 2 1
72.616409 132.781430 -46.627357 12 1
-17.727718 136.740740 4.230136 11 1
60.267639 87.709641 -16.871389 0 0
50.159744 91.583023 107.015350 7 1
-15.241268 22.434381 -7.580642 18 1
26.945610 103.873110 -48.151245 9 1
-5.546191 145.092590 57.578941 0 0
25.877493 148.057770 132.694240 4 1
9.022815 102.452130 -89.120514 16 1
8.064340 101.930760 -50.996391 9 1
-35.221077 146.377210 -21.158463 11 1
42.058197 131.283630 79.988846 7 1
94.750069 117.284700 -31.406256 20 1
22.302530 7.621807 41.629745 19 1
0.144186 168.388490 -89.888054 22 1
-6.648647 106.066760 -20.953465 10 1
2.260081 101.506920 -102.240540 16 1
-3.730036 63.745548 -120.034360 16 1
-18.951015 161.293560 -29.644524 11 1
104.635380 75.106735 82.632133 5 1
-24.216759 145.365880 -12.354980 11 1
14.672638 142.736940 -30.814209 17 1
109.121790 72.296379 83.143074 5 1
-22.887587 139.968510 -0.980280 11 1
-47.409107 164.997570 105.528560 3 1
20.361441 137.562620 145.461750 4 1
51.311737 146.856160 -40.948856 12 1
-2.005464 -1.217567 4.903394 0 0
4.551885 81.985336 -96.665901 16 1
0.369665 29.678185 -0.500647 0 0
64.011093 153.451920 68.513206 8 1
27.815462 141.498170 21.245804 0 0
116.717380 104.751460 -49.067196 20 1
-0.615337 102.332210 -96.571198 16 1
54.004696 139.191060 69.000092 7 1
-16.714510 138.948170 -128.020580 22 1
0.210461 103.117260 39.338848 0 0
-22.201443 142.494290 131.755920 4 1
55.067093 138.612030 83.836311 7 1
68.714485 97.810219 98.829109 7 1
-18.549044 94.368576 -10.966867 10 1
-1.594428 156.573440 -30.258476 17 1
-14.904971 21.981384 -14.050465 18 1
119.335560 102.286470 -39.845287 20 1
4.982151 43.776276 1.995397 0 0
-1.856589 138.144300 53.231438 0 0
51.594273 150.843190 -23.023706 12 1
98.290504 149.053010 50.804443 6 1
41.653347 152.888820 66.544670 8 1
4.164480 71.021301 -87.652046 16 1
103.671440 125.699810 62.233276 6 1
111.985480 113.420200 -43.334209 20 1
76.944931 112.834560 -44.987953 21 1
2.754085 161.735050 76.753693 8 1
-13.774137 151.497330 122.226110 4 1
38.219517 151.783540 -50.912453 12 1
-9.630710 148.845930 -29.342752 17 1
0.961290 90.406624 -109.414360 16 1
4.187813 79.787933 -103.302580 16 1
20.466236 161.334500 -59.114330 12 1
113.722470 85.580940 87.269547 5 1
1.069506 111.266340 -2.068502 0 0
44.533840 153.221270 73.688583 8 1
41.726498 114.896880 90.156166 7 1
39.985634 154.723480 -70.666519 12 1
-4.032948 170.488980 -87.518127 22 1
107.716540 112.795420 79.404518 5 1
93.034126 146.715560 35.698967 6 1
26.253159 154.761900 126.315330 4 1
68.311760 133.940160 -52.679382 12 1
4.343857 87.582413 -25.140085 0 0
7.879047 169.708530 57.977249 8 1
12.744285 166.915950 11.115679 0 0
74.015671 106.521650 85.333534 7 1
63.200569 144.023850 -25.244795 12 1
3.556593 149.983660 108.823080 4 1
91.729652 95.812637 81.384476 5 1
120.388300 107.304440 -31.869429 20 1
1.733191 95.562263 10.150907 0 0
-0.838771 121.997510 -97.188164 16 1
76.626617 131.244420 81.399994 7 1
90.006248 158.734020 58.172089 6 1
101.213440 107.787560 3.500280 1 1
8.404437 153.997130 114.529310 4 1
-16.737930 144.817470 1.793492 11 1
104.998380 108.105670 83.488686 5 1
12.750317 132.634750 -45.604420 17 1
66.115784 143.846860 61.385754 7 1
40.621399 149.368320 37.031372 0 0
-13.238499 154.361850 -119.596680 22 1
87.830589 118.807590 -30.807713 21 1
-28.732929 173.550750 88.025719 3 1
84.183922 120.177790 73.273834 5 1
-32.603645 96.751221 -61.606995 2 1
0.476443 67.729477 9.037603 0 0
59.124214 105.397830 -57.562569 21 1
-21.109282 24.404575 -28.348915 18 1
1.277783 145.325970 -1.977696 11 1
-0.007390 104.747380 -52.374100 9 1
103.792650 119.407850 -58.166580 20 1
83.623543 158.260860 40.466774 6 1
-51.302719 154.527950 112.237010 3 1
2.516611 72.423447 -108.197400 16 1
91.749039 120.827000 -28.714039 20 1
4.372481 159.700320 -23.965731 17 1
97.153488 119.190130 81.908760 5 1
-4.413053 131.622850 -13.995977 0 0
22.189487 94.433830 -71.556221 16 1
-11.199007 16.518126 -43.322376 18 1
26.995626 146.074860 138.392720 4 1
-15.869946 145.903810 127.779830 4 1
-38.407391 154.484880 105.168590 3 1
-13.511613 101.035080 -66.206314 2 1
117.537970 137.095180 46.449562 6 1
2.617081 166.081650 63.835934 8 1
90.580002 83.066063 88.096931 5 1
-11.573163 105.654940 -13.395277 10 1
17.976898 158.441620 77.070374 8 1
-29.466196 160.145170 -126.333510 22 1
38.733925 162.063980 48.148052 8 1
56.752640 149.173970 -39.616489 12 1
-12.566426 18.792061 -38.737228 18 1
-4.233436 160.726350 71.393173 8 1
7.942900 61.434883 -3.362241 0 0
93.811958 136.952320 65.867119 6 1
1.420631 129.265290 144.961470 4 1
3.739625 96.706436 29.815723 0 0
-18.276642 165.281720 -12.456726 11 1
2.230608 171.813740 -74.345116 22 1
5.619236 161.574400 -62.036663 22 1
21.708977 153.102100 -16.543098 17 1
-3.038528 75.447891 -112.205310 16 1
61.301529 142.292830 -49.183289 12 1
54.889145 154.941250 57.464577 8 1
13.951889 101.286070 -44.801281 9 1
10.364921 113.587840 -79.192001 16 1
-4.199700 17.339230 -37.050632 18 1
63.323284 108.053010 88.977341 7 1
107.485450 122.043360 67.874611 5 1
-14.114705 98.896477 -32.374313 10 1
-14.245993 183.462010 -100.509410 22 1
1.973136 158.504350 -81.842575 22 1
113.785260 106.658950 -9.347764 1 1
31.049454 157.777330 70.406898 8 1
0.088099 21.367990 23.351126 19 1
11.424182 161.379880 79.339729 8 1
92.025436 99.862129 91.228569 5 1
1.545485 153.646640 -35.652031 17 1
35.688206 69.847794 -8.900034 0 0
24.057936 106.609640 -73.246330 16 1
-17.712595 139.754230 -0.837092 11 1
38.833672 149.839710 -56.927555 12 1
-21.704367 98.073059 -19.750349 10 1
2.619549 84.490845 -87.878311 16 1
-1.555408 125.729000 147.715190 4 1
76.977890 100.912390 -21.475761 0 0
2.487450 137.045430 142.415390 4 1
-17.558674 99.986588 -12.509836 10 1
10.227651 117.793910 -89.204292 16 1
88.516876 108.316620 -23.704351 1 1
103.177070 107.105080 12.649878 1 1
34.694256 158.117000 -51.072029 12 1
96.084778 150.741530 44.438969 6 1
-28.186192 158.658830 -19.844353 11 1
115.622480 96.695839 83.054955 5 1
65.392914 146.796050 -17.578028 12 1
2.419963 164.644670 -75.885361 22 1
102.431340 113.952970 -26.789894 20 1
20.395176 165.260360 53.038067 8 1
16.248919 166.881670 -46.002861 12 1
112.657620 114.533210 70.302414 5 1
-32.295910 148.135680 -131.007900 22 1
-6.825016 155.307680 66.430641 0 0
129.791490 86.485283 75.652863 5 1
34.619263 160.040510 -31.215549 12 1
16.272902 19.404245 20.948017 19 1
2.228520 162.772430 -47.305157 17 1
115.390720 99.870667 14.236683 1 1
2.347724 17.263941 7.127454 0 0
-4.541765 145.003940 -112.655980 22 1
-14.557839 169.988400 80.346214 3 1
0.127415 83.459969 -104.955700 16 1
-5.186088 146.694950 88.782021 3 1
38.140724 150.149190 -64.105598 12 1
9.886349 152.297670 -75.399940 22 1
9.282481 20.988316 34.265995 19 1
-9.656968 23.202467 -5.814401 18 1
113.485240 105.424010 -4.431623 1 1
10.906069 135.879780 -92.256821 16 1
6.836705 80.851540 6.103165 0 0
9.046827 72.681862 9.945458 0 0
21.169411 137.217160 140.667680 4 1
51.775032 81.356949 -14.134410 0 0
4.565876 140.715010 134.187410 4 1
13.138422 83.752029 -69.397942 16 1
16.843109 152.522610 125.115680 4 1
4.552466 40.965309 8.823294 0 0
-28.706579 146.166730 -37.047085 11 1
108.015170 114.429640 -59.857681 20 1
-25.451145 168.562270 87.981987 3 1
25.746403 1.202263 38.437469 19 1
12.799546 65.111938 -3.513642 0 0
0.408703 123.985640 -92.155312 16 1
-8.819256 93.168365 -116.444960 16 1
-4.626634 152.454180 111.135580 4 1
23.742968 14.518713 23.667679 19 1
46.676094 100.169460 103.293370 7 1
-4.326762 129.558330 -98.345436 16 1
10.973598 145.649290 -27.312336 17 1
32.930069 157.898610 -70.698189 12 1
24.099728 162.961640 118.860760 4 1
-15.849508 172.395340 -104.036700 22 1
-28.514702 92.190155 -72.208260 2 1
7.705180 144.749310 133.649460 4 1
96.606827 155.913090 56.644714 6 1
30.749039 159.535320 55.745708 8 1
80.702545 150.238170 60.192505 6 1
-25.383762 93.621689 -59.713341 2 1
32.730282 164.966610 50.334232 8 1
80.394417 92.641098 89.298553 5 1
-3.033226 156.550080 -105.177360 22 1
66.001823 149.444960 64.208595 7 1
-10.107207 163.546520 98.977715 4 1
-3.833096 96.858574 -36.322475 0 0
-23.144611 165.744080 -121.781660 22 1
5.192621 133.098210 141.748750 4 1
56.658092 106.139080 102.489940 7 1
23.661921 159.091570 63.758671 8 1
-47.116352 150.473140 112.369980 3 1
9.102226 152.083450 109.106760 4 1
64.735176 92.533676 103.986180 7 1
27.437075 141.526310 142.595470 4 1
10.780985 125.605980 149.779140 4 1
-26.452829 154.796980 -12.959417 11 1
72.503273 115.046660 78.541573 7 1
-4.844448 123.743970 152.635390 4 1
-30.356070 133.316740 108.475890 3 1
95.961197 107.933100 -14.546556 1 1
74.835114 133.667720 -29.848976 12 1
14.276421 163.711030 -53.997711 12 1
6.824199 165.803440 61.249512 8 1
114.869900 132.760120 32.645672 6 1
-20.606672 162.753110 -113.910090 22 1
109.467960 103.360670 0.995882 1 1
-9.411200 160.002180 73.678452 8 1
-3.237736 123.656340 -14.975041 0 0
15.730830 105.598410 -74.377388 16 1
97.838905 110.139620 -24.228760 1 1
-10.501501 140.733980 -124.062970 22 1
15.355289 158.567050 -62.941463 12 1
11.889659 81.279739 12.800837 0 0
5.654745 158.688480 -72.646729 22 1
106.640310 113.814590 -36.525906 20 1
94.737968 90.264931 91.670250 5 1
-14.769345 100.633320 -25.183947 10 1
19.072609 135.359090 -81.993385 16 1
37.649216 137.748500 95.329674 8 1
13.633694 72.007233 -5.942044 0 0
67.356415 110.749590 -47.369705 21 1
-36.813168 150.805370 -131.041660 22 1
-1.837419 73.001717 -122.622700 16 1
-9.649357 154.169040 4.200882 11 1
106.619670 106.102580 6.729182 1 1
14.189208 142.921570 -46.255711 17 1
113.420570 144.707320 43.900814 6 1
12.763273 84.777107 -77.256920 16 1
105.134050 143.286240 43.344196 6 1
-2.072058 137.117740 135.761370 4 1
6.595777 150.332170 126.249690 4 1
-0.257898 64.391563 -82.370842 16 1
2.884922 16.157291 38.652157 19 1
12.593474 162.113070 -61.458359 22 1
4.958858 71.447632 -81.717239 16 1
13.389137 158.407940 -26.958769 17 1
97.540428 120.900700 -42.338924 20 1
-31.133280 137.987150 -33.205154 11 1
108.305660 91.842140 88.473679 5 1
-8.522944 159.598560 -9.552420 11 1
-5.909874 157.305480 98.855827 4 1
9.157864 155.057860 -65.242058 22 1
-3.570821 19.434364 -1.352418 0 0
55.888268 107.335330 -47.635220 21 1
27.816362 97.354698 -58.092308 9 1
49.506996 155.527150 65.187813 8 1
-21.836597 149.062940 -41.696209 11 1
123.908590 128.821290 60.569397 6 1
58.342941 91.171883 107.639870 7 1
