-38.596199 88.938141 -30.425741 11 1
-39.805553 98.398911 -11.244356 10 1
48.213680 91.576347 -15.273829 2 1
-13.974623 66.287270 44.430492 12 1
5.389183 89.991684 34.666729 9 1
-2.986871 8.071053 1.378566 0 0
-1.308712 57.797329 -0.891871 0 0
37.042629 99.632782 -17.363279 2 1
53.782063 90.221359 -11.431835 2 1
-41.760223 96.002937 -3.418696 10 1
35.553810 91.536621 26.910049 8 1
-21.258722 64.668892 47.203445 12 1
0.932502 63.002548 39.269978 13 1
-1.281908 100.535510 21.100029 9 1
-9.201049 78.348618 24.057467 14 1
-10.689602 96.458923 -26.708054 5 1
-1.923564 12.989357 1.401723 0 0
-3.838946 93.155869 -30.769753 5 1
-34.336609 90.019806 -33.784828 11 1
16.683455 100.039540 13.616907 9 1
-7.514934 79.854454 -11.004408 0 0
39.983440 91.022537 17.100233 8 1
2.540679 73.639793 -52.301567 4 1
-24.548420 95.053436 -10.655264 10 1
23.828424 2.892054 -9.946411 1 1
38.354313 95.114861 14.958538 8 1
-47.158897 92.587425 3.178482 10 1
-45.645432 76.616859 -44.871815 11 1
10.654802 89.761780 33.303921 9 1
-2.379302 50.248760 -13.169515 0 0
-19.266953 75.047478 39.025078 12 1
-19.950521 69.079674 -44.301632 3 1
-28.882818 98.030403 -23.525105 11 1
-30.611944 95.083900 -33.295918 11 1
-3.704789 91.961761 -35.731056 5 1
16.913273 65.659546 -37.448353 6 1
-20.160089 11.349008 -14.161715 7 1
-2.330905 87.570267 -45.242588 5 1
-2.728608 53.448708 -15.402719 0 0
39.747444 78.390671 35.558727 8 1
-7.813262 80.212479 -6.230628 0 0
-18.081213 60.412106 50.320992 12 1
-25.570496 68.007812 44.975624 12 1
4.018064 63.692459 0.867775 0 0
-20.753044 95.572021 -13.760121 10 1
-10.629672 8.685867 -15.005241 7 1
22.784016 11.119018 -1.793854 1 1
-3.968224 94.649200 30.175089 9 1
50.393211 81.879875 24.867216 8 1
-3.048476 57.818058 -16.248798 0 0
-12.215296 93.779236 0.248004 0 0
-2.477113 55.200439 -60.161282 4 1
12.147514 94.677132 25.369404 9 1
-2.501730 32.426933 -2.543380 0 0
-15.011392 96.494034 -20.259596 5 1
-2.727249 89.596458 -31.003174 5 1
7.246495 8.968038 -6.496162 1 1
21.261717 6.763004 -5.611928 1 1
-7.929035 13.872552 -2.956251 7 1
27.829590 102.848010 -2.489686 2 1
-3.008832 72.363365 48.145954 9 1
8.836309 55.969749 41.163567 13 1
-4.406736 47.178043 12.840559 0 0
-38.288609 83.393387 -33.445824 11 1
-19.154858 61.291866 46.652775 12 1
-4.044239 81.567863 -3.363504 0 0
-2.039892 76.245918 -6.967846 0 0
-6.466611 94.846184 -23.204477 5 1
-2.567737 94.421829 -27.780073 5 1
48.111835 86.906418 22.089163 8 1
7.061748 83.204102 -48.269997 5 1
-2.760448 88.601028 34.966671 9 1
0.969772 57.549873 -3.331866 0 0
18.680841 103.379030 11.366800 9 1
-3.038860 64.426537 -3.141583 0 0
16.807608 6.495310 -7.346849 1 1
-19.628347 98.931953 -22.545122 11 1
-17.987062 96.780800 -17.355856 0 0
40.943676 95.505272 -13.894000 2 1
-21.256948 102.248120 -23.849918 11 1
-4.063752 54.290630 19.423662 0 0
32.317242 99.782600 -9.960231 2 1
-11.684135 74.788063 26.709877 14 1
-2.571855 31.792921 1.537410 0 0
0.398317 70.820648 31.721249 13 1
10.774069 87.265175 36.827568 9 1
-28.625397 98.917419 -16.006359 10 1
46.174335 81.136604 23.181370 8 1
-26.898867 98.593437 -1.358486 10 1
40.003124 86.301849 24.412027 8 1
-0.975957 53.268303 -4.555145 0 0
-27.662071 14.901454 -11.272892 7 1
44.594975 91.123924 -21.640425 2 1
20.179649 11.085276 -1.211226 1 1
7.821963 61.581478 34.827133 13 1
11.645122 62.864105 31.615171 13 1
-4.525165 76.764610 31.236696 13 1
-19.442553 55.645184 52.246399 12 1
-19.755720 13.663656 -7.500836 7 1
-20.359119 69.178200 27.609264 14 1
-22.081482 98.892006 -7.133478 10 1
-4.048933 54.806683 -3.084883 0 0
-46.416355 70.548149 -44.844894 11 1
31.203989 101.443520 8.355915 2 1
15.014762 69.989929 -35.451813 6 1
48.159679 73.798988 33.619556 8 1
-17.218601 75.899696 -39.287983 3 1
-2.805714 75.229858 -53.865402 4 1
-15.045113 72.069611 27.495794 14 1
1.953260 87.566887 35.403118 9 1
12.304063 3.119635 -8.881799 1 1
10.274508 78.833420 -30.289549 6 1
16.409798 0.823694 -7.063217 1 1
52.827206 87.894760 15.516294 8 1
-0.025304 77.599274 -51.262135 4 1
39.833664 96.567848 -16.073868 2 1
15.254784 89.058510 4.701878 0 0
0.273887 88.859497 38.139206 9 1
-17.686037 70.034630 26.974840 14 1
12.090873 75.598244 -32.745480 6 1
1.084535 63.495842 41.851376 13 1
4.474071 71.238373 28.935654 13 1
-2.223254 75.000862 -4.262335 0 0
-3.449363 71.147667 34.410049 13 1
-36.150703 99.030640 -10.840120 10 1
-31.188591 96.585632 -22.952961 11 1
-15.512224 58.978256 52.606762 12 1
3.086005 97.609474 21.492579 9 1
-1.968395 34.205906 6.275174 0 0
-18.490835 19.357208 -1.499160 7 1
-20.111565 70.344109 13.660251 14 1
-32.105927 92.228485 -31.389051 11 1
14.176659 85.143303 37.588963 9 1
-24.612091 95.854057 -26.578377 11 1
-5.317230 73.978333 -9.207805 0 0
-45.416248 95.267845 -6.775630 10 1
-18.901974 70.057373 31.637817 14 1
4.689796 82.859688 -43.432289 5 1
-2.213179 97.727104 25.129051 9 1
30.135895 100.688460 0.737130 2 1
40.191956 96.541718 -23.282951 2 1
-5.017765 90.973892 -2.931116 0 0
56.545147 88.317581 15.355227 8 1
18.478592 92.935921 7.370875 0 0
-1.713844 66.705276 40.962997 13 1
29.684790 103.231620 -8.231992 2 1
35.720684 94.410995 22.726307 8 1
55.202854 88.084740 -15.584540 2 1
41.865738 94.513184 -23.625608 2 1
52.687717 87.616386 -30.199694 2 1
14.403349 93.001709 27.709272 9 1
9.028890 6.009986 -11.564519 1 1
43.870861 88.968781 22.995871 8 1
46.280495 75.722466 33.044205 8 1
37.756981 85.105949 31.971287 8 1
9.612609 85.041664 39.750473 9 1
-1.688284 -0.243469 -2.811831 0 0
2.469098 90.008995 -30.988758 5 1
49.187157 92.637634 -10.476073 2 1
-2.768921 85.486832 42.115379 9 1
1.982102 93.646805 -28.535570 5 1
36.775875 95.236351 17.837263 8 1
43.330368 81.538383 29.251478 8 1
-26.330193 63.614746 -42.856617 3 1
-52.833771 92.400063 4.637412 10 1
31.705263 99.483719 6.652328 2 1
-6.765690 73.251099 28.845074 0 0
-2.375205 91.807480 -27.243860 5 1
0.712246 60.599129 43.379963 13 1
-1.004115 83.791878 -40.550694 6 1
-13.261746 68.750435 46.021858 12 1
6.893320 58.948750 37.421722 13 1
-47.690975 77.631981 -37.248894 11 1
-35.645439 88.265678 -41.313358 11 1
48.729019 91.167244 -26.347542 2 1
-2.856118 59.585793 -1.828328 0 0
-10.913701 68.773277 43.661358 12 1
-40.798164 92.743233 0.510629 10 1
-39.045078 90.113564 -25.936852 11 1
-14.011271 81.799782 -35.181675 3 1
-3.422994 7.100841 -12.951730 7 1
9.449714 96.888710 23.146376 9 1
-0.453022 80.952782 -38.579937 6 1
-6.709298 84.222511 -47.898163 4 1
3.837718 77.245140 47.191628 9 1
-7.050840 90.812393 33.425915 9 1
-4.031076 81.601479 -46.217972 4 1
-22.394344 11.044013 -12.980968 7 1
9.461510 76.192932 -33.323227 6 1
-28.554995 100.516560 -22.209429 11 1
-16.359350 63.536720 49.053913 12 1
-10.958461 68.942177 47.242538 12 1
51.247055 72.172150 29.536854 8 1
-5.190796 12.129920 -3.662112 7 1
51.018726 80.110176 22.571672 8 1
46.171844 86.711342 23.665739 8 1
-16.286804 16.383947 -4.939067 7 1
41.677940 93.324654 -20.563160 2 1
-6.874838 61.034725 -61.792038 4 1
-33.949078 91.632568 -25.238699 11 1
-8.826616 92.279373 -2.763341 0 0
0.888711 58.947140 -60.331581 4 1
-17.480928 72.479378 16.150572 14 1
-0.542638 82.304802 -44.643230 4 1
-37.028435 84.063591 -37.860107 11 1
-26.455818 16.356913 -7.051535 7 1
-18.131535 66.840599 43.540871 12 1
-33.243053 98.179672 -13.995287 10 1
-10.202107 16.309004 -1.647038 7 1
2.886031 90.412506 30.850714 9 1
-19.033482 76.243996 -41.085423 3 1
-18.446224 8.888572 -17.449839 7 1
-33.821377 97.329079 -0.128422 10 1
-39.139969 96.104752 0.973195 10 1
-26.392323 61.924522 18.554054 14 1
0.113922 65.085884 37.714966 13 1
-28.637819 97.709366 -31.588974 11 1
-17.560926 79.970779 -38.794182 3 1
-2.833511 81.799484 -7.099790 0 0
-0.068833 32.256321 0.054885 0 0
-46.534641 79.551590 -34.370533 11 1
34.001705 97.977150 2.115795 2 1
0.225655 96.092422 27.205948 9 1
-25.947180 100.656010 -15.863750 10 1
-14.716350 75.802086 17.235022 14 1
6.689597 53.976208 44.903820 13 1
-37.640057 97.125671 -11.435694 10 1
-4.685288 84.403137 -42.574265 4 1
-22.915688 67.581871 -43.665665 3 1
-29.592007 96.776596 -36.178417 11 1
-9.966550 66.651802 47.432594 12 1
25.024086 4.324569 -5.394481 1 1
-21.272612 70.635506 43.353764 12 1
-27.529837 53.050110 -44.823933 3 1
-23.089546 13.137500 -9.686676 7 1
-21.759985 101.567580 -27.529043 11 1
2.405255 81.697868 -45.506657 4 1
-9.746329 82.028854 -10.494343 0 0
1.559477 80.050194 46.249989 9 1
-27.800566 94.744682 -7.606971 10 1
48.045090 89.816231 -24.253323 2 1
9.986844 53.586926 42.487949 13 1
-6.172730 90.333618 -38.572906 5 1
14.734842 66.388672 -39.111500 6 1
2.125963 81.704651 -39.977116 6 1
5.966135 84.645096 -40.152264 5 1
16.439552 86.403831 3.827500 0 0
35.889622 97.709564 -4.281373 2 1
7.571150 63.766968 33.305119 13 1
-3.456579 10.004882 -6.261764 7 1
8.784026 71.811584 2.518128 0 0
4.131024 95.671600 26.499348 9 1
-5.282118 86.117363 -2.225993 0 0
-22.935362 96.920647 -24.290003 11 1
-20.249338 97.322739 -16.516747 10 1
31.609585 99.713669 3.349733 2 1
-23.725468 63.437283 26.799494 14 1
-2.709017 60.359776 -61.137760 4 1
-4.976284 73.202507 37.474567 13 1
-55.533230 93.098450 2.728428 10 1
-14.370942 98.220261 -23.825445 5 1
-11.690050 76.450531 31.404921 14 1
0.639119 41.013176 -1.629764 0 0
-5.416573 75.406090 35.232182 13 1
-7.700867 80.038528 -39.339931 3 1
-15.355288 67.604385 -44.554409 3 1
-2.197715 55.316124 -1.308702 0 0
-10.368655 96.515709 -33.159149 5 1
-1.588203 92.427124 29.195019 9 1
-6.116247 93.099129 30.253902 9 1
37.620468 92.400162 16.518955 8 1
-18.507256 70.869743 19.648987 14 1
10.102746 60.279305 34.507187 13 1
-12.017657 79.084061 -38.977432 3 1
-7.599724 74.484726 -8.064545 0 0
-11.397924 73.630600 29.285255 14 1
9.766529 4.268590 -9.989208 1 1
-4.563728 88.190445 39.197681 9 1
43.300770 95.157928 14.381139 8 1
-7.963867 77.983635 32.605560 12 1
-11.876735 78.088837 35.380131 12 1
-2.372241 47.407288 -0.774645 0 0
17.965475 98.501839 17.709198 9 1
-5.538356 76.013351 46.188766 9 1
10.673885 72.948624 -40.718147 6 1
57.011349 89.792130 13.450311 8 1
4.376996 71.766006 -53.047207 4 1
13.369048 15.973710 0.567624 1 1
-25.656494 69.818069 -39.835114 3 1
50.515213 89.790222 -16.773300 2 1
19.385433 91.562477 26.778507 9 1
16.120487 92.622375 24.987675 9 1
-18.390060 97.866493 -12.905250 10 1
-14.996334 77.557053 35.675529 12 1
-28.553041 99.738533 0.232644 10 1
43.838318 99.185684 12.722837 8 1
-10.260472 96.632935 -35.720142 5 1
0.720928 90.336456 -37.081841 5 1
-2.682353 95.907333 -25.566671 5 1
8.703213 88.845100 -34.759842 5 1
-10.271468 8.904984 -12.017662 7 1
53.609699 74.390869 25.591583 8 1
-34.448673 91.270584 -38.024792 11 1
-18.920181 100.165280 -20.298100 11 1
15.173709 104.144760 11.881094 9 1
21.326815 4.602097 -7.975075 1 1
35.454426 101.406490 -18.217051 2 1
-6.357618 92.975464 -39.435398 5 1
-18.356201 69.889931 -42.162453 3 1
-0.215353 60.655464 -2.829714 0 0
6.781909 92.190125 30.915077 9 1
-44.600300 96.135117 -4.597991 10 1
-25.415329 59.693974 -44.160992 3 1
36.999561 100.741830 -21.684189 2 1
11.217529 9.694695 -5.284620 1 1
-3.315877 68.619850 -24.414890 0 0
6.440044 75.644325 -51.751740 4 1
-35.585724 91.672150 -27.921360 11 1
-9.777942 75.806969 -54.535984 4 1
-5.526467 77.544884 -51.178185 4 1
-1.681189 80.414268 -49.197563 4 1
-5.552737 88.309967 35.726807 9 1
35.763561 90.588554 29.431173 8 1
-21.929783 65.842865 33.070736 14 1
52.816345 86.449646 19.031349 8 1
3.680414 90.005096 -35.090866 5 1
5.316028 83.129242 -53.290131 5 1
-5.949645 91.003952 35.588089 9 1
21.663095 14.854546 0.829437 1 1
44.844181 71.790848 35.125031 8 1
-13.714151 11.083212 -11.674434 7 1
48.918060 91.000420 -20.636066 2 1
-6.822366 70.205208 47.239712 12 1
3.705928 6.381050 -12.836559 1 1
-6.229616 95.090302 -26.565262 5 1
-2.834262 3.639590 -0.493225 0 0
33.094845 104.137220 -18.927883 2 1
28.849123 100.636590 3.189636 2 1
-22.561975 65.345200 22.175480 14 1
-37.676239 94.173203 -25.026897 11 1
-24.529091 63.691074 17.922279 14 1
-5.920259 82.304283 42.477867 9 1
34.339668 97.934357 -11.727695 2 1
-9.251490 83.828453 -42.619900 3 1
34.831478 99.408478 6.266968 2 1
0.842828 5.980421 0.261715 0 0
6.735952 97.661949 19.897617 9 1
-28.092468 91.984619 -27.598486 11 1
-3.144791 39.417564 7.614767 0 0
11.818122 7.142581 -7.691439 1 1
-4.918642 81.174438 -49.892296 4 1
-8.630130 94.753883 -32.838871 5 1
-8.640478 70.472893 -58.811890 4 1
9.802620 75.320045 1.021839 0 0
-2.039080 68.175560 36.767227 13 1
7.519295 70.978569 0.165520 0 0
19.124235 90.852165 6.310406 0 0
16.373009 2.479821 -12.212047 1 1
-7.121252 8.952610 -12.073797 7 1
-25.370567 13.300368 -10.684084 7 1
11.751419 93.495964 27.436880 9 1
6.851948 82.291222 -31.127188 6 1
-15.398325 69.746773 -46.091179 3 1
-11.368784 76.077141 -56.610809 4 1
52.229694 78.632675 26.510952 8 1
-11.837086 64.549141 48.691631 12 1
6.347705 79.851067 45.127831 9 1
-16.149956 96.043861 -15.914555 0 0
42.038353 97.219742 -29.909473 2 1
-20.015350 73.618210 -41.857086 3 1
34.052147 98.303215 24.996414 8 1
24.712088 97.652489 8.670076 0 0
39.639164 81.092323 32.187016 8 1
-30.562748 101.868750 -21.456905 11 1
55.402714 86.076035 -33.153683 2 1
18.541931 87.977814 32.760761 9 1
-32.788231 95.971947 -11.124495 10 1
-37.127495 94.176399 -6.533301 10 1
-5.993183 84.146942 -8.024661 0 0
14.044339 87.478165 33.958408 9 1
-7.207664 81.792664 -42.967865 3 1
8.520685 86.079323 -37.930019 5 1
8.867148 5.120101 -7.872705 1 1
-32.186752 95.577171 -0.691252 10 1
27.843485 101.074170 -0.487130 2 1
-24.572844 97.687668 -22.636543 11 1
-19.934929 72.131401 16.392691 14 1
-30.300993 91.928093 -34.511669 11 1
-48.774208 93.217339 -1.955060 10 1
-47.162579 72.986847 -44.867867 11 1
-3.000318 14.287431 -0.313341 0 0
11.521931 83.575745 41.147415 9 1
44.512337 80.540108 26.731760 8 1
19.033342 86.839516 35.048744 9 1
-49.602673 70.388245 -42.058159 11 1
8.038237 89.955597 30.339378 9 1
44.292500 94.269218 -29.696436 2 1
23.480988 8.790158 -2.614632 1 1
6.459593 88.621513 -33.164364 5 1
-16.407093 9.970263 -15.054815 7 1
-16.513021 76.683960 -42.174805 3 1
8.683212 77.863846 -31.794794 6 1
-22.733629 56.436886 -46.515930 3 1
-4.880004 89.291122 -40.410656 5 1
-1.761788 72.656082 -4.026454 0 0
9.123531 74.849266 -40.922092 6 1
-0.531352 74.681732 29.289064 13 1
-4.371397 73.442207 -55.542633 4 1
-8.451126 85.545776 -38.693672 6 1
6.060790 65.565598 34.226410 13 1
-28.142769 96.164352 -34.304359 11 1
12.409270 10.205369 -1.321386 1 1
22.517492 97.312378 19.163864 9 1
-18.319529 72.103256 24.009188 14 1
-7.468966 67.596458 -59.631130 4 1
-25.829523 97.318855 -30.908449 11 1
-9.472370 89.559036 -4.109526 0 0
8.098089 92.865051 26.008282 9 1
32.448746 100.382770 21.001266 8 1
-40.100933 97.616440 -8.056036 10 1
-2.774328 0.723462 -0.636864 0 0
-24.422089 63.186115 22.438580 14 1
-19.596050 55.526661 -47.110851 3 1
-18.001965 99.496452 -15.402786 10 1
-24.731945 96.706726 -14.541186 10 1
-14.038211 90.101852 -14.755436 0 0
0.075908 69.155319 35.920742 13 1
-31.331577 94.401428 -23.933746 11 1
-8.235518 68.769188 45.812092 12 1
-16.033897 71.681839 33.977474 14 1
-27.064421 61.354492 -43.271523 3 1
14.536140 94.604805 25.151062 9 1
-9.536887 77.642052 -44.744324 3 1
33.970387 99.595490 -7.611032 2 1
23.711760 93.199265 25.218098 9 1
31.345123 101.723570 -6.987489 2 1
-14.616127 94.666389 -18.000078 0 0
13.319836 95.426231 20.871222 9 1
53.254707 78.924736 22.797937 8 1
55.463913 84.875908 16.469587 8 1
8.718264 88.996239 35.024143 9 1
19.161484 94.874947 6.114076 0 0
-26.380583 98.884323 -12.422493 10 1
-35.974354 97.555367 4.336501 10 1
2.785049 93.694084 30.064856 9 1
-7.955548 91.939499 -0.477027 0 0
5.303356 95.339073 23.312906 9 1
-1.352371 38.362389 -4.843678 0 0
-0.013493 61.668304 -59.944351 4 1
-0.121516 34.367119 -2.504211 0 0
-3.293167 70.027580 38.768879 13 1
-26.962492 96.737167 -22.957645 11 1
4.650676 94.353523 28.401447 9 1
4.643521 65.005310 -1.009550 0 0
52.704536 88.855705 -19.986729 2 1
-0.830756 71.935448 -55.323616 4 1
-39.256348 96.275879 -9.924465 10 1
40.337345 94.373421 -10.322661 2 1
4.472891 64.093582 37.318638 13 1
1.001002 84.027718 -35.466705 6 1
-8.454359 77.330551 -11.237865 0 0
4.067793 80.845413 -34.320442 6 1
47.253784 97.789459 12.424286 8 1
-9.916819 72.898369 41.437847 12 1
-20.977787 16.860727 -6.939387 7 1
-28.205664 60.605236 21.041271 14 1
-44.848892 79.658981 -47.329216 11 1
-39.368382 84.879173 -38.908432 11 1
-36.209835 90.264969 -30.027557 11 1
1.993975 86.555641 -48.675079 5 1
39.528107 99.353233 12.932508 8 1
37.252106 88.698410 26.110523 8 1
12.184474 83.490135 3.400836 0 0
7.193274 82.296181 -45.270527 5 1
20.679602 -0.773115 -8.560909 1 1
-1.278758 -0.573802 2.448000 0 0
-8.568294 82.108910 -36.833149 3 1
-1.162193 50.915665 -5.033082 0 0
-34.781944 96.814682 -22.830441 11 1
42.341381 91.097717 16.795668 8 1
-19.408623 59.278568 -47.083664 3 1
-3.113647 23.466227 -1.042524 0 0
-33.900265 86.864510 -30.557880 11 1
4.380963 101.414010 19.078337 9 1
-21.659334 69.141808 22.113688 14 1
-11.288659 79.500504 -53.411690 4 1
-37.617100 92.044678 -26.442190 11 1
8.987509 14.391187 -0.937118 1 1
-50.987297 94.961899 -1.825460 10 1
-1.049196 97.728218 23.052355 9 1
-2.882747 96.993881 -23.458166 5 1
-25.064547 11.581378 -12.485768 7 1
-2.871547 42.525242 -0.996447 0 0
-10.173447 78.740761 42.901299 9 1
-40.847595 80.551521 -40.759506 11 1
-9.317702 72.560349 -56.636536 4 1
35.231094 97.934090 -14.165067 2 1
12.251021 68.788811 -42.381508 6 1
-30.742060 90.523682 -26.332880 11 1
-28.232229 96.408966 -3.268724 10 1
7.588268 74.753754 2.103912 0 0
-8.396566 71.930458 43.818737 12 1
49.351303 78.966446 23.905203 8 1
0.647152 62.164467 -1.202222 0 0
-15.647573 14.032358 -7.898751 7 1
-32.625988 98.455345 -23.164942 11 1
12.042729 97.358849 18.443573 9 1
6.730837 11.243420 -0.642774 1 1
-12.327804 73.218315 -46.121269 3 1
7.676846 76.911545 -35.358662 6 1
-48.838661 79.126167 -34.484344 11 1
-15.318239 68.590401 44.896461 12 1
-42.932354 87.143021 -27.787500 11 1
0.211178 28.045343 0.560800 0 0
32.938259 97.668907 -0.668660 2 1
31.710510 99.919518 -1.895326 2 1
9.104778 58.489643 38.284454 13 1
-17.080118 72.827148 -43.867737 3 1
-4.868376 9.439982 -10.033031 7 1
36.650337 98.279434 -11.905643 2 1
-10.733702 84.125786 -13.881420 0 0
57.036121 87.149933 -19.821068 2 1
3.788462 91.253273 33.346008 9 1
-10.081429 14.202541 -4.383010 7 1
3.231911 63.040600 -57.176052 4 1
-5.590953 84.057884 40.748470 9 1
6.656616 85.556610 37.393421 9 1
-30.523458 97.837547 -3.580254 10 1
-19.862854 63.982780 -45.756916 3 1
-2.227065 83.185295 43.703682 9 1
-25.590761 99.687408 -28.096600 11 1
-5.735172 92.961418 -36.317585 5 1
-15.892462 63.169235 -47.638199 3 1
-10.276595 82.734489 -50.269863 4 1
-15.272841 78.588913 -41.503464 3 1
57.596901 86.031723 -26.844481 2 1
-12.567493 73.472878 39.808868 12 1
-3.020179 85.423004 -44.626549 5 1
-1.148098 36.032253 0.242412 0 0
-12.090702 95.192726 -25.338520 5 1
-8.265342 79.540916 -50.831657 4 1
51.525215 88.536606 -22.966333 2 1
49.063992 89.666489 -31.654924 2 1
5.417595 88.601166 -37.463753 5 1
3.197185 64.148750 35.013786 13 1
58.219105 85.394241 -30.148859 2 1
18.165634 95.766296 22.515085 9 1
-16.410101 11.196046 -9.875275 7 1
6.833509 85.505882 -43.713512 5 1
-10.580000 63.147953 53.015785 12 1
5.595468 67.013000 31.826550 13 1
52.178455 92.348541 -8.578819 2 1
-0.377420 45.670406 -0.702957 0 0
40.646023 82.457199 28.058403 8 1
-3.795596 44.505215 11.094116 0 0
-1.510367 41.916187 -7.316505 0 0
-9.694460 93.957138 -36.746445 5 1
-1.393807 30.746346 -3.784788 0 0
-26.409731 94.028862 -25.039625 11 1
-3.552017 60.457680 -5.916803 0 0
22.458401 91.779266 28.738289 9 1
-23.291088 99.340576 -5.048480 10 1
-3.327339 36.109886 6.485404 0 0
24.542551 94.292595 23.059792 9 1
-13.628325 96.639313 -26.693779 5 1
38.158291 99.243179 -20.232515 2 1
-33.948612 97.142342 -4.874371 10 1
4.132599 75.612869 -51.311001 4 1
-12.980761 90.980721 -3.736801 0 0
-21.620321 67.866371 16.379555 14 1
-3.430497 91.307625 35.018791 9 1
-30.937586 99.840828 -13.095032 10 1
0.463496 86.197327 -31.627472 6 1
11.979023 99.620026 15.860540 9 1
-37.860535 87.532845 -40.842087 11 1
0.423845 8.247174 -0.996413 0 0
-6.652099 11.205229 -7.050313 7 1
54.623444 87.768059 -25.049606 2 1
-6.489120 67.188942 24.624329 0 0
-11.913747 89.555931 -13.989687 0 0
18.932890 65.348038 -33.270130 6 1
-4.982487 70.034073 -57.690704 4 1
-9.958656 11.404557 -8.971813 7 1
30.659374 99.992165 17.353590 8 1
8.332377 94.312660 23.927731 9 1
2.189742 64.941536 38.715412 13 1
-40.147327 84.987213 -29.661751 11 1
-23.839838 64.292915 45.536781 12 1
-28.063972 58.376301 24.112104 14 1
20.031631 98.370697 13.780735 9 1
-3.055134 28.351065 -1.457022 0 0
17.758665 90.797050 28.247559 9 1
21.152664 93.111130 23.996365 9 1
10.647565 92.930542 25.244675 9 1
-45.082767 95.380119 6.042871 10 1
1.802480 100.429750 21.061403 9 1
-48.124313 96.096870 -4.738708 10 1
18.918736 4.367955 -4.071983 1 1
-11.887034 13.343250 -6.978496 7 1
15.480360 7.949462 -6.060841 1 1
-3.858616 85.458946 39.253624 9 1
-4.631600 54.033844 17.208933 0 0
-4.799693 60.688637 23.003931 0 0
-5.518322 91.347305 31.797398 9 1
-7.418673 76.796692 28.059128 14 1
-0.769434 47.231182 -9.599958 0 0
4.307969 84.506165 39.208138 9 1
-15.942587 73.991249 24.093706 14 1
30.249914 98.331612 1.701371 2 1
-17.959911 10.112974 -12.905265 7 1
13.874325 0.361621 -13.038531 1 1
-23.237354 60.967525 -44.493004 3 1
8.318403 86.737900 35.568024 9 1
-32.400635 94.701767 -26.115961 11 1
-7.835859 91.690285 -34.737240 5 1
9.380780 97.568787 18.965378 9 1
25.292294 4.922663 -7.614857 1 1
-23.638866 102.304650 -29.632389 11 1
18.172228 101.132100 12.086176 9 1
-5.965236 63.216843 24.412903 0 0
-1.016511 71.464729 34.357624 13 1
29.856880 99.454018 -3.163224 2 1
-17.295809 96.634087 -20.403507 0 0
-22.114336 100.158120 -17.765898 10 1
39.706707 87.507790 22.324497 8 1
-8.466883 93.467041 -23.855709 5 1
-18.887783 71.791817 -40.999969 3 1
-17.717253 73.333160 20.366943 14 1
0.573755 80.643280 -48.867336 4 1
-12.345752 15.353422 -1.137097 7 1
-24.442848 10.666571 -16.517057 7 1
19.647118 8.691901 -4.325586 1 1
-0.139778 14.275253 -0.006261 0 0
-11.148121 73.786156 -57.399170 4 1
11.107344 76.311562 2.625922 0 0
-25.761166 100.282070 -31.872482 11 1
-13.199295 76.447121 -40.471729 3 1
8.289849 7.770683 -8.391566 1 1
10.451306 3.915704 -14.616683 1 1
16.726040 89.629921 6.355836 0 0
38.300999 88.479851 29.402132 8 1
20.242020 97.855515 18.231499 9 1
-50.985939 93.998489 2.957569 10 1
-33.079861 88.036713 -35.717545 11 1
40.385334 91.932068 20.587332 8 1
-41.514774 94.692238 -7.185075 10 1
-44.115837 92.518898 -1.012509 10 1
-5.014925 77.914543 35.603638 12 1
39.450115 94.419960 -16.738560 2 1
-7.761343 75.941963 45.183449 9 1
5.449074 70.343750 1.028832 0 0
-40.362991 84.594147 -36.876572 11 1
-30.550392 96.176895 -25.131165 11 1
-17.678278 70.104454 33.984726 14 1
-42.511200 82.167366 -43.384621 11 1
-23.457161 52.897198 -46.558331 3 1
9.452519 64.680206 32.405586 13 1
46.853436 92.360916 15.002522 8 1
3.407371 62.848083 -1.604719 0 0
49.928493 85.596657 22.491199 8 1
-22.280863 76.918770 -36.860088 3 1
-47.944653 76.650925 -40.999161 11 1
44.164738 84.004295 27.777224 8 1
-41.927811 93.928627 4.682178 10 1
-0.164792 47.015076 -3.629241 0 0
-2.744882 44.035168 -4.433746 0 0
44.418003 92.377701 -25.882557 2 1
25.901232 100.096380 14.622185 9 1
39.665970 99.578049 4.598022 2 1
48.397560 82.572716 21.013220 8 1
31.556267 103.566840 -11.133676 2 1
-43.192242 82.112869 -38.218056 11 1
50.642864 90.068077 -29.069279 2 1
-6.765942 79.214844 -7.981490 0 0
10.870360 13.430948 -1.879969 1 1
22.173311 100.397720 12.845178 9 1
-54.563690 93.831421 0.573754 10 1
-0.948345 89.577553 -41.901619 5 1
22.586851 2.778679 -6.108100 1 1
36.076946 90.248749 32.472870 8 1
-39.449516 83.716591 -43.549915 11 1
-2.743144 67.417725 -56.814922 4 1
51.970280 91.177185 -13.086204 2 1
-32.246693 95.422668 -38.848454 11 1
-6.214796 84.125320 -45.597046 4 1
-15.526909 71.133011 30.076416 14 1
40.564159 86.502731 28.630138 8 1
-17.112923 67.306908 45.538616 12 1
-0.690394 4.158942 -1.001108 0 0
-13.022672 68.965126 -47.295773 3 1
-6.637467 90.705788 -29.435604 5 1
-19.697950 68.151558 25.695732 14 1
-27.512733 12.214783 -13.999332 7 1
33.834858 98.467377 14.333035 8 1
-3.140926 40.342388 -1.606191 0 0
-1.328471 68.630096 -5.541308 0 0
6.861779 80.768929 -56.404373 5 1
-22.112667 67.353218 45.682709 12 1
13.909822 99.764404 17.393751 9 1
8.853204 88.643257 32.352535 9 1
-3.887614 67.356461 41.543819 13 1
40.413788 97.007950 -19.735905 2 1
9.332468 9.831236 -0.940003 1 1
-6.320177 69.427528 27.424206 0 0
-22.473629 64.952507 30.535725 14 1
7.638574 68.880150 30.064335 13 1
8.955819 8.023867 -2.943987 1 1
-1.005331 18.285568 -2.508448 0 0
-4.998651 70.121445 -6.215643 0 0
36.627224 100.551480 -25.097406 2 1
-5.138610 11.188087 -0.666360 0 0
-9.731236 77.161469 35.663471 12 1
0.296221 42.675743 -3.217602 0 0
34.151772 95.091667 14.751060 8 1
-1.569104 89.680321 37.137455 9 1
-12.835056 9.081378 -15.235222 7 1
-21.474594 100.294240 -22.334116 11 1
-21.753736 59.802090 47.112679 12 1
9.818394 101.284900 17.151712 9 1
-10.795748 94.449760 -32.304096 5 1
-11.600917 70.023026 41.439060 12 1
7.525616 83.844803 39.452339 9 1
-22.796385 18.010115 -2.306991 7 1
15.939374 10.870550 -0.973334 1 1
7.131232 4.859722 -12.518210 1 1
-33.434830 93.675468 -24.255495 11 1
23.942001 98.515938 11.114787 9 1
-41.012203 83.121078 -40.862835 11 1
-0.889476 86.259773 38.077499 9 1
41.722656 77.145821 34.100685 8 1
-24.480455 96.958946 -6.822858 10 1
-19.917650 68.447746 42.829540 12 1
-7.231887 6.730463 -15.039490 7 1
-22.296833 65.806618 19.836149 14 1
49.689762 75.908440 30.641163 8 1
-5.843170 78.929161 -31.850933 0 0
-1.366094 85.377365 -35.751541 6 1
-12.338588 74.760414 33.287750 14 1
-40.033211 83.199829 -32.023727 11 1
0.322695 85.549850 -47.543503 5 1
50.593872 91.790611 14.851900 8 1
-25.625298 61.463314 25.320013 14 1
-21.209801 13.097466 -11.729301 7 1
13.083574 57.022133 36.103104 13 1
4.307350 78.815392 -37.498638 6 1
11.033578 98.593689 20.120485 9 1
-1.497784 88.576469 -33.244942 5 1
-16.163254 59.017826 50.375786 12 1
34.686584 101.014620 -21.279510 2 1
12.579678 79.800369 3.729451 0 0
31.638542 98.452179 -5.120526 2 1
-2.744548 18.817352 0.005451 0 0
-17.226465 62.402218 46.365311 12 1
1.719907 84.779701 42.348244 9 1
-2.103698 81.770531 -40.424866 6 1
49.787254 90.534805 -22.701481 2 1
-11.806720 81.019806 -42.507900 3 1
7.424913 80.685867 -28.919567 6 1
45.876904 89.622223 16.777590 8 1
-13.598239 66.692673 48.229557 12 1
-3.049052 76.325203 45.876831 9 1
-13.776841 7.806402 -17.651606 7 1
14.614982 93.590637 23.167147 9 1
-4.023786 67.001381 -3.708427 0 0
-19.901760 69.237335 18.509586 14 1
-21.564402 54.745354 51.513203 12 1
-49.093929 93.444954 6.051462 10 1
-12.837777 72.815758 31.723230 14 1
15.529243 90.745033 30.686192 9 1
-2.594929 85.710960 -42.431385 6 1
43.010422 94.295021 -18.814390 2 1
-15.235601 19.306664 0.717805 7 1
29.760561 100.454290 12.773813 8 1
15.187466 5.291288 -9.034842 1 1
52.420597 83.183998 19.435760 8 1
-2.290989 82.857841 -3.817657 0 0
40.811234 97.148758 1.183663 2 1
-8.882250 73.429604 38.611137 12 1
-22.921099 101.843990 -25.613768 11 1
-37.181854 97.332932 -7.430649 10 1
-5.779881 7.874280 -13.477213 7 1
-26.240763 99.214531 -4.719299 10 1
0.010256 20.906502 -0.116740 0 0
-7.606715 63.402985 -61.202850 4 1
17.055754 13.864878 -0.571194 1 1
-23.091125 17.115278 -7.563749 7 1
6.491144 67.647934 1.881676 0 0
6.522024 72.303856 -53.209656 4 1
-5.036819 68.321548 -8.051227 0 0
-46.713455 94.985878 4.364142 10 1
39.689819 89.950348 25.086433 8 1
-40.392094 87.110718 -34.306789 11 1
0.797883 65.726212 -56.734871 4 1
-0.810225 83.444801 -42.729862 6 1
5.254589 11.940000 -2.296237 1 1
-11.277132 18.379517 1.741675 7 1
-4.425768 58.785835 -3.507851 0 0
51.544250 88.343346 -33.215137 2 1
33.594181 96.959290 -4.213677 2 1
5.981539 81.050552 -52.380966 5 1
-44.162388 98.004242 -9.473373 10 1
-22.672646 99.527489 -27.043951 11 1
-40.845875 96.166840 6.026076 10 1
-46.436230 94.972328 -0.037605 10 1
-5.051808 74.625366 -53.227459 4 1
37.765495 96.936363 -10.550953 2 1
-46.172127 97.366623 -8.291002 10 1
-7.379146 87.702034 -2.159753 0 0
40.574467 84.863647 30.226032 8 1
-4.500101 58.905178 19.675919 0 0
-7.493163 77.556274 34.748520 12 1
0.662915 90.027573 36.305618 9 1
0.037423 49.192886 -3.324498 0 0
-26.594894 54.901066 -45.582836 3 1
4.307607 83.069412 -29.905764 6 1
-37.314545 85.971077 -29.484520 11 1
13.850193 83.674049 39.403587 9 1
-2.743280 56.143330 -5.145485 0 0
-16.394547 71.378937 40.238728 12 1
5.656477 92.629333 26.979631 9 1
-24.345221 62.899345 28.983227 14 1
4.278637 85.349503 -46.973595 5 1
37.634121 87.301254 32.133381 8 1
-28.078365 95.678848 -12.021966 10 1
12.561597 91.448128 27.184906 9 1
-2.231386 29.786602 2.383719 0 0
-19.716988 67.813377 31.387230 14 1
-45.361053 78.427132 -37.609043 11 1
-15.452955 18.000849 -1.957046 7 1
36.762600 96.052895 -14.182110 2 1
-13.650539 14.494354 -3.412007 7 1
46.847809 77.959000 26.878868 8 1
-3.210813 49.672386 -11.214750 0 0
-3.627675 49.003956 16.334337 0 0
-9.106078 97.234734 -20.510315 5 1
-18.022903 57.736034 49.729424 12 1
-6.404173 78.258606 -53.105167 4 1
-6.313125 70.408592 -8.813850 0 0
37.265430 92.658875 23.548723 8 1
-22.299191 66.749306 28.862528 14 1
-13.085286 67.983368 43.007629 12 1
-3.009516 73.594170 31.325291 13 1
-12.846571 71.415367 -43.591343 3 1
5.492918 57.678642 39.693222 13 1
16.131500 68.814041 -31.226620 6 1
11.701956 96.875748 22.362438 9 1
48.839111 71.739265 34.900856 8 1
17.998384 93.134300 23.970320 9 1
15.035220 96.688560 21.405073 9 1
-43.742092 84.798698 -34.950935 11 1
3.801621 61.210175 41.627693 13 1
-10.340251 77.513710 -53.007698 4 1
-41.928837 93.294708 -3.928684 10 1
49.740162 94.848900 12.921256 8 1
12.067559 88.650223 34.560898 9 1
-4.645242 63.139599 -3.897791 0 0
47.584354 81.039879 27.585629 8 1
-18.521168 100.119250 -11.977769 10 1
-36.628582 94.764923 1.909302 10 1
-11.613987 94.875969 -30.296074 5 1
45.585415 87.570129 18.026150 8 1
-8.027840 76.605583 -8.428131 0 0
-11.000296 70.465714 -45.709568 3 1
-34.955616 97.338287 2.097236 10 1
49.891914 65.923782 37.267128 8 1
4.899218 88.145905 37.524975 9 1
-24.998201 16.900669 -8.616832 7 1
-22.240978 65.082893 26.685726 14 1
-9.239461 84.125351 40.610443 9 1
-15.662886 73.299324 29.193905 14 1
-30.835100 94.923058 -10.251101 10 1
-8.085989 78.744537 -41.169689 3 1
-33.354332 91.960785 -36.254280 11 1
-16.950327 81.944221 -36.115028 3 1
-1.464195 43.833153 -8.361452 0 0
-1.902296 96.546631 27.020712 9 1
13.934490 10.888104 -3.634551 1 1
-2.507895 46.398300 -7.933224 0 0
-19.343452 77.843765 -39.416149 3 1
36.470951 100.911290 12.013670 8 1
-1.556660 83.216194 41.420670 9 1
13.614312 72.445763 -34.748623 6 1
-3.855841 85.202141 -38.227951 6 1
-3.484703 48.247650 -4.170025 0 0
-31.582232 98.454742 3.445614 10 1
-4.840539 91.795235 -42.125122 5 1
49.418140 72.559685 30.919477 8 1
-29.107086 99.548187 -33.334724 11 1
-44.279915 82.995705 -30.853609 11 1
36.968079 97.102921 -0.809599 2 1
47.427597 65.636749 38.340351 8 1
46.709053 71.507942 34.009090 8 1
13.093005 7.683084 -1.982328 1 1
-8.616935 82.171700 41.932911 9 1
-3.254477 41.802719 -5.445121 0 0
-4.997381 74.915169 -30.803223 0 0
-18.206161 78.031265 37.616394 12 1
-22.401186 65.447418 -43.025341 3 1
-23.778194 67.438133 19.361382 14 1
-20.035807 12.302847 -9.577937 7 1
-25.684175 101.544820 -29.212269 11 1
3.376531 81.297852 -38.225296 6 1
-0.858077 11.906528 -1.391770 0 0
-8.268619 91.450546 -6.711033 0 0
25.842400 103.864350 2.292271 2 1
22.003862 89.184982 32.530785 9 1
-17.098568 73.771446 -40.604012 3 1
0.077828 -2.347365 -0.304654 0 0
14.966928 96.192329 19.167292 9 1
-31.452848 88.845207 -31.877493 11 1
-34.942127 88.358971 -27.201925 11 1
-3.234830 35.306549 -1.101691 0 0
-6.413702 77.141617 30.246271 0 0
-25.980442 102.566170 -20.188822 11 1
3.068269 82.750511 -32.485619 6 1
-10.358627 74.344963 -46.393658 3 1
0.579191 85.572556 -38.409328 5 1
8.974685 93.388771 28.372538 9 1
49.312836 67.749138 34.792805 8 1
10.871943 90.643425 28.702789 9 1
-1.389863 86.094528 -40.150116 5 1
15.507053 101.601660 14.550625 9 1
-20.265327 71.372940 18.399883 14 1
10.288292 79.626190 -54.675209 5 1
24.188822 99.635849 7.609021 0 0
15.209078 4.817173 -3.951913 1 1
-5.950052 97.555023 -23.215837 5 1
8.293350 81.414436 -48.381603 5 1
10.739187 75.077347 -37.233425 6 1
-19.898718 66.798256 -43.188526 3 1
10.304426 82.240768 -48.378036 5 1
-10.167517 65.048904 51.440750 12 1
-14.203456 71.500397 41.766937 12 1
33.776115 100.756290 -11.222731 2 1
-29.587143 56.566544 21.346165 14 1
47.120461 95.158211 -1.846310 2 1
11.768822 61.662121 33.405224 13 1
-7.935362 71.946693 41.666508 12 1
-17.536844 69.252693 42.129879 12 1
6.385234 85.609627 -37.860504 5 1
18.893560 -1.769549 -9.788489 1 1
-29.483650 58.969215 17.690968 14 1
-34.149090 93.687729 -4.190041 10 1
6.430435 81.450661 -47.183735 5 1
-10.585283 11.722572 -5.360902 7 1
7.760550 101.359870 17.789970 9 1
13.351789 -1.020390 -10.240825 1 1
6.190934 6.263678 -8.127726 1 1
-19.726683 99.512596 -8.946897 10 1
-2.933353 82.694862 -36.968552 6 1
43.706478 70.543610 36.773727 8 1
-29.359365 95.718132 -31.080671 11 1
-5.461601 80.876434 -39.511444 3 1
-13.148096 60.181610 53.621944 12 1
-15.531621 71.724274 -45.247536 3 1
-9.460224 12.356369 -3.467819 7 1
43.762314 94.188789 -13.300469 2 1
39.980164 93.787460 15.695396 8 1
12.063342 85.359772 37.203648 9 1
-23.775858 98.110031 -16.648252 10 1
-50.300419 92.588982 4.451428 10 1
43.750950 96.660057 -0.942501 2 1
-4.554011 88.678604 -35.398136 5 1
-21.645243 74.352669 -38.560440 3 1
-2.632090 64.034172 -21.180450 0 0
-9.505532 93.046021 -30.743690 5 1
-43.453945 95.373146 -7.813041 10 1
-4.892616 93.910370 -24.379549 5 1
0.497999 54.694748 -2.961818 0 0
-23.992407 11.919486 -14.318185 7 1
7.046344 78.990898 -32.607754 6 1
31.925993 102.687170 -14.618263 2 1
-4.087625 82.459465 -48.184853 4 1
-20.780107 9.525598 -15.484753 7 1
-22.174654 69.832184 15.678701 14 1
-45.933342 81.413559 -36.825409 11 1
-14.859621 73.072304 -41.799339 3 1
-2.963238 71.740952 -55.969284 4 1
1.633635 65.721634 34.836723 13 1
-20.247700 66.412987 43.938644 12 1
-0.969870 33.003094 3.129627 0 0
-2.931880 55.866756 -17.175953 0 0
-9.706259 6.925766 -15.809024 7 1
-29.135160 60.522110 -43.046356 3 1
2.816013 93.417885 26.635000 9 1
6.343535 90.319862 -31.837778 5 1
12.415716 2.857884 -14.493843 1 1
-11.044402 94.587318 -21.688786 5 1
-26.001020 97.731636 -24.621908 11 1
18.705692 -0.884901 -12.171915 1 1
-9.712950 75.689957 31.701342 14 1
8.542845 84.736061 -40.688942 5 1
-18.013575 14.532234 -8.416357 7 1
7.330842 76.139801 -38.501030 6 1
-5.966561 73.532082 26.882433 0 0
-4.844666 10.430501 -8.027748 7 1
49.821430 94.209717 -7.180112 2 1
50.801113 89.907547 -18.933430 2 1
-29.612730 97.945297 -5.714799 10 1
-6.809846 80.306305 -49.412384 4 1
20.079620 62.651527 -32.752167 6 1
0.277564 37.294098 -2.649564 0 0
-8.209101 78.201675 43.539639 9 1
-33.747459 90.974548 -31.926783 11 1
37.035995 90.725456 20.914879 8 1
-2.005177 34.200474 -3.620690 0 0
41.072788 82.696655 30.694662 8 1
53.014080 82.954453 22.300655 8 1
2.694322 69.275986 31.584763 13 1
46.820892 92.414894 -26.898975 2 1
42.231461 88.175003 25.305319 8 1
-11.047925 71.221107 43.626724 12 1
-51.100746 74.079750 -39.601364 11 1
38.447014 95.822479 -18.288574 2 1
-0.313465 4.377073 1.821469 0 0
-6.363188 90.716721 -1.244037 0 0
0.763306 96.243309 -25.833162 5 1
-23.558773 66.767380 23.440361 14 1
18.278603 100.190410 15.169218 9 1
-21.991169 62.754871 48.094326 12 1
-5.666708 76.140999 38.975445 12 1
-8.089011 82.368881 -48.596237 4 1
-4.337080 75.657730 33.289406 13 1
24.234297 98.890068 13.869830 9 1
-23.129961 71.853256 -39.472408 3 1
-1.125005 84.283150 -38.314945 6 1
-4.285365 70.531281 -27.971027 0 0
54.305080 81.105057 20.421795 8 1
2.681543 11.570732 -0.309500 1 1
-13.897955 65.551941 -47.889362 3 1
-12.555227 97.846519 -22.758549 5 1
15.072398 88.810532 31.696911 9 1
-26.165205 66.676750 -41.617592 3 1
-2.135556 77.987267 -49.642300 4 1
27.622826 100.140670 7.330337 2 1
-1.921674 94.278580 30.777653 9 1
-29.164558 91.212746 -30.347139 11 1
42.339279 74.524376 35.952930 8 1
2.246756 83.899002 -48.831776 5 1
-42.305599 97.947304 -8.292452 10 1
7.585746 88.429016 -36.621613 5 1
-4.322994 9.284165 0.215645 0 0
16.648113 96.842690 17.615356 9 1
7.172352 83.264809 42.243462 9 1
2.318259 101.265140 18.399548 9 1
-0.333543 92.521164 -27.216068 5 1
-23.128567 101.593490 -19.686417 11 1
-7.263545 85.380997 -40.440838 6 1
-13.480276 95.105103 -16.263458 0 0
-26.551935 94.923752 -9.902931 10 1
-27.478361 59.089512 26.078402 14 1
-31.233900 98.140991 -0.394183 10 1
-39.873333 89.540794 -28.032890 11 1
5.657763 83.441826 -50.006630 5 1
-3.928795 50.932388 -2.200624 0 0
-8.660331 14.062803 -0.979940 7 1
39.493690 98.707443 -22.642971 2 1
50.014786 72.761475 33.470417 8 1
-3.478682 93.349998 28.579769 9 1
3.546376 78.636719 -40.744358 6 1
5.945379 91.118690 32.798187 9 1
-3.843385 75.977776 -51.738586 4 1
41.680195 97.274460 -27.264481 2 1
12.433325 93.816803 23.461561 9 1
15.478087 2.428773 -6.056663 1 1
38.828716 96.489334 -7.313325 2 1
55.123486 88.393288 -17.843721 2 1
-26.909779 94.717667 -30.273111 11 1
-21.314653 59.123535 49.909775 12 1
-7.836295 88.819954 35.859760 9 1
44.748158 80.080612 30.011318 8 1
-14.055408 74.977486 21.947208 14 1
55.209297 82.996758 18.273785 8 1
30.851154 97.898903 14.287343 8 1
19.633755 97.006012 16.212429 9 1
53.114220 75.957535 28.488150 8 1
-5.169281 96.267570 27.542580 9 1
0.485286 68.419708 -56.714863 4 1
-9.818526 85.842453 -13.052131 0 0
-10.266786 96.035973 -28.821676 5 1
40.857937 94.053780 -12.360979 2 1
-11.807911 86.116364 -14.808319 0 0
45.946198 93.920952 -5.431812 2 1
-10.955583 88.137985 -4.933414 0 0
-31.499372 89.275345 -27.985605 11 1
-0.529981 91.586815 -33.664230 5 1
45.872871 77.134193 29.847876 8 1
35.529518 96.077621 -9.788025 2 1
-17.173811 69.807655 30.126963 14 1
-10.483479 96.524239 -24.131937 5 1
-27.046177 60.058975 22.730938 14 1
-6.456465 74.437241 33.683399 13 1
2.842851 60.800774 39.359299 13 1
-7.791602 67.775490 49.813236 12 1
-19.211302 75.942696 -38.516685 3 1
12.751446 81.051735 1.966149 0 0
-23.378223 56.890522 48.294106 12 1
56.492908 85.452423 -28.899904 2 1
-7.911771 10.669778 -5.290390 7 1
-13.403803 99.150795 -25.485466 5 1
41.333618 93.219460 -18.153118 2 1
-44.476154 79.764709 -40.654781 11 1
26.653353 101.276500 2.502512 2 1
35.333218 93.877892 30.169361 8 1
-1.004845 79.055817 -4.993734 0 0
-10.756733 94.011940 -1.238566 0 0
18.070547 64.043266 -36.599228 6 1
-28.950949 57.401615 -44.504940 3 1
-19.623604 53.725658 51.343571 12 1
-7.297468 74.201027 -56.369553 4 1
10.051861 78.473198 2.187821 0 0
4.621542 81.888741 -49.040890 5 1
-24.470922 15.962629 -6.494112 7 1
22.987820 2.713800 -11.853022 1 1
-20.730869 19.909639 -1.678789 7 1
-7.808570 66.123993 51.843292 12 1
-10.045593 6.205489 -17.822393 7 1
48.334686 90.401924 17.507051 8 1
-20.831404 68.228157 29.412971 14 1
-26.973148 97.937035 -28.291359 11 1
-16.472488 69.540573 -42.996662 3 1
-19.574474 71.522835 21.387705 14 1
49.944477 91.311508 -12.431420 2 1
-4.159213 90.042389 -45.816212 5 1
-23.099764 99.746056 -21.101358 11 1
-22.852087 99.950577 -23.872025 11 1
56.127460 82.904472 20.212313 8 1
1.719504 67.897804 35.657532 13 1
-19.349293 67.078156 -45.181042 3 1
-12.394886 84.205269 -37.334995 3 1
-8.280945 16.483896 1.894173 7 1
-12.629888 87.653320 -13.121262 0 0
5.494784 61.349411 39.331669 13 1
-17.553879 15.927805 -3.299636 7 1
-13.370068 92.838524 -16.280905 0 0
-50.744308 76.730309 -37.692368 11 1
-23.115673 68.681465 -41.331032 3 1
39.011959 96.603203 -13.663139 2 1
-22.071987 99.290115 -11.983680 10 1
-14.907887 64.813667 45.600121 12 1
-1.570392 38.637951 0.219189 0 0
38.701889 85.106430 27.541836 8 1
2.141938 96.383881 23.131525 9 1
0.741019 75.855507 47.152138 9 1
11.021713 4.625671 -12.460505 1 1
-0.452671 72.584686 -53.383396 4 1
48.666412 94.568512 -3.595438 2 1
-0.772944 43.918644 -5.878781 0 0
1.352290 88.420044 -42.074009 5 1
-35.368336 98.113617 -8.919695 10 1
-40.188503 93.482353 2.355434 10 1
-46.088581 80.832443 -32.765388 11 1
-15.203845 99.874252 -22.763433 5 1
-5.520431 84.660858 -36.808872 6 1
54.469151 86.601616 -29.454657 2 1
-0.111604 2.168211 -0.869912 0 0
15.689012 -1.364454 -12.687815 1 1
43.509193 91.471420 18.964144 8 1
-13.571039 74.838257 29.344391 14 1
22.330816 97.326614 15.007882 9 1
12.226842 74.071632 -31.337627 6 1
51.596699 80.248108 25.309486 8 1
1.030633 89.997566 31.929922 9 1
42.485481 95.766289 -4.656670 2 1
-6.981964 92.357376 -5.353388 0 0
-44.122784 79.844063 -43.269405 11 1
6.002858 97.334793 23.400164 9 1
50.914719 70.082413 33.646496 8 1
33.110542 100.254910 5.309225 2 1
12.840671 5.829482 -8.936407 1 1
-26.666941 100.637170 -21.363031 11 1
-6.983782 91.477661 -3.348148 0 0
-3.523558 72.352264 36.130249 13 1
9.576287 12.252806 -2.994611 1 1
-15.173882 75.313278 37.138828 12 1
8.979690 99.638046 19.350441 9 1
-16.428457 77.673935 -38.368763 3 1
-1.613072 80.197006 -47.139545 4 1
5.088670 81.723076 44.791061 9 1
-4.054931 52.778202 -3.499133 0 0
-8.573186 97.077271 -22.893826 5 1
-4.796270 64.622650 -6.489381 0 0
-28.684912 60.948200 17.136616 14 1
-32.202538 97.505890 -7.581541 10 1
50.800823 84.921211 18.483158 8 1
-30.441715 89.562569 -30.197113 11 1
-6.682974 79.660347 43.548721 9 1
-25.114395 64.325584 25.492695 14 1
-2.136741 25.008087 -0.041336 0 0
-31.682913 93.891563 -34.598717 11 1
-9.915074 79.988777 -10.221531 0 0
-2.269805 24.934511 -3.065398 0 0
-4.629119 61.011497 -60.493244 4 1
-28.506811 96.416428 -25.292997 11 1
-17.181503 74.318069 17.727196 14 1
-11.943675 11.929899 -9.225256 7 1
-18.946178 70.479767 28.680418 14 1
-42.392536 83.903214 -36.881798 11 1
-5.975139 85.525955 39.351456 9 1
-8.661662 69.879753 43.943874 12 1
-23.737623 101.291980 -2.957503 10 1
29.092733 101.306270 -3.713523 2 1
-9.930864 77.163429 28.414007 0 0
36.513790 94.297729 20.514225 8 1
52.979332 89.997269 15.189561 8 1
19.534531 4.208894 -9.233332 1 1
23.471357 95.885147 22.308222 9 1
7.280120 57.899586 40.990765 13 1
33.897285 97.403595 16.886795 8 1
11.874556 5.334017 -5.165502 1 1
-12.700195 89.857819 -5.494845 0 0
31.549780 99.294289 19.116034 8 1
-25.811213 60.999100 28.815706 14 1
1.995498 96.529526 25.892767 9 1
-21.080364 64.166725 -44.001598 3 1
-0.008040 34.308754 -0.109625 0 0
-22.603407 10.283730 -17.419523 7 1
51.954208 88.281952 17.428278 8 1
-1.537422 87.880699 -47.958939 5 1
-23.849344 66.949387 44.586296 12 1
44.685246 94.263214 -31.990946 2 1
49.288601 86.743118 17.484453 8 1
20.593134 95.685486 22.422888 9 1
40.032730 99.124184 -26.781752 2 1
-20.840347 69.518333 24.001741 14 1
2.873257 83.480003 -51.011513 5 1
-32.581905 91.760216 -38.724754 11 1
4.387707 85.068741 41.180054 9 1
-8.202511 94.675941 -4.761088 0 0
3.763199 68.661263 -55.838196 4 1
-32.707649 94.014587 -7.063461 10 1
38.084721 98.316254 -16.188742 2 1
8.258821 4.944612 -14.334455 1 1
11.977372 91.008247 31.030550 9 1
21.420839 94.361221 6.747967 0 0
-5.809998 10.177553 -3.078400 7 1
40.661934 100.825400 11.875435 8 1
1.668139 72.421402 31.893875 13 1
13.292337 69.061424 -40.598759 6 1
-11.164580 94.047836 -26.768705 5 1
-23.342905 70.853928 42.980778 12 1
-7.676027 10.697357 -8.791648 7 1
10.281795 83.535255 -45.560379 5 1
13.892053 86.829308 4.081651 0 0
34.080803 96.973289 19.032236 8 1
5.687359 76.882034 -40.976604 6 1
-4.093753 57.449013 -61.947239 4 1
18.516703 61.741146 -35.616055 6 1
23.660820 12.514954 -0.584839 1 1
-26.185184 97.798355 -3.118294 10 1
-12.993335 75.902313 25.578636 14 1
-3.706496 88.784668 -3.056497 0 0
-11.140350 76.862923 23.120317 14 1
-20.410614 68.289528 44.865292 12 1
22.502878 -0.465153 -10.919433 1 1
-35.483479 86.743851 -39.272858 11 1
-12.853647 95.702881 0.498232 0 0
3.385316 58.609245 42.379776 13 1
40.110710 80.343086 34.758457 8 1
1.498199 66.569206 37.498322 13 1
-5.438611 64.765594 23.160328 0 0
-12.020893 98.446198 -32.277119 5 1
-1.493189 91.161331 30.903172 9 1
23.307896 4.072321 -8.244705 1 1
37.752274 95.123108 -12.230043 2 1
-1.034926 58.882423 -61.002327 4 1
-1.346400 65.747826 38.972553 13 1
3.623942 10.309537 -4.295545 1 1
-7.223866 74.675499 30.231274 0 0
4.972828 91.078194 29.334320 9 1
-0.373166 80.944572 45.373287 9 1
-16.944845 97.922974 -14.339021 10 1
-22.942392 95.992317 -13.491941 10 1
-17.786989 71.969131 41.673935 12 1
0.447239 30.345091 -0.422439 0 0
-22.141697 70.205826 -42.338089 3 1
-28.738558 13.718577 -12.532658 7 1
-13.189950 95.868393 -19.599339 0 0
-28.695751 98.504456 -35.042416 11 1
-18.401653 99.656128 -17.625763 10 1
-2.841265 92.079674 -33.892502 5 1
9.201969 75.290787 -35.647072 6 1
-1.863651 20.831932 -2.801093 0 0
-9.026997 88.742172 -6.511298 0 0
-15.818817 73.619225 26.289680 14 1
-4.210989 63.355797 -59.321136 4 1
-28.894320 100.781360 -15.159794 10 1
0.248285 75.503059 -51.316967 4 1
-6.924696 14.355166 0.036064 7 1
-20.685738 75.229416 -40.477375 3 1
-5.248233 85.114105 -40.756393 6 1
-13.203148 66.901497 -45.876579 3 1
-12.307761 6.258946 -18.566856 7 1
-16.906115 8.352620 -16.176176 7 1
-1.603443 94.351768 26.738647 9 1
26.857538 101.423160 5.156398 2 1
-37.219841 95.797005 4.252357 10 1
-9.005222 86.011322 -4.135896 0 0
-3.327247 44.034359 -2.429174 0 0
-24.814070 61.699604 48.471214 12 1
-40.070911 81.639153 -35.890446 11 1
26.541201 99.980347 10.853540 2 1
8.821121 96.384651 20.785204 9 1
-34.554977 90.250992 -35.885189 11 1
3.541120 72.985916 29.364090 13 1
50.290596 81.846779 21.308098 8 1
38.510418 86.606201 25.783146 8 1
-5.271519 74.027901 45.887093 9 1
-19.828699 18.583433 -3.603867 7 1
-6.148422 72.270020 45.275459 12 1
-6.423658 76.032890 -52.699436 4 1
11.766752 80.831047 -50.729809 5 1
42.428288 83.365364 25.085041 8 1
51.596302 74.200150 27.825047 8 1
-25.016857 66.494781 16.593540 14 1
40.315056 95.936073 -8.569510 2 1
1.730097 -1.328368 -1.236372 0 0
-5.892240 73.227249 41.245491 12 1
-4.141134 82.535164 43.750648 9 1
-36.235229 88.290016 -34.090160 11 1
-18.319994 98.270531 -21.153526 11 1
-37.190861 87.193207 -36.019352 11 1
-18.086569 68.793625 -45.241795 3 1
57.196548 86.467888 -23.995695 2 1
-48.324257 94.465218 1.683543 10 1
44.633572 73.728981 35.655533 8 1
-5.744703 77.823631 -4.903240 0 0
48.957657 69.614799 33.823006 8 1
20.796976 95.904488 18.623676 9 1
17.509760 66.686607 -34.473057 6 1
54.917679 79.967194 23.295492 8 1
-4.946455 87.940620 -8.193739 0 0
19.118706 10.508232 -2.828983 1 1
-7.765853 92.156288 -26.657806 5 1
-10.235225 80.828674 42.172081 9 1
50.617523 69.804016 31.603209 8 1
-25.972069 65.445023 14.440542 14 1
-21.844872 16.123922 -4.816712 7 1
-16.699556 65.295753 -45.097443 3 1
-20.204054 61.215111 -46.431759 3 1
-16.544577 74.089554 38.468735 12 1
9.378273 52.002083 43.623615 13 1
13.771422 68.864891 -36.748684 6 1
-4.771943 79.044136 44.388477 9 1
-15.711764 97.737648 -18.050913 0 0
-4.895343 51.967312 16.358793 0 0
4.017866 66.103745 -56.042683 4 1
-2.557405 85.643944 -3.716066 0 0
46.174149 67.310112 37.612003 8 1
-13.841820 17.023582 -2.827190 7 1
33.591953 96.811920 21.926716 8 1
-3.527773 76.213722 29.555769 13 1
47.327900 90.589729 -19.410799 2 1
-23.397526 69.047829 44.795124 12 1
-22.158165 53.454380 50.091705 12 1
-1.596436 46.348877 -4.872598 0 0
-26.134127 98.606194 -8.298880 10 1
-7.005595 12.671545 -4.330998 7 1
37.502975 99.345886 12.993407 8 1
13.145725 14.384625 -0.639982 1 1
55.525185 86.485611 15.270301 8 1
-17.632990 72.052208 26.711992 14 1
49.102459 83.426308 24.548691 8 1
-0.319427 81.641068 43.121418 9 1
23.153704 96.418121 7.690175 0 0
-8.776800 74.221375 44.577122 9 1
-1.307739 86.358856 41.052658 9 1
-15.901838 75.102219 -43.309750 3 1
-51.780853 92.114998 2.887531 10 1
8.164534 87.138695 37.591507 9 1
-14.553547 20.236380 4.179268 7 1
11.265248 85.713364 -41.314598 5 1
-37.811657 86.709846 -38.862553 11 1
-6.990198 90.722687 -32.985828 5 1
3.209420 83.282906 40.920822 9 1
-9.181562 93.023529 -33.810444 5 1
13.359472 3.727688 -11.915891 1 1
33.591736 100.113810 -14.322414 2 1
