9.322869 74.121544 -1.284397 0 0
-85.284119 230.084960 -59.785686 15 1
30.215176 164.648350 -39.038525 57 1
5.291833 312.592860 -121.114000 70 1
74.998070 208.880370 -62.000793 22 1
167.868470 66.035271 -29.174261 8 1
44.902641 84.780800 -30.362810 49 1
-23.682291 299.361300 -69.801674 2 1
-113.024710 253.887120 -25.160625 62 1
22.814743 95.273407 13.684559 0 0
14.409817 167.792010 11.464660 0 0
-132.828430 167.471540 -10.700020 26 1
33.797729 183.977190 80.123672 64 1
-79.776039 319.702670 109.567420 12 1
35.252808 163.132080 -26.009726 0 0
142.162990 235.793410 -81.480553 23 1
101.111600 88.555702 16.888603 35 1
33.417179 192.420780 38.734459 64 1
75.009171 150.080110 -8.726433 65 1
-51.220573 192.788100 55.121471 48 1
87.923546 163.168640 50.518471 7 1
88.081322 85.355530 -34.147278 36 1
-100.913160 91.752853 -74.653923 14 1
123.074490 83.460098 -18.545580 35 1
-32.305592 169.953830 79.079559 41 1
-134.693240 170.756390 -34.387421 26 1
13.598191 166.888750 -25.157005 0 0
43.551723 216.125400 -81.390442 22 1
-35.767910 168.720550 -87.769623 42 1
62.304108 209.793850 -87.795006 22 1
12.091767 268.256100 64.857056 30 1
100.022170 145.342180 -13.500684 65 1
70.226913 84.895782 -15.995658 0 0
133.316360 95.132515 -41.592686 8 1
18.856344 96.035301 -3.575727 0 0
-115.296240 75.076805 -90.022057 14 1
-156.503230 211.221860 -50.922363 11 1
-45.627083 155.657580 122.785500 39 1
77.818207 202.431790 -86.056053 22 1
54.453163 167.820280 4.216654 54 1
64.959702 182.251820 27.778748 47 1
118.652820 228.928740 -116.099080 23 1
-112.764110 234.774230 -44.223412 11 1
-0.272936 168.775730 -19.298254 0 0
-60.753883 291.918730 30.423691 30 1
29.878410 149.964800 33.568333 0 0
10.196367 198.351410 80.132660 33 1
-2.832243 202.381610 39.185547 64 1
5.006425 262.206540 -9.012028 63 1
111.093790 62.691425 16.736746 35 1
-102.900360 313.684630 103.399180 12 1
4.795422 104.551100 -4.077123 0 0
75.033844 185.041200 110.149860 46 1
-38.384296 186.256870 -14.239764 0 0
-116.747150 314.657590 82.968437 12 1
11.185598 174.265670 -6.918612 0 0
31.806059 148.576640 18.476120 0 0
167.024960 176.220520 -46.781845 34 1
-87.287422 177.381520 -89.381935 16 1
-46.479347 253.740220 15.648354 0 0
-83.598183 318.870790 87.260330 12 1
34.146889 98.321899 87.627586 44 1
-172.163670 205.737900 -94.193161 13 1
14.488027 44.368839 -3.923651 0 0
82.513702 183.048610 -104.837590 22 1
56.173054 217.835020 -75.366653 22 1
-85.740631 198.438740 -37.299221 26 1
7.146771 374.849670 -63.540997 3 1
122.770890 158.678540 94.531700 7 1
34.452335 118.391480 74.716881 44 1
-33.419617 165.587590 103.068550 41 1
-136.555450 223.380750 -40.302063 11 1
62.946274 154.524660 -26.014647 65 1
-14.801779 294.979100 -5.602863 31 1
-33.434067 143.921220 26.277840 0 0
-76.752136 171.186220 -113.419560 16 1
-41.166832 166.079410 -129.706190 16 1
18.142347 181.158480 72.079865 64 1
10.233736 337.515470 -21.618631 18 1
-81.986473 185.221050 -53.039051 26 1
-24.197393 161.938050 -87.917595 42 1
-129.447480 151.892840 8.222768 26 1
-82.380402 90.183235 -73.513084 24 1
5.930267 183.101060 40.203873 64 1
-30.298063 287.851040 -72.508080 2 1
-137.176640 216.630830 -64.799698 11 1
-15.637009 156.218870 8.638487 0 0
43.013187 91.110687 -2.368864 51 1
78.043625 191.777180 -36.222851 43 1
54.466606 192.804610 -102.439130 22 1
-68.458961 180.068980 66.808365 40 1
44.929501 51.954868 86.173988 10 1
20.086473 59.084782 81.296181 10 1
31.618608 269.441190 63.660461 30 1
117.738820 247.825270 -59.410206 23 1
6.422991 142.672990 16.060457 0 0
6.243128 382.439000 -45.035034 3 1
39.150627 365.514070 0.062121 45 1
-11.751369 275.463500 51.704357 30 1
-91.141655 161.331990 63.799168 40 1
27.565002 132.414960 3.060097 0 0
19.759758 202.553040 23.900969 64 1
-96.907532 193.210130 -16.832979 26 1
16.922874 153.437730 -90.648476 32 1
55.729771 148.112320 38.118816 44 1
124.021350 70.658356 -14.432518 35 1
101.104610 85.858414 -14.208532 36 1
-9.554520 316.841310 -102.628430 70 1
-43.190964 152.350620 166.003940 9 1
-3.502288 84.655678 -5.509866 0 0
-32.797367 145.305390 39.293255 55 1
-76.077957 223.427090 -18.128908 20 1
135.525700 208.736310 -118.747970 23 1
150.741010 202.650630 -6.475949 34 1
-80.467087 227.218610 -84.866158 15 1
-50.731323 205.836760 -44.501831 28 1
-10.069093 149.128310 -97.939873 32 1
-77.159195 184.519670 -67.894539 26 1
-51.491871 162.011510 93.087112 41 1
-96.254189 208.603200 6.845913 20 1
-24.856205 158.652300 -44.357903 68 1
163.107760 205.156740 17.863663 56 1
-57.647091 146.532170 33.205994 61 1
-22.103342 380.274110 -80.556252 4 1
3.397717 360.659670 -25.848736 18 1
105.299560 106.211460 -1.025370 35 1
-17.487240 283.114110 -0.061345 31 1
11.154723 316.856720 -10.223481 0 0
-19.772041 202.075970 79.406776 33 1
-8.891732 175.965420 8.283667 0 0
-108.782650 176.173540 -3.821311 26 1
15.642010 140.892400 -18.162533 0 0
37.094353 65.751366 2.419317 0 0
-61.262974 139.768450 13.343755 61 1
-25.639143 287.453030 -39.682369 63 1
-4.111349 384.038240 36.804348 67 1
-10.616360 175.348970 51.031296 64 1
-21.155338 227.625980 -63.614403 27 1
134.608180 91.474724 -17.373312 8 1
19.031416 365.847660 14.399092 67 1
-62.238625 369.169620 -57.070576 5 1
8.309216 309.143920 -45.352798 19 1
47.544144 379.245820 19.271778 69 1
-82.736839 311.146550 27.371546 12 1
11.667446 239.956990 -33.160385 0 0
54.962399 224.709490 2.635856 21 1
16.177950 297.724820 -54.021038 19 1
107.315510 223.117650 10.363676 6 1
64.893814 154.520070 -141.099810 22 1
43.106602 174.244960 -3.565418 53 1
92.955322 87.530212 6.342179 36 1
106.193190 161.865780 57.177288 7 1
-44.252151 283.502990 -76.955971 2 1
18.620596 139.828110 -2.659949 0 0
-33.658989 196.332090 46.861668 48 1
-64.996895 372.225100 -75.387054 5 1
70.986397 160.833270 41.940914 7 1
-83.138893 107.251400 -58.527649 25 1
39.524960 131.643570 25.301855 65 1
-27.208389 137.580780 3.277162 0 0
101.156160 171.345920 50.210323 7 1
-62.073818 325.528050 94.271454 12 1
2.906142 214.674940 -16.492792 0 0
-7.130789 198.732070 93.828041 33 1
127.852520 242.114400 -91.797272 23 1
-67.038513 105.457940 -79.911369 24 1
-13.898951 122.463150 -7.780150 0 0
-84.840408 203.743470 -21.579849 50 1
-126.898380 166.998630 -21.998335 26 1
156.335780 183.700420 -118.743840 23 1
70.560898 153.311900 24.584799 65 1
21.268522 177.328510 38.918941 64 1
-87.283958 321.619420 99.122734 12 1
-125.914630 244.722850 -2.971953 62 1
63.276001 185.288020 72.048225 46 1
-119.284370 174.657780 -40.137371 26 1
-113.191590 200.941770 -128.029910 13 1
47.262211 92.165619 -19.688763 49 1
-20.201973 155.973680 110.145450 38 1
-30.452061 174.405240 -4.662115 0 0
-51.048813 207.835980 -79.568062 16 1
-96.575989 88.526466 -90.289642 14 1
-3.367986 205.740550 62.857456 33 1
-55.497944 160.596950 149.362630 9 1
-56.691681 296.236210 -41.676907 2 1
114.259250 165.040800 28.536037 7 1
141.204040 195.379960 -44.501411 34 1
60.390137 74.384003 5.991296 0 0
-116.993530 89.760880 -92.459038 14 1
6.150774 305.948670 -93.660919 70 1
31.462967 30.007711 110.161510 10 1
-10.721902 267.183010 73.589066 30 1
79.708473 151.219350 -20.906109 65 1
33.178001 166.760220 5.965609 0 0
9.949482 287.155580 -60.906490 19 1
45.210133 114.652070 18.148132 0 0
-123.363720 248.006240 -20.295586 62 1
-69.079651 286.443180 -6.819275 62 1
-3.190613 135.876020 -131.418950 17 1
111.739390 77.946808 -33.066490 36 1
-16.498171 377.587710 -52.660637 3 1
27.540375 316.855900 -48.495827 19 1
-70.062538 187.812060 45.981312 40 1
-50.531483 159.412340 67.856186 41 1
-83.643707 363.575410 -62.389965 5 1
-18.048475 138.516430 36.642906 55 1
101.061680 175.521260 -4.360322 0 0
-82.164352 95.747047 -50.766930 0 0
-125.520870 162.543520 -1.167787 26 1
-28.968946 166.030380 90.478004 41 1
93.835144 168.102950 73.848412 7 1
-5.967771 50.068096 -4.005993 0 0
12.197829 44.931225 45.291985 0 0
-105.630180 194.682860 -109.811320 13 1
-30.345148 176.459670 -120.665790 16 1
-101.223420 259.858550 33.653481 62 1
-25.029287 144.268740 -141.760180 17 1
48.561539 195.319320 76.767479 46 1
19.345926 204.863460 -12.905761 0 0
-117.454030 251.490660 16.550861 62 1
53.878380 33.692627 76.463463 10 1
14.289160 206.250410 55.836014 64 1
53.307713 135.449020 22.543364 0 0
10.352229 180.919850 61.287457 64 1
-23.596937 189.917850 53.015450 48 1
135.579300 200.035810 -34.464565 34 1
-58.171085 172.229280 -74.340820 42 1
-1.787113 156.332890 -14.451151 0 0
-19.486151 152.093610 -121.580980 17 1
-89.336807 187.435680 -67.425117 26 1
-40.895699 183.966380 -112.301480 16 1
8.014216 153.635560 -37.939770 68 1
79.355606 222.722440 -59.701565 0 0
-1.638980 151.837970 -82.883705 32 1
48.330143 200.863420 60.080746 46 1
76.782471 200.473180 -73.911743 22 1
-44.919670 196.179030 -93.246208 16 1
33.097698 141.248990 42.206825 44 1
-15.440194 194.222350 31.384470 64 1
33.569683 134.157730 14.239676 0 0
40.618645 202.400190 43.544380 46 1
24.308418 52.265034 91.311180 10 1
2.656901 3.745829 -8.467350 0 0
-71.891296 179.630460 -102.683350 16 1
-58.675991 166.043880 102.441030 39 1
-35.248466 131.862500 -4.532005 0 0
-1.707405 15.441311 8.721536 0 0
-28.898724 271.036990 68.937759 30 1
-52.596115 286.645170 9.289086 30 1
-49.465958 166.081050 -25.096224 58 1
54.854725 209.775040 -66.206932 22 1
-34.757118 154.620990 -126.231060 17 1
-25.290527 206.362260 -12.212811 0 0
-54.666641 293.768830 -20.340393 62 1
-94.809975 197.610990 0.292671 26 1
44.383881 203.078830 -89.267151 22 1
-63.984436 149.694950 85.900780 41 1
-84.910110 267.684690 7.693072 62 1
-45.968052 153.557070 152.504030 9 1
-5.807128 287.759460 -52.179256 0 0
80.174492 81.744255 -22.742493 36 1
10.400557 164.614230 -73.176285 32 1
7.324495 161.219410 -88.975075 32 1
-58.330338 78.855698 -41.069561 0 0
-21.301069 220.506940 -37.406078 29 1
-23.656103 157.191960 -31.536171 68 1
168.673520 75.022438 -38.060165 8 1
33.660500 148.387010 -4.893524 0 0
53.430477 153.409770 -10.502693 65 1
61.991920 200.774610 -55.485851 0 0
-54.463039 312.517000 44.030525 12 1
134.799410 208.433140 -16.637651 34 1
48.069908 383.508420 36.408165 69 1
70.075157 201.612180 -38.703987 0 0
-51.763809 298.603270 -68.469139 2 1
-68.333633 364.884920 -44.927551 5 1
73.204346 170.626590 -8.444010 54 1
-9.303219 108.726320 -0.955104 0 0
-33.734646 156.522460 144.466720 9 1
16.437996 284.399690 43.984367 30 1
16.765059 195.398220 33.150406 64 1
115.918340 77.523949 3.234041 35 1
69.635109 168.399430 -126.272390 22 1
-6.331957 381.144900 -63.263000 3 1
122.870900 164.532880 70.669456 7 1
146.889470 207.665530 12.176647 6 1
66.349304 180.965100 -44.270512 43 1
1.262812 295.795870 -67.422546 19 1
135.623410 244.214750 -69.913681 23 1
92.136871 85.393066 -5.888940 36 1
59.734169 187.868420 -118.615180 22 1
13.239045 152.649190 -19.192369 0 0
35.070465 149.140030 -24.857010 0 0
-71.704605 178.733630 55.060616 40 1
88.730019 181.015110 32.354084 47 1
49.716022 143.503630 9.474687 65 1
158.656070 81.190979 -27.446316 8 1
47.065617 139.490140 45.572819 44 1
46.235828 189.752060 39.484627 47 1
-43.340885 294.077390 -52.149662 2 1
-25.653305 166.451810 112.187840 37 1
46.661713 163.678680 15.229362 54 1
57.608315 194.143460 -36.940128 0 0
64.366631 159.058300 6.358715 54 1
-10.505452 156.974040 -76.173615 32 1
6.227391 37.145866 1.365842 0 0
-25.647259 73.689735 -16.098732 0 0
-18.351746 85.307487 -18.824196 0 0
40.219296 303.494750 -57.726311 19 1
149.161290 86.094513 -39.552563 8 1
-56.735950 321.590550 74.901939 12 1
63.041286 148.489140 -1.501488 65 1
-58.216854 182.627470 83.537361 39 1
84.823616 200.827790 -54.976158 43 1
14.848414 42.862606 94.768524 10 1
-44.461021 162.417210 -76.109131 42 1
-46.505062 134.376390 12.957208 61 1
-16.004669 131.848300 0.746884 0 0
-35.307053 399.164460 -99.262947 4 1
38.068996 187.042560 -112.932550 22 1
4.683263 129.874950 -2.389771 0 0
42.384789 377.373630 -9.020430 45 1
-14.384318 276.491360 -29.632839 63 1
-24.082163 184.255400 -0.721875 0 0
-145.752060 200.275970 -108.286070 13 1
92.868996 159.718140 -0.682419 65 1
39.443012 240.391920 -3.341596 21 1
-35.619690 364.141330 -49.425011 5 1
15.364466 151.747340 -52.773979 57 1
-89.430305 215.061800 -4.842905 20 1
98.134483 146.600950 1.120487 65 1
-66.998436 152.297740 74.755516 41 1
-7.752091 169.444850 -30.977396 0 0
-90.868713 320.723480 63.032188 12 1
-82.238976 161.154950 -129.909620 16 1
-120.158240 204.657580 -76.299789 13 1
66.978973 84.021355 -27.321676 49 1
61.826550 173.532200 11.589746 54 1
-27.330763 175.191910 45.264885 48 1
2.484017 318.414460 -104.415870 70 1
-9.521100 128.546830 -146.441390 17 1
-21.914366 169.940800 14.216184 0 0
6.684628 160.343460 98.413849 38 1
119.953030 182.240510 -6.607262 0 0
-23.030968 217.688920 2.315298 0 0
-75.912239 195.686390 -71.352585 26 1
-76.098259 318.591160 68.611954 12 1
46.412071 180.694210 67.702065 46 1
0.191903 287.445160 32.951839 30 1
-86.865891 164.442170 -110.713010 16 1
-77.384758 184.642000 -89.512177 16 1
-53.844841 317.941680 62.374332 12 1
28.834665 377.757660 34.495926 69 1
-104.184690 193.956360 -32.244698 26 1
-36.923977 207.271010 -9.808531 0 0
42.463795 46.204365 103.591290 10 1
-45.208420 375.189030 -66.203926 5 1
51.429489 180.183730 90.243324 46 1
-16.318155 298.025670 -58.724087 2 1
-49.440804 173.103560 -40.819439 58 1
33.955471 85.523338 -25.559200 49 1
-53.552025 168.430210 -122.346270 16 1
-140.720720 213.745160 -76.673233 13 1
-36.703705 297.459900 -30.803776 2 1
3.053882 372.593900 19.188034 67 1
120.974820 242.763030 -82.279884 23 1
-25.880405 217.543640 -67.966133 27 1
22.739906 108.379320 12.606476 0 0
90.851250 163.306430 35.656086 7 1
96.964569 106.850520 -23.262108 36 1
-69.537231 306.500150 41.692429 12 1
8.378777 270.576930 -28.091642 0 0
-20.157000 115.055160 -0.560347 0 0
-52.593544 182.415080 61.641243 48 1
-82.395935 277.840640 -23.211123 62 1
-38.528725 134.527370 -27.474348 0 0
-109.681410 96.671051 -83.344818 14 1
64.156075 222.297850 -36.223381 21 1
-107.270530 318.012480 88.804756 12 1
-7.431165 136.910430 68.746986 0 0
-15.903275 165.961440 46.061150 64 1
-6.815081 301.856630 13.473530 30 1
-34.680199 159.185130 82.676926 41 1
52.485428 166.336470 -141.694790 22 1
-48.533768 180.399690 -23.906160 0 0
-50.916611 82.795570 -52.238651 0 0
-5.931307 315.109470 -124.038220 70 1
-0.135817 26.884216 -10.423088 0 0
-1.212410 152.335750 -3.094516 0 0
77.182175 84.742683 -6.367018 0 0
-54.987930 367.989110 -36.850491 5 1
190.543180 214.831220 27.722832 56 1
37.535965 101.263700 -3.781292 51 1
-19.776287 152.935940 -53.324013 68 1
-7.547886 8.666923 1.246853 0 0
50.725204 79.518311 -1.749030 0 0
63.540440 179.963530 93.565346 46 1
76.515221 66.614922 -40.108429 36 1
6.631337 356.239470 -35.992992 18 1
6.291610 386.831450 -72.786903 3 1
-157.676420 203.329060 -67.827393 11 1
-13.145792 225.245480 -30.733837 29 1
139.089420 239.684740 -91.892265 23 1
92.912888 59.185066 -40.090988 36 1
-39.009281 221.044190 -56.560120 27 1
32.957970 179.319200 -21.301924 57 1
26.336239 87.612335 -5.772266 0 0
-76.143669 280.853550 0.284669 62 1
151.444350 213.466130 -97.540337 23 1
181.683760 212.071910 15.473755 56 1
-83.860184 235.456940 -43.897167 20 1
84.405350 159.901670 60.924980 7 1
-71.665230 233.388350 -78.446358 15 1
-48.804474 170.488460 -67.943016 42 1
94.539406 187.705410 -89.041519 22 1
38.917763 181.374240 17.097960 53 1
74.444702 185.683320 75.728569 46 1
-68.471176 179.316850 90.248413 39 1
22.900776 84.178223 10.612491 0 0
37.035286 218.742720 -72.045799 22 1
156.926740 187.498870 -36.002235 34 1
2.382250 189.009060 -14.605455 0 0
-64.902824 169.793010 -62.967899 52 1
13.309884 192.249540 70.823769 64 1
-103.069890 257.098180 18.543739 62 1
35.533390 90.846878 12.529564 51 1
80.924614 166.402020 41.072933 7 1
120.578380 214.128560 39.649948 6 1
-51.712254 364.757140 -57.340904 5 1
-53.057606 176.717610 -113.346860 16 1
-25.328463 294.628050 -48.707905 2 1
29.146496 207.793610 -89.551025 22 1
-19.771748 162.461010 -12.409065 0 0
-29.132215 222.594570 -45.485722 27 1
-133.142520 202.207440 -114.910750 13 1
-60.476604 160.737000 85.860565 41 1
-21.661760 398.411900 -91.279869 4 1
-48.748936 157.543110 20.126722 0 0
-3.952878 303.815000 -98.812225 70 1
-62.373459 282.163540 -82.669304 2 1
4.198431 135.535800 -12.226998 0 0
2.352712 157.850490 -57.022224 57 1
9.966101 33.609966 25.398466 0 0
-146.710860 192.227140 -134.895080 13 1
16.958374 147.089480 107.644530 38 1
-32.211357 155.774990 28.360146 0 0
75.805054 182.030090 87.262123 46 1
-94.079918 316.952030 80.122177 12 1
-88.728729 198.557270 -49.719639 26 1
-41.374134 301.943970 -60.912842 2 1
-6.497949 280.977690 43.090488 30 1
-95.029053 173.786680 -97.580688 16 1
-103.443610 80.286583 -94.804993 14 1
-54.364189 148.958940 -33.631176 0 0
66.233360 186.550840 103.273280 46 1
-57.546616 285.996890 -66.177582 2 1
33.302868 202.643880 -98.670746 22 1
-68.039642 365.765010 -66.106804 5 1
110.815110 241.926350 -66.778610 23 1
-19.280512 151.624240 79.912613 0 0
-3.206763 180.946290 -0.602981 0 0
14.127490 164.844300 23.573004 0 0
-114.674050 183.692600 -32.610729 26 1
17.461599 147.855880 12.697153 0 0
-21.758640 392.020140 -76.692055 4 1
36.687500 198.976940 57.389977 46 1
110.289860 172.748960 37.919872 7 1
18.631910 305.200290 -43.284222 19 1
-35.400349 290.932620 -60.421024 2 1
130.714310 209.454790 2.423141 6 1
58.723747 183.620570 -26.082748 53 1
-90.443115 177.864090 46.550526 40 1
-55.438004 193.073300 -95.979790 16 1
10.019475 276.934300 52.365879 30 1
57.863979 373.375060 6.946590 45 1
-87.212051 108.651610 -40.233501 25 1
48.221645 182.625630 -16.410440 53 1
157.365710 208.980060 35.842941 56 1
59.545918 225.086380 -19.760126 21 1
19.482019 51.576283 59.594273 0 0
-113.863170 198.759000 -117.078070 13 1
28.421453 350.954250 2.469482 55 1
165.637600 183.116180 -112.371160 23 1
122.452810 152.911130 84.957733 7 1
-53.590240 375.942720 -76.555771 5 1
32.718029 315.248200 -59.423519 19 1
-102.051150 188.343380 -49.369812 26 1
-117.448850 250.844850 0.919982 62 1
-28.072803 296.160640 -79.590416 2 1
-123.785890 176.647750 -17.261539 26 1
-35.362343 156.653950 -0.447342 0 0
70.902229 186.748090 -89.933418 43 1
111.217000 89.238396 -34.123001 36 1
-53.513393 284.813840 24.314182 30 1
21.574900 301.949710 -62.765564 19 1
-0.785474 235.606840 -23.528555 0 0
-111.279960 318.043580 65.708099 12 1
119.235390 215.987150 56.926479 6 1
100.548280 95.000687 -1.182091 35 1
-23.468349 129.784970 -158.650160 17 1
70.776634 217.693270 -54.423668 0 0
-107.286970 254.607130 -3.407302 62 1
50.777065 212.356900 -88.913567 22 1
-164.907350 191.103070 -121.808170 13 1
133.038790 200.211910 -4.509842 0 0
-22.421295 157.720310 -75.253029 42 1
-55.668056 168.718890 -56.958111 52 1
63.407772 203.084000 -78.225113 22 1
95.392685 158.657330 68.300018 7 1
-93.788490 234.021770 -53.728050 0 0
-153.379390 207.860020 -88.011093 13 1
3.277949 331.179080 -45.179310 0 0
-89.463806 225.278490 -75.358086 15 1
55.710754 88.854836 -29.189863 49 1
117.512050 219.504930 -122.985130 23 1
-28.815096 191.599530 -15.651444 0 0
82.524536 157.874360 8.257628 65 1
4.239695 219.586210 -32.775520 0 0
17.787582 356.002140 -40.710392 18 1
72.364265 179.042880 35.349136 47 1
-118.699960 224.252560 -75.220657 11 1
-38.316154 282.142330 33.359177 30 1
-137.602480 233.468350 -17.034651 62 1
-24.843998 229.466060 -53.184254 27 1
-18.664190 195.862270 1.059389 0 0
-20.675291 290.423710 24.807957 30 1
-77.531136 86.856888 -85.330193 24 1
12.251596 232.029660 -22.114634 0 0
153.673710 201.527100 -110.606260 23 1
65.593056 207.847890 -67.640121 22 1
54.674000 174.898900 -132.244340 22 1
105.167070 96.228447 -27.227457 36 1
-140.444760 192.682240 -146.291030 13 1
-3.367104 64.461433 4.079347 0 0
85.072128 100.373150 -22.458382 36 1
-95.669739 271.275670 -28.605532 62 1
100.215220 166.580830 40.371834 7 1
120.641720 62.241001 5.175643 35 1
-31.499786 374.474000 -46.087452 5 1
-15.866735 287.745790 -13.799873 31 1
-124.710110 200.439290 -97.918671 13 1
-46.381680 157.236500 101.507550 41 1
117.881440 88.933121 -10.282461 35 1
-99.471329 259.046690 5.449692 62 1
43.029919 29.664812 110.957390 10 1
10.863099 250.765660 -26.816292 0 0
-48.348892 180.817440 88.027534 39 1
-42.586632 166.706250 125.013890 9 1
-132.936170 210.205020 -84.370842 13 1
45.297195 146.373780 -3.786325 65 1
65.491951 195.821790 73.920021 46 1
83.601044 166.142940 -7.450981 0 0
-3.059007 146.704210 -116.233320 17 1
152.000580 193.302800 -16.768047 34 1
-69.153343 272.939790 17.953381 62 1
54.260025 190.123020 51.313267 47 1
-100.129620 100.571880 -56.020321 25 1
-68.301399 173.587430 99.664925 39 1
8.464316 382.363190 38.064194 67 1
102.530580 239.941560 -101.367820 23 1
29.580339 201.569560 66.396873 64 1
-4.095401 197.113420 29.405951 64 1
-39.704220 148.582780 -137.518710 17 1
-85.239365 313.415990 48.793373 12 1
-42.079716 75.495605 -32.852524 0 0
88.969429 76.587761 -26.473612 36 1
4.267388 83.730194 2.217170 0 0
63.200989 195.417950 63.224236 46 1
-14.687277 264.445190 -28.208937 63 1
-1.917782 36.633884 8.495432 0 0
16.598274 386.674590 -55.613621 3 1
-75.233238 227.579620 -98.431694 15 1
18.819784 152.849180 -38.887074 57 1
-20.115322 131.225100 -148.013260 17 1
52.947968 181.976360 30.227034 54 1
-27.799126 136.994220 -10.414488 0 0
36.376282 378.739380 16.647045 69 1
-27.782129 148.296300 -45.133579 68 1
50.664165 148.721560 28.119991 65 1
-51.058296 162.397260 132.780360 9 1
126.414260 210.230710 19.172386 6 1
-97.106056 101.721690 -79.786888 14 1
5.274294 179.206700 86.291344 64 1
-87.767677 269.790470 20.906857 62 1
-40.115345 293.151180 -80.984734 2 1
56.088432 200.349870 -88.071236 22 1
-31.378233 186.269330 59.975090 48 1
-106.299130 319.606020 50.339310 12 1
46.954365 102.831700 87.374374 44 1
116.790050 98.895554 -21.245466 35 1
-44.771835 154.119430 -58.393433 42 1
-21.017860 180.455520 62.559994 64 1
-48.806515 174.243970 97.257065 39 1
38.812634 173.259030 -125.529980 22 1
7.802130 35.355019 -9.985864 0 0
-100.336100 316.962430 36.754196 12 1
-81.260803 98.877808 -65.003906 24 1
0.691978 310.440830 -81.849014 70 1
74.603935 211.297380 -37.994587 0 0
-78.220688 99.704895 -76.179588 24 1
37.548450 169.288070 16.004827 54 1
66.491173 157.197570 -16.281881 65 1
-72.496017 228.391650 -29.584499 20 1
-33.489395 154.566880 -62.922237 42 1
85.654739 194.489470 -72.493927 43 1
37.299664 142.584270 30.237196 0 0
-67.216888 90.770378 -89.525871 24 1
-48.176590 154.495180 86.093498 41 1
-90.357887 228.808290 -36.763943 20 1
-115.007740 178.390460 -23.060846 26 1
-85.648407 211.563860 -14.170575 50 1
17.182934 171.097700 -16.051598 0 0
57.775455 82.734505 -20.011526 49 1
32.594044 174.518450 -7.549816 53 1
118.970470 235.959290 -101.472080 23 1
143.279240 196.938000 -128.722890 23 1
49.739777 237.243070 -39.575169 21 1
35.944801 149.494090 -92.882736 32 1
-5.625959 183.059070 45.560486 64 1
127.889680 227.109990 -110.695510 23 1
-124.135030 240.559880 -12.785746 62 1
-1.492141 279.176360 -22.058714 0 0
15.398834 49.336575 82.065834 10 1
-40.152580 191.986980 54.807766 48 1
76.399338 85.961632 -31.934692 36 1
-13.459396 182.521870 -4.357801 0 0
27.035286 192.022710 47.400352 64 1
142.485470 200.117430 -26.443914 34 1
179.523770 210.234730 37.259781 56 1
30.693731 160.052020 -1.833912 0 0
12.716696 264.382200 74.684532 30 1
116.466980 218.525270 7.200802 6 1
33.593910 262.865780 73.674904 30 1
-70.731689 286.591060 -17.521643 62 1
-15.166071 74.321030 -14.157416 0 0
-51.946079 370.505830 -48.028217 5 1
28.774309 146.369830 -32.872559 0 0
-81.229767 269.992680 33.533810 62 1
75.118813 190.778080 -106.451620 22 1
13.702662 373.333370 19.579809 67 1
24.377956 61.288265 16.325157 0 0
164.891650 207.355150 1.630773 56 1
12.181686 314.336790 -91.460167 70 1
-35.134060 189.825360 -105.660290 16 1
138.822770 228.911220 -99.350304 23 1
69.535568 193.968480 -29.757967 43 1
-91.649155 176.219010 -79.678741 26 1
-148.396420 212.782620 -57.925419 11 1
-9.227298 198.248790 58.340206 64 1
0.735458 341.741390 -19.967819 18 1
-97.924080 265.401090 -14.585012 62 1
-62.153446 93.974464 -57.886860 0 0
69.465103 371.294650 -11.299260 45 1
-0.845729 262.415920 -18.001699 63 1
53.422215 173.672360 -37.483761 43 1
-8.041881 164.267260 -11.577139 0 0
-0.260356 71.929367 -4.965789 0 0
50.283550 46.701420 78.691605 10 1
-69.651459 319.461760 56.965473 12 1
-82.841949 208.523270 -37.172386 26 1
102.268360 72.869209 -36.293026 36 1
-15.939380 365.073520 -55.921280 0 0
-89.027977 314.432890 36.535900 12 1
-133.278690 202.553420 -91.951118 13 1
-83.329933 166.046280 58.271194 40 1
39.688957 55.718090 77.082733 10 1
26.939291 175.346370 72.602341 64 1
-61.852730 153.775600 -134.027560 16 1
-30.325262 183.730560 -22.362841 0 0
-75.090393 312.569310 51.143017 12 1
-129.567790 196.434590 -144.503110 13 1
173.449170 206.086010 18.955114 56 1
19.032701 163.151690 -9.460140 0 0
-6.745726 271.672330 64.584160 30 1
6.656363 191.445020 33.545864 64 1
-50.791451 277.297790 15.604111 30 1
15.656980 57.736340 7.316519 0 0
-66.623695 220.978230 -14.204281 20 1
-1.974863 200.780550 72.208740 64 1
106.372800 91.514877 6.994163 35 1
85.896996 170.005250 58.149021 7 1
-29.627045 380.139160 -97.918961 4 1
-18.684055 164.346370 89.419350 38 1
61.400150 47.415436 72.909920 10 1
56.005966 181.816600 -44.909866 0 0
-15.195676 354.737520 -33.595119 18 1
-7.944486 137.398880 4.241508 0 0
37.810486 193.381300 78.273270 46 1
11.672491 183.909710 50.464272 64 1
-86.829491 226.702060 -93.599945 15 1
-134.328540 196.171430 -125.743350 13 1
130.912380 213.160540 39.496693 6 1
-43.812740 162.904720 32.828411 0 0
105.567230 146.358090 -22.214010 65 1
43.528561 39.031162 95.961563 10 1
-78.578712 283.910340 -37.650734 62 1
-58.157749 293.323610 -54.681034 2 1
147.669800 224.905060 -82.655739 23 1
5.553061 154.805180 -70.007225 32 1
27.555676 50.220810 100.970990 10 1
39.956146 176.336690 76.118797 46 1
117.106800 69.620636 -3.499695 35 1
-31.601742 395.586760 -76.972237 4 1
-3.742875 184.836140 60.058212 64 1
38.211880 175.950940 44.265762 64 1
38.239647 178.602680 27.779276 54 1
56.611534 190.358030 81.732185 46 1
-44.610157 283.571470 -87.804199 2 1
-33.640713 295.450290 -40.844631 2 1
-35.718418 277.629120 53.796383 30 1
-91.330040 96.244438 -46.023479 25 1
139.757430 88.980019 -36.202644 8 1
33.009960 160.064380 32.116417 0 0
3.974597 19.341488 -3.524686 0 0
23.414204 162.905060 -26.741243 57 1
-32.354809 128.462630 -21.480295 0 0
-27.861029 280.871610 39.804970 30 1
86.277672 181.763550 89.676041 46 1
84.440742 147.599010 -30.536718 65 1
-14.163806 158.965010 -44.056843 68 1
-26.580050 88.146996 -13.319467 0 0
-161.787930 205.742860 -95.420456 13 1
107.787380 152.214400 -11.860325 65 1
-104.517210 184.060730 -35.053963 26 1
-17.538109 184.656070 34.538940 64 1
-23.797157 296.010100 13.193260 30 1
-14.869275 266.732700 -15.995602 63 1
29.796944 202.199980 44.687504 64 1
-27.827194 299.968320 -60.379681 2 1
1.509407 52.904125 -27.160210 0 0
-27.186094 169.496060 -32.873814 0 0
8.440731 304.771760 -54.642731 19 1
-42.657715 371.193360 -32.237843 5 1
-38.668022 179.049190 58.869755 48 1
24.807823 179.079220 81.910347 64 1
-3.135968 306.481660 -119.177920 70 1
-65.301659 197.243800 -80.728813 16 1
-8.466434 347.625180 -49.619904 0 0
82.216957 178.249080 39.771255 47 1
30.078012 102.286450 8.812771 0 0
57.658333 380.266390 17.804802 69 1
-13.324354 155.128560 102.607800 38 1
58.911530 195.444370 -111.276220 22 1
-54.185177 145.698910 8.841517 61 1
6.883434 146.347580 -113.842500 17 1
-138.457050 233.190020 -30.802649 62 1
-18.570398 138.024720 9.817350 0 0
106.478500 222.909230 45.993546 6 1
28.161787 96.192825 -18.449270 66 1
-41.109837 177.789150 -30.508791 58 1
-30.670788 167.202760 123.920050 9 1
1.361495 203.341400 81.924217 33 1
22.785730 68.228981 31.420372 0 0
82.010223 178.533770 105.822590 46 1
93.402603 213.870380 -57.739719 0 0
-18.088224 144.858140 23.977509 55 1
101.272290 238.768880 -80.368553 23 1
58.535931 209.041870 50.126884 46 1
10.165508 96.148209 1.755236 0 0
61.951488 201.105040 -44.809593 0 0
-47.155415 278.282010 42.163563 30 1
-41.058022 283.524290 15.798027 30 1
-112.214170 167.818070 10.519341 26 1
71.128006 168.756650 8.548778 54 1
33.058983 177.840420 57.687405 46 1
-163.231220 185.058210 -132.341340 13 1
14.036602 28.206936 -13.927401 59 1
6.960064 136.021730 -131.742520 17 1
11.690066 145.518880 -95.264267 32 1
-27.558409 117.841060 -6.917786 0 0
19.369440 67.939583 -3.101618 0 0
9.772371 379.180790 -54.523357 3 1
-4.724966 58.531284 -15.175023 0 0
-67.672783 204.843250 -25.137316 0 0
-97.693001 320.082760 70.500969 12 1
87.822021 160.463880 78.872543 7 1
81.875435 180.421160 -51.270721 43 1
-55.059826 140.006670 21.831049 61 1
-73.500885 172.960970 -52.520142 0 0
64.212814 179.204150 41.652363 47 1
57.453808 232.291110 -43.841473 21 1
-4.992513 272.297090 -31.586065 63 1
-173.734190 179.379680 -136.232300 13 1
-29.313263 166.456390 1.697796 0 0
-6.575099 103.672580 -9.391151 0 0
-117.832980 198.255870 -84.506187 13 1
109.017740 231.581630 -117.491910 23 1
-35.208626 140.562650 8.930383 1 1
21.116762 125.215290 -0.454651 0 0
38.436287 133.569600 60.909809 44 1
-57.944851 158.214080 122.665590 39 1
-20.009871 65.785721 -11.878433 0 0
59.419731 97.040863 -10.278705 49 1
-66.976357 156.174900 -54.787762 42 1
-8.474399 46.084759 4.896408 0 0
-126.581720 197.697020 -132.500150 13 1
24.131138 132.988270 19.171478 0 0
62.134357 210.808230 -56.383575 0 0
2.881323 148.053360 7.491670 0 0
31.138865 133.670060 -6.261151 0 0
69.821594 171.888500 -46.853493 43 1
8.044113 313.701840 -111.337520 70 1
-90.184433 269.251040 -9.466728 62 1
30.491095 297.118190 -61.306580 19 1
44.416328 39.897045 73.437500 10 1
147.464720 187.841000 -42.306641 34 1
40.523155 375.815030 0.721191 45 1
-78.618126 362.036350 -47.650761 5 1
61.768158 205.403630 61.829784 46 1
34.199715 65.391724 28.385611 0 0
-37.876225 176.665310 -11.004810 0 0
113.441600 167.828690 53.331825 7 1
65.211052 150.499330 33.847843 65 1
-70.073059 171.805330 72.230125 40 1
37.782879 46.733295 81.489197 10 1
143.126430 218.679660 -99.513046 23 1
-3.341623 115.470060 -5.971906 0 0
115.055950 216.000520 47.774147 6 1
62.049198 178.826920 -7.427960 53 1
-142.769070 206.393910 -97.509727 13 1
-130.296460 217.317470 -74.559479 11 1
-15.233349 174.825130 -16.436316 0 0
35.949291 172.890640 -29.239389 0 0
2.844217 49.559799 90.173775 10 1
20.377731 153.166900 -81.278191 32 1
-13.886364 379.753630 -74.899017 3 1
-1.907560 17.220566 -14.266328 59 1
18.064848 315.205630 -45.476906 19 1
68.864067 217.271060 -43.598042 21 1
-14.148245 296.409520 -70.034180 2 1
-40.673771 174.582260 103.416950 39 1
-79.970482 217.181410 -2.452376 20 1
150.198700 185.199010 -54.453064 34 1
-75.072327 235.775680 -65.957115 15 1
196.445280 213.246990 47.925404 56 1
53.353638 81.160767 8.558852 51 1
49.423054 174.931760 44.068550 47 1
152.689580 192.969390 -118.978360 23 1
71.041611 184.758740 20.302748 47 1
104.980710 94.508774 -17.251244 36 1
44.269421 120.533530 71.364128 44 1
67.372482 180.424560 -115.443810 22 1
46.455883 189.626460 28.444815 47 1
-2.178153 159.361800 -91.319626 32 1
111.566930 221.732730 28.063374 6 1
-45.485004 362.990600 -49.712414 5 1
-55.074490 173.363690 -21.325041 58 1
-104.556210 193.652130 -88.361305 13 1
-33.267445 293.494050 8.031578 30 1
-93.847481 181.537890 -60.827938 26 1
-97.292671 263.505980 24.589066 62 1
-11.098624 309.408110 -94.492470 70 1
12.971828 167.428020 95.506653 38 1
29.431324 125.794770 10.188025 0 0
50.024780 200.748580 50.124348 46 1
6.470620 205.032180 61.980934 64 1
-4.097239 160.919300 16.777008 0 0
2.746149 300.745850 -46.539890 19 1
-30.789566 184.989590 -7.962655 0 0
-44.357651 210.918750 -38.492317 28 1
37.391399 37.660599 107.274440 10 1
27.646122 100.502700 -4.402545 51 1
69.954445 148.883000 -21.417191 65 1
1.817076 56.289433 2.033378 0 0
-28.170218 392.707090 -96.998207 4 1
-63.050121 100.063870 -87.254097 24 1
11.248129 230.050750 -33.554264 0 0
32.990734 309.591830 -44.600803 19 1
-13.682877 152.442230 -67.782608 42 1
-26.679440 381.114410 -68.119957 0 0
-27.056761 296.740200 -11.205523 31 1
-46.143822 164.052430 112.087850 39 1
162.119520 187.765730 -16.350681 34 1
56.153641 177.468340 2.963540 54 1
8.713113 301.450870 18.311674 30 1
-35.435863 368.293300 -58.398228 5 1
15.056972 37.699722 -20.690342 59 1
-44.504692 156.559710 75.431847 41 1
30.222149 52.261219 74.979187 10 1
-69.879547 288.058410 -35.517632 62 1
52.984116 171.255620 15.361598 54 1
10.359162 194.754010 -13.806197 0 0
21.953941 270.922520 64.948730 30 1
-51.340069 147.772830 -137.655900 16 1
-49.852432 294.681030 -31.860693 2 1
154.127850 179.427190 -127.348320 23 1
120.888740 161.537340 61.453358 7 1
-13.246146 316.744200 -111.762330 70 1
67.019165 180.287860 52.479248 47 1
120.255460 156.251790 75.910316 7 1
-3.515673 383.653900 -44.471863 3 1
43.216831 135.623200 12.932348 65 1
-1.665641 303.349580 -88.254196 70 1
-77.047691 269.264860 -78.596779 2 1
108.965280 85.707375 -6.232557 35 1
-90.245453 223.519590 -23.828680 20 1
-10.305714 306.024050 -112.127330 70 1
-117.273410 83.549896 -84.841278 14 1
69.536667 153.704880 14.814654 65 1
69.276390 204.271870 -92.742493 22 1
-56.874435 276.717770 7.915796 62 1
-7.845891 295.133850 23.218086 30 1
-76.692177 282.908600 -68.873100 2 1
110.702640 103.941090 -9.367747 35 1
38.782722 207.553270 -81.696350 22 1
-46.041927 144.740390 3.273642 0 0
8.532966 194.349880 89.210236 33 1
153.364140 83.724724 -9.780061 8 1
-91.470764 93.831001 -96.772720 14 1
14.510938 82.315620 0.164678 0 0
1.784323 93.300575 -5.825311 0 0
-61.932171 322.091160 83.724701 12 1
11.936756 169.579760 2.172501 0 0
-3.990991 88.851562 3.317242 0 0
51.167885 149.735240 16.868135 65 1
-33.863342 282.151760 22.998667 30 1
79.281319 174.165820 -1.654187 0 0
-91.348213 102.214370 -60.184307 25 1
-2.922117 172.931580 15.589447 0 0
-47.990322 145.001820 30.781315 0 0
12.747507 40.889915 7.600298 0 0
18.188923 194.069520 86.354790 64 1
-56.821980 169.743070 114.579310 39 1
46.943016 197.772020 -98.713501 22 1
35.401390 367.974610 8.725167 69 1
37.916901 378.499450 38.737450 69 1
156.535190 174.536710 -51.959476 34 1
-67.434341 290.475520 -55.549034 2 1
29.894617 157.201520 -31.570900 0 0
-129.288060 243.308200 -33.799015 62 1
19.579401 39.308723 42.343887 0 0
-1.660250 243.985990 -18.482077 0 0
-53.641926 186.884830 -16.556671 0 0
27.884525 204.285400 -106.897610 22 1
46.338631 212.459430 -71.498344 22 1
-11.127824 60.319241 -0.643695 0 0
1.542903 171.553770 -28.429028 0 0
145.577300 236.305510 -72.400398 23 1
-60.527626 160.576250 -46.397633 0 0
-22.036980 152.968170 -111.096860 17 1
84.909431 92.649040 -28.580420 36 1
23.976280 171.532760 88.032394 64 1
-106.254560 190.630020 -16.415998 26 1
34.147617 102.893970 -22.279356 49 1
97.326462 161.941700 53.241547 7 1
79.791756 155.912320 -1.721801 65 1
-25.199877 376.052830 -59.916992 0 0
-106.044560 182.869810 2.610959 26 1
16.638565 334.962310 -3.212570 55 1
-84.966156 278.318180 -11.388350 62 1
-28.041723 67.369354 -25.302889 0 0
38.667679 57.545471 92.928513 10 1
12.350859 310.314000 -36.644669 0 0
130.044110 211.852970 -126.244950 23 1
49.699722 182.274440 54.839035 46 1
-33.836403 145.474840 -145.515880 16 1
-68.774040 280.919980 9.762816 62 1
56.619656 375.072330 -7.219951 45 1
89.626320 185.996110 -60.624779 43 1
-118.913710 75.397255 -98.982056 14 1
3.715698 158.674130 -44.936325 68 1
-59.880280 280.849700 -7.242554 62 1
-18.497211 302.284480 8.158541 30 1
11.854911 159.855130 -31.501354 0 0
19.058268 177.838820 -22.692047 57 1
98.313538 154.364730 -10.609386 65 1
141.361240 204.679090 -7.231044 0 0
24.519558 141.610550 5.189422 0 0
46.986000 188.261170 86.362770 46 1
19.436342 56.612103 23.733435 0 0
11.719062 144.756320 115.909710 38 1
-36.088184 167.439960 -14.160089 0 0
-5.222890 143.685490 116.590460 38 1
5.134831 21.622578 -22.737530 59 1
-138.611910 213.745090 -55.745586 11 1
49.676094 235.002090 -27.473154 21 1
-41.383324 372.049260 -44.528122 5 1
-18.353271 142.914430 -134.175460 17 1
-126.260900 169.796330 -55.432487 26 1
135.645650 206.756520 10.194649 6 1
-18.630571 287.840550 -67.607628 2 1
0.399832 376.247770 -39.780010 18 1
12.367247 96.391617 13.260424 0 0
-31.828856 398.136380 -89.945862 4 1
-57.581142 207.881450 -51.301071 28 1
-109.462710 194.293030 -101.037930 13 1
107.434120 83.212921 11.633475 35 1
129.865100 207.071670 -37.511887 34 1
92.032951 236.434890 -89.965111 23 1
-1.011601 353.253200 -21.561926 18 1
-93.768456 317.237520 54.620449 12 1
-20.780319 231.580920 -22.521442 29 1
12.630259 382.555660 -66.447113 3 1
27.950544 116.444800 11.979980 0 0
20.768513 186.256090 52.135372 64 1
52.792934 184.690920 -124.722220 22 1
-28.037333 125.842500 9.249771 0 0
31.105263 138.827740 -100.613920 32 1
-6.416062 161.587140 -25.493534 0 0
95.253120 141.983660 -32.470371 65 1
-151.645340 196.728560 -122.217350 13 1
10.302078 347.123200 -20.989357 18 1
-32.074047 208.465850 -27.126984 0 0
143.869130 85.507263 -18.718105 8 1
-24.550457 104.815180 -10.268192 0 0
26.792351 172.090910 -18.821772 57 1
-7.931453 -0.781257 2.684154 0 0
-17.686846 101.604930 -31.242775 0 0
27.736858 52.537163 5.033763 0 0
49.519016 111.889370 86.091118 44 1
-32.593513 138.550830 18.510189 0 0
51.801628 367.243500 2.133824 45 1
16.293079 173.558840 61.903515 64 1
-139.870740 161.196090 -9.784987 26 1
-12.674563 138.100200 60.671638 0 0
-46.735062 187.952040 -10.095344 0 0
-10.306815 192.540080 109.795490 33 1
-4.217222 27.134480 -1.804980 0 0
133.559050 208.397900 28.295525 6 1
63.746521 137.216890 54.570267 44 1
56.481899 152.320340 -19.455812 65 1
-4.213783 166.798000 91.648102 38 1
43.309078 91.925339 7.236425 51 1
37.138145 145.533130 11.269118 0 0
188.608260 208.505950 20.848738 56 1
-5.429094 159.094830 -37.229141 68 1
78.702248 209.172900 -70.732056 22 1
153.855300 193.720520 -6.328896 34 1
85.123108 189.542140 -88.913956 22 1
-0.084168 278.100800 49.618099 30 1
-73.389893 279.097410 -77.755424 2 1
4.923354 220.790680 -23.396408 0 0
-29.842506 217.540420 -29.607977 29 1
60.549267 195.712680 -94.977737 22 1
-48.496113 300.030060 -46.944916 2 1
-104.563050 179.087950 -65.707100 26 1
-107.438140 267.974760 -36.713207 62 1
-57.921574 201.796970 -77.014870 16 1
24.342228 167.063140 9.255139 0 0
1.281662 197.064930 98.243225 33 1
90.577583 195.857700 -63.619896 43 1
49.949741 172.128460 -28.014980 53 1
37.072208 374.745210 -16.351828 45 1
29.772762 276.808990 53.883587 30 1
143.274480 210.116850 26.365128 6 1
160.830380 72.295677 -31.225040 8 1
-22.931025 267.040560 -31.955484 63 1
10.714603 49.537868 11.171711 0 0
-32.064831 166.019810 17.446566 1 1
7.105537 123.773690 -9.984343 0 0
-11.760611 64.755112 -28.767647 0 0
3.148994 114.236910 40.228466 0 0
45.243256 235.693910 -13.530508 21 1
-4.806470 9.512265 -9.753342 59 1
-97.591400 191.106660 -25.952799 26 1
-158.329610 200.717990 -106.953680 13 1
-45.847004 184.555040 55.371960 48 1
-71.561508 168.239520 117.189610 39 1
21.818604 92.508400 4.591528 0 0
-6.533688 126.162640 50.808460 0 0
0.062838 162.644590 -70.329109 32 1
-52.325951 293.087070 -11.291880 62 1
-25.755758 163.034760 131.351700 9 1
-11.330064 169.659880 -43.692577 68 1
-123.532840 201.920390 -113.597310 13 1
134.504240 194.379640 -50.966694 34 1
-72.066681 161.188430 -130.008030 16 1
42.112789 271.138580 62.283981 30 1
-96.287979 219.624980 -9.693453 20 1
11.230669 296.481600 -19.163811 0 0
12.673968 183.036290 82.037849 64 1
-55.654419 275.720280 23.835596 30 1
-56.590557 317.235900 52.529736 12 1
18.522312 109.003650 0.720534 0 0
-95.579842 198.065430 -37.862061 26 1
36.325264 169.810420 25.261000 0 0
51.226311 49.437176 103.379430 10 1
41.945396 24.114773 101.267840 10 1
91.542572 234.553960 -70.750290 23 1
115.972340 249.556370 -68.439331 23 1
47.908684 182.220110 19.443529 54 1
122.951670 214.756440 1.253216 6 1
70.172157 191.126620 -98.138313 22 1
0.828901 145.100950 -9.324762 0 0
-60.664295 284.847560 4.210213 62 1
-70.490356 289.900940 -67.290688 2 1
-25.554813 226.528090 3.830981 0 0
85.908768 63.931801 -35.726398 36 1
99.754364 90.146088 -31.843037 36 1
138.053100 215.831220 -113.269240 23 1
-125.532460 223.882110 -58.603016 11 1
-104.676350 103.208920 -48.335083 25 1
-48.099453 214.257510 -47.470951 28 1
27.071808 145.674800 -20.329039 0 0
-0.786200 269.380920 -7.741387 63 1
9.744440 282.187930 -24.210114 0 0
-155.593410 187.334120 -137.139800 13 1
-94.876106 101.504020 -39.220448 25 1
-29.901939 272.893740 59.844139 30 1
-112.614260 232.311660 -57.535885 11 1
32.523899 372.934810 25.411386 67 1
-23.696972 128.851500 -12.838889 0 0
60.380367 180.365710 -36.800549 43 1
100.031860 155.038560 5.940072 65 1
85.408981 169.972690 -57.063377 43 1
25.744650 138.540360 47.197269 44 1
-77.191505 112.868060 -53.848362 25 1
4.702396 305.215550 -75.096649 70 1
2.190157 179.369780 -13.401117 0 0
19.636724 295.341710 30.844437 30 1
-155.497150 206.361160 -58.766850 11 1
96.211884 237.805560 -108.661880 23 1
-82.446953 167.632980 67.429474 40 1
-93.559151 268.726260 4.492640 62 1
106.333470 161.439540 80.774963 7 1
-25.122980 182.737590 40.225975 48 1
-14.645871 173.967410 -26.114687 0 0
27.217377 125.399590 65.237259 44 1
1.388457 380.214020 -68.439117 3 1
-20.546181 281.900390 -34.140289 63 1
33.298855 161.369900 13.711591 0 0
112.092470 72.832932 10.541533 35 1
-41.768486 160.185030 14.552871 1 1
10.693922 140.822630 3.831419 0 0
-85.371849 151.330750 74.133339 40 1
-26.371710 285.737520 -80.618629 2 1
41.168335 139.433730 52.719322 44 1
54.414146 186.600650 -111.151180 22 1
-42.544952 160.189560 4.159769 1 1
-57.919041 175.235960 101.969080 39 1
-93.676300 202.196670 -17.026297 26 1
40.526325 151.954640 18.208811 0 0
57.555351 193.306170 -27.748552 53 1
21.056837 204.694380 46.791630 64 1
-40.877838 186.133410 86.988976 39 1
53.810909 228.856720 -11.557142 21 1
-28.560305 174.809950 -23.927288 0 0
31.684229 38.038250 99.245857 10 1
-118.212990 177.547850 -5.523676 26 1
-105.570280 94.553192 -51.399014 25 1
3.275904 270.736720 65.952805 30 1
25.098379 309.817020 -59.482601 19 1
21.425783 138.686650 -102.279960 32 1
17.534458 375.783570 32.304783 67 1
-17.274166 114.054590 -41.484753 0 0
46.529598 188.042360 98.852005 46 1
-16.432234 155.488480 -95.962341 32 1
24.714371 49.921391 82.416359 10 1
137.826600 92.466675 -26.798655 8 1
-95.303520 93.033478 -82.335167 14 1
-8.130687 275.886080 -11.529933 31 1
0.738219 287.718720 -58.642273 19 1
-38.291889 395.508240 -83.311325 4 1
93.275208 162.843980 24.705793 7 1
57.618336 186.943100 90.892250 46 1
58.398346 223.930270 -28.799564 21 1
-32.505817 218.032000 -76.818192 27 1
0.799862 5.674657 3.636531 0 0
-12.196472 165.075490 96.087318 38 1
-125.988110 171.005110 -5.710876 26 1
90.470978 178.763440 -107.098160 22 1
-31.029226 150.616730 -6.158998 0 0
42.863640 192.914470 -107.773650 22 1
59.109623 120.383010 78.054565 44 1
-16.105726 160.626300 16.776701 55 1
26.734541 85.486588 -19.914059 66 1
27.322647 367.109620 18.094162 67 1
1.616630 378.931760 31.796675 67 1
-19.164875 286.213590 33.472492 30 1
-78.374344 271.780240 2.747717 62 1
-17.442566 273.921690 -40.054081 63 1
65.575127 142.903780 47.627399 44 1
41.396088 235.092240 -22.609587 21 1
9.356741 149.560410 -87.279579 32 1
-25.636509 158.832110 85.927780 41 1
-95.920059 318.741820 100.354290 12 1
-34.460541 381.238400 -72.909607 5 1
51.980049 372.007480 -15.390688 45 1
-111.024930 174.630660 -57.261353 26 1
41.431515 170.427400 4.614867 53 1
-48.417953 159.065840 -68.600212 42 1
-4.677892 225.406810 -34.464180 29 1
-129.332750 239.242130 3.464208 62 1
-70.606697 325.332920 89.475945 12 1
-1.287028 155.205080 105.601810 38 1
-67.572746 166.473970 -122.802380 16 1
-60.475487 189.600170 77.808449 39 1
-20.904367 56.543980 -14.491917 0 0
38.988422 185.295260 34.044601 64 1
103.911120 223.806530 33.525112 6 1
29.993181 128.221830 56.984493 44 1
-13.034271 195.619310 87.364227 33 1
-29.855280 212.061420 -6.481115 0 0
-128.806670 173.891450 -40.562622 26 1
6.805548 40.645828 30.204258 0 0
-67.723503 176.584350 -110.328720 16 1
2.248718 384.129120 -53.331329 3 1
-97.436981 197.097760 -8.640778 26 1
7.991756 312.597660 -17.610519 0 0
8.438506 167.334030 30.198158 0 0
-48.090240 164.420840 -59.582310 42 1
-91.083015 190.158620 -47.206039 26 1
-17.769655 123.285010 3.578039 0 0
16.378042 71.798683 18.085321 0 0
42.421951 180.725010 84.212227 46 1
104.924240 146.351520 -5.564342 65 1
-9.281073 158.285770 2.406960 0 0
-60.450481 167.978620 129.934270 9 1
-29.710564 115.848500 1.653807 0 0
-61.464310 190.978550 -86.108543 16 1
24.560020 193.954640 37.522945 64 1
-5.245543 150.825500 -105.577880 17 1
22.422396 167.257780 -34.613449 57 1
15.023651 160.942830 -80.850739 32 1
82.165489 170.054000 49.386955 7 1
15.197891 155.953290 -71.319199 32 1
29.571991 157.786710 24.036089 0 0
8.421099 35.058689 91.032692 10 1
-44.884724 172.235990 -14.819534 0 0
30.545128 156.339970 -20.927948 0 0
0.822868 43.925442 -2.410844 0 0
-16.297607 88.680641 -10.044359 0 0
-39.490051 301.048520 -45.332016 2 1
-179.044780 182.686040 -115.669350 13 1
4.585120 79.308876 -7.185504 0 0
-57.600388 212.237980 -42.763443 28 1
39.375404 183.023060 -121.375740 22 1
58.876495 188.958150 29.585617 47 1
117.143590 215.310500 31.078674 6 1
-55.935925 151.804030 89.831245 41 1
-51.087944 163.556750 -129.521260 16 1
-26.433714 141.485290 33.958542 55 1
73.449165 153.947450 35.059254 44 1
-23.552929 168.440350 40.645016 48 1
-10.742755 198.207260 38.093956 64 1
45.269531 126.934070 62.642387 44 1
48.305954 378.358120 28.205816 69 1
-24.690928 398.061040 -82.697464 4 1
73.000435 195.288970 -81.019547 43 1
149.497070 218.743910 -90.040138 23 1
-64.452690 163.725570 113.995530 39 1
-19.385506 191.106550 107.562780 33 1
-47.698448 200.854260 -85.801018 16 1
131.419510 160.287310 92.635719 7 1
88.375389 165.408220 66.832329 7 1
-88.177055 205.183230 -30.155903 26 1
-40.181641 157.483470 -134.463990 17 1
-13.080691 147.546110 9.890120 0 0
12.859629 157.417540 -45.713383 57 1
54.406204 183.674090 70.538628 46 1
158.419800 195.040970 -100.539790 23 1
49.736710 98.918953 -14.296660 49 1
-30.285820 176.893800 54.871223 48 1
10.639397 294.806090 26.245026 30 1
55.782761 220.961810 -66.192070 22 1
-14.244668 290.015750 -55.231888 2 1
-47.832062 172.023190 -31.995329 58 1
41.427330 181.319550 2.012437 53 1
-18.511963 149.859740 -4.232327 0 0
34.575092 91.528999 -5.659379 49 1
9.410045 207.313130 82.106773 33 1
84.214279 201.922970 -79.025497 22 1
-76.784859 101.546050 -55.785385 0 0
11.270195 386.931490 -39.123531 3 1
-28.948362 160.141330 97.524742 41 1
-52.465977 282.685390 -80.450592 2 1
-69.610992 89.597397 -51.629982 0 0
21.313931 156.387470 -17.556566 0 0
150.545030 81.576935 -31.231018 8 1
-77.041702 176.115480 61.750580 40 1
-47.575134 294.432710 -76.174698 2 1
61.747265 190.040700 56.208328 47 1
5.904143 179.566860 -1.820429 0 0
-133.133910 163.897090 -28.552097 26 1
-60.829739 161.586780 -58.512241 42 1
-108.276890 87.702858 -93.574570 14 1
74.123482 88.290474 -23.612888 36 1
13.037702 175.687390 91.705566 64 1
190.184170 214.460530 13.538870 56 1
83.087502 199.389720 -35.909176 43 1
154.313020 204.008850 15.537408 56 1
44.777687 206.912860 -99.106667 22 1
16.355825 367.980800 6.090054 67 1
61.302715 166.141650 -1.261739 54 1
-29.288683 159.124890 -69.350426 42 1
-44.932873 320.016300 61.054131 12 1
158.264590 77.129799 -13.400802 8 1
-32.851231 155.405010 -42.088936 68 1
-21.449135 389.443600 -90.756760 4 1
6.287257 198.137880 70.138672 64 1
-51.882900 373.458890 -59.279903 5 1
179.135060 211.842100 4.050895 56 1
45.404198 49.867855 68.205605 10 1
-33.646397 385.428280 -91.974075 4 1
44.826580 127.823590 19.194092 0 0
162.473750 182.421550 -40.780956 34 1
81.850403 185.274480 -73.346764 43 1
49.114792 374.937380 -1.459789 45 1
-64.577560 361.834260 -52.593056 5 1
24.527994 149.024460 -88.600388 32 1
156.847980 206.342580 -91.603111 23 1
-47.102669 324.309330 78.721710 12 1
-101.779140 79.741058 -103.696300 14 1
-19.841980 299.400360 -41.176319 2 1
23.733377 159.711350 -42.608311 57 1
63.543129 84.889633 -10.126541 0 0
38.118324 162.748460 -35.427414 0 0
-66.352554 285.930730 -25.231995 62 1
-81.430634 166.066480 -122.117900 16 1
