-67.553772 120.291480 9.008808 6 1
-49.115730 306.819520 81.852402 11 1
-28.892059 324.054780 56.161758 11 1
-101.853980 259.286800 75.668282 3 1
-122.421200 122.762030 121.341660 38 1
-24.554239 249.026340 6.062372 0 0
-45.142410 337.213530 -60.683331 36 1
-67.592735 132.529890 -54.574005 25 1
45.106953 104.627960 -26.960413 17 1
-8.860313 120.140120 25.980808 0 0
76.219040 293.251950 -81.599815 33 1
-54.508564 336.520200 -73.042938 36 1
27.193995 132.097980 81.252991 9 1
-61.945122 249.420240 52.694149 13 1
-32.835327 343.475830 -73.080322 36 1
-19.179804 74.432243 -15.094625 0 0
-1.401214 344.216920 -108.135150 34 1
-44.489075 190.641910 17.397446 0 0
-82.741241 121.497710 -37.807014 25 1
10.769967 144.389660 -28.688503 28 1
81.857292 197.469570 -61.328476 12 1
-91.836594 246.438260 42.137897 14 1
149.945630 175.543230 -55.516846 1 1
43.822945 125.300960 3.857632 18 1
-30.900303 338.488220 45.612167 11 1
-72.918289 325.463710 45.895153 11 1
86.316933 200.542910 -15.194516 23 1
-62.110580 171.016600 69.435440 5 1
121.961850 197.415150 -88.149925 1 1
-26.954960 156.080400 -17.954062 20 1
145.212660 165.062470 -97.489967 1 1
-50.057327 137.280500 -47.996494 26 1
-69.230782 334.049930 -54.465397 36 1
35.390514 119.749660 -16.203432 17 1
-85.438087 244.976780 54.534210 13 1
-17.119749 237.605550 0.168932 0 0
-81.239189 112.788190 -23.263386 24 1
47.749226 152.347560 -25.020494 0 0
-71.094414 329.005860 -88.399315 36 1
117.050550 172.003130 -1.384125 23 1
-107.664620 162.006150 92.357391 38 1
-44.682442 163.544020 96.268364 5 1
-15.739822 147.492000 -40.264969 21 1
-11.157439 155.192980 2.850011 0 0
-6.077071 251.030610 -12.175947 0 0
-66.263603 332.138820 -2.390693 4 1
-113.742370 302.737060 -7.612915 4 1
33.559906 142.752820 -18.632257 0 0
135.895740 181.710880 -59.151386 1 1
62.053936 177.784960 -108.817630 12 1
81.210602 298.944430 -56.907368 33 1
-62.694592 108.300250 -36.559277 26 1
-61.935818 146.252500 50.001316 0 0
29.166090 279.970210 -86.152069 16 1
-105.928470 239.312180 21.558298 14 1
55.246571 300.261260 -16.203192 15 1
-20.075033 337.135590 21.790775 8 1
-104.985920 140.920810 0.960053 2 1
-72.139023 157.131150 87.233063 5 1
112.278220 188.398640 -32.699863 23 1
38.405880 107.861020 -12.003985 17 1
90.317467 287.112550 10.111008 15 1
-32.859440 335.656710 -123.183420 35 1
-113.993710 302.335480 -20.295725 4 1
-50.403362 323.365720 52.809235 11 1
-26.849186 340.038090 -107.008960 35 1
-45.312382 121.978900 23.471233 32 1
-104.511030 153.999540 37.031593 2 1
-131.223460 315.481960 54.577736 37 1
-6.666300 112.604350 3.997607 0 0
46.291031 277.351070 -80.565071 16 1
-65.922165 131.904790 3.858415 24 1
-3.843109 61.991997 -2.995430 0 0
-114.181350 133.269620 36.685265 2 1
-56.645622 146.292450 -36.416046 25 1
-91.721474 320.449680 9.357852 4 1
19.942921 136.150510 72.207741 9 1
25.676569 330.768980 22.956379 7 1
46.338795 136.361210 25.385105 18 1
22.798323 335.456850 -112.936610 34 1
-55.897434 206.143360 33.304184 0 0
-18.204329 116.255780 6.546971 0 0
100.421050 192.368530 -34.206520 23 1
-72.687462 250.137210 30.780365 14 1
62.530914 197.833500 -85.626709 12 1
123.687070 187.714170 -57.321262 1 1
-76.274368 326.826320 -73.199928 36 1
-4.067872 301.359250 -9.359573 0 0
-33.468914 151.214050 -7.359496 20 1
54.569595 127.737930 74.418869 10 1
100.164020 285.612880 -70.024384 33 1
-105.443370 158.056030 103.708190 38 1
105.393970 181.938710 11.984680 23 1
-78.883537 333.647280 33.807999 4 1
105.307620 187.109790 -9.961224 23 1
-109.350220 142.694400 20.648331 2 1
29.223372 137.217820 58.165054 9 1
-31.661865 271.966250 12.980907 0 0
-76.855804 161.957150 60.415234 0 0
-68.439583 333.130190 -66.569984 36 1
-50.846825 152.956540 -16.258907 20 1
33.242180 284.012480 -59.118557 16 1
-10.837073 95.031784 12.280693 0 0
-14.895093 137.580640 -74.439644 22 1
-27.071987 115.703770 14.879207 0 0
-115.804400 133.485530 49.497532 2 1
66.854912 111.515390 81.069901 10 1
14.593812 156.150820 19.428493 27 1
130.364780 181.147190 -103.144880 1 1
8.135199 344.292940 -76.218468 34 1
48.647312 192.335630 -102.244760 12 1
3.369140 280.571470 -62.797768 16 1
-115.074030 261.747340 58.796665 3 1
5.863776 131.964040 -4.882693 0 0
-8.542086 215.321850 -5.957482 0 0
-124.273580 299.476500 -25.636597 4 1
70.729202 297.451630 0.559599 15 1
-6.979273 76.551651 6.307228 0 0
60.331966 299.454160 -4.991048 15 1
-65.056007 216.972150 39.291119 0 0
-0.892128 192.097290 -14.515152 0 0
-110.289090 129.620700 0.458491 2 1
54.467621 292.191220 -63.471760 16 1
-61.777973 245.494110 73.498741 13 1
26.554932 333.057460 -92.328033 34 1
-27.036129 343.743230 -87.269386 36 1
56.337662 100.294020 -21.236208 17 1
55.597912 126.706190 57.250919 10 1
-155.076100 122.416150 87.677544 38 1
67.832222 174.115980 -35.950272 0 0
-83.821877 156.194470 99.535011 5 1
-51.084400 125.479980 -47.243973 26 1
-13.008438 69.405914 -3.108568 0 0
-74.279305 313.283600 61.940044 11 1
-54.436047 121.269610 -15.575561 24 1
114.238330 174.571410 10.156984 23 1
-49.640213 138.679080 -26.926151 26 1
-58.130573 241.788150 60.842056 13 1
60.302990 299.024630 -33.582981 15 1
70.383659 170.878650 -114.402470 12 1
-106.346530 319.238250 70.439957 37 1
50.119026 199.168850 -92.952782 12 1
-82.625793 251.457960 63.969620 13 1
42.312073 289.794980 -36.674576 16 1
-30.800892 126.932510 -23.561405 0 0
147.084520 177.515750 -76.899567 1 1
-4.794023 239.697240 -10.187785 0 0
-57.490650 131.900180 125.044640 5 1
150.568680 166.046450 -75.084488 1 1
117.923390 166.422200 18.747322 23 1
-92.260925 114.741630 12.891851 6 1
10.160004 131.187330 13.806654 0 0
-92.442337 243.467220 78.310120 13 1
49.984440 137.630070 53.769730 10 1
-57.098381 341.533260 -50.138260 36 1
-97.109070 316.554630 -9.977473 4 1
14.633341 129.520100 -18.985661 0 0
-62.545555 325.729890 40.265530 11 1
-48.645069 137.594040 36.302193 0 0
2.483663 185.402280 -4.992940 0 0
-41.673859 141.923950 120.640400 5 1
24.735794 290.650270 -67.202019 16 1
-79.913971 239.604400 63.217499 13 1
-28.616137 130.475080 38.628788 29 1
-46.107994 140.238340 -58.379993 26 1
-0.425298 257.781190 -3.112770 0 0
44.481865 338.105440 -84.477242 34 1
41.814732 298.629210 -28.191948 15 1
-14.651485 122.008870 44.815182 0 0
-133.143390 125.631240 108.615330 38 1
127.996560 184.119670 -68.199516 1 1
-83.968025 165.660920 42.490837 2 1
-30.572144 145.760730 -57.090870 21 1
80.867279 291.928560 -33.813446 15 1
-2.921425 339.482670 37.391266 7 1
85.810936 286.548950 -90.663559 33 1
41.745361 116.739920 -3.267273 17 1
-76.814865 322.169710 -14.201612 4 1
-90.772141 161.435550 77.703445 5 1
-39.841618 339.865570 -81.975708 36 1
46.167736 302.058200 -47.202229 16 1
52.341282 120.179820 -17.613420 17 1
-40.617355 121.662120 -52.666039 0 0
16.897089 230.703600 -18.083725 0 0
-18.017122 99.022087 -7.997097 0 0
11.893423 328.157650 24.728466 7 1
-69.901756 241.843550 56.748859 13 1
-126.190320 323.116820 61.165272 37 1
36.242065 131.098210 23.807518 18 1
14.694316 335.592010 -103.756320 34 1
100.218650 280.846620 -84.349136 33 1
-94.893013 328.204930 45.295677 37 1
-71.369118 145.913740 115.396870 5 1
-19.095566 104.586650 22.484943 0 0
74.506668 288.572630 14.791887 15 1
-96.996597 160.507430 27.466890 2 1
36.884975 339.553380 -75.423401 34 1
-62.320312 232.914730 32.215004 0 0
-4.175960 324.112030 -14.353084 0 0
116.440790 263.502560 -83.291153 33 1
64.210640 292.271610 -25.569164 15 1
-92.121384 244.002110 27.014557 14 1
-113.317430 150.822810 50.979195 2 1
12.737354 150.007610 3.045861 27 1
-85.999992 324.980100 -6.405555 4 1
-81.090729 242.740140 85.733246 13 1
85.355492 286.737980 -15.345794 15 1
-0.325105 146.752350 6.081219 0 0
-55.567562 165.137410 93.686874 5 1
-54.062515 118.737510 -30.372845 26 1
62.478607 299.629970 8.534580 15 1
-112.270680 320.994690 43.897999 37 1
-41.574963 150.726090 -24.573269 20 1
-89.166862 120.452880 21.867727 6 1
29.623177 289.960080 -41.620731 16 1
107.341470 266.468410 -96.336777 33 1
-111.466690 311.413880 13.291140 4 1
-79.690231 127.794030 16.359903 6 1
26.761276 268.956240 -82.803658 16 1
-100.323690 104.489690 28.951059 6 1
-101.670110 163.511030 55.217007 2 1
88.230347 201.080900 -3.599983 23 1
-0.938662 143.611070 -26.978268 28 1
60.774578 304.977330 -63.328442 33 1
-72.351028 166.726500 70.131927 5 1
9.090339 343.216370 -88.797104 34 1
-121.902360 155.316540 89.151268 38 1
78.683243 105.752380 64.166290 10 1
-6.312410 125.014110 6.237907 0 0
-20.737894 103.545780 5.192936 0 0
12.462029 289.573090 -44.527073 16 1
-113.660150 166.672760 73.579315 38 1
-18.563139 126.933820 -27.020716 0 0
12.167521 337.523590 38.775982 7 1
-4.659786 289.183230 -30.832067 0 0
72.906937 198.809600 -67.586716 12 1
-36.016979 125.643490 18.981741 32 1
-93.315842 155.588970 49.197681 2 1
-1.667207 330.176880 20.631527 7 1
-103.481640 144.927460 11.694896 2 1
-142.012420 149.510160 68.427605 38 1
22.288612 342.106020 -84.191040 34 1
25.767330 334.634280 35.448582 7 1
-2.837125 270.790590 -20.951456 0 0
68.548630 307.385560 -49.712177 33 1
49.852036 301.752590 -36.172539 15 1
40.607346 131.479310 63.895679 9 1
-4.066971 153.458240 -5.987243 0 0
-17.447678 337.211060 32.726555 8 1
-13.337504 111.199350 -25.426947 0 0
136.356800 183.120330 -80.699860 1 1
108.785030 278.486020 -71.692955 33 1
-117.919130 140.728560 114.554630 38 1
51.691845 164.941600 -40.167274 0 0
-25.131718 144.270170 -35.640217 21 1
-45.015667 246.844790 70.396507 13 1
116.361610 177.158870 -22.409418 23 1
-61.450451 313.179720 73.746796 11 1
3.490403 334.735470 -97.516327 34 1
1.195724 235.497270 -2.126831 0 0
67.114868 299.725340 -71.123085 33 1
79.110825 187.647220 -80.725914 12 1
57.025776 111.871160 -23.544081 17 1
-61.576351 157.012310 84.685181 5 1
126.952690 174.428700 -5.334462 23 1
-82.814445 325.167630 5.670025 4 1
124.822050 181.814070 -17.752913 23 1
-18.891344 128.163060 34.767376 29 1
-76.666473 161.307430 78.474800 5 1
45.075336 287.233150 -57.117523 16 1
-104.879800 326.567780 36.843533 37 1
-98.048210 318.737180 77.743011 37 1
83.584442 286.702910 -1.450640 15 1
-44.753937 164.300670 80.313850 5 1
-71.795151 118.179910 -22.470270 24 1
95.268463 279.256930 -93.810562 33 1
-92.227051 316.132290 19.587757 4 1
-21.506413 131.488170 15.712216 30 1
-22.057699 333.475680 41.673302 8 1
-108.416530 140.355210 43.484470 2 1
-38.340565 142.977910 -49.785358 26 1
-96.047989 319.520050 -27.390003 4 1
-3.717942 98.297462 31.047270 0 0
21.295309 134.165620 -12.171191 0 0
-29.998348 122.378000 7.197476 30 1
-2.058289 269.183070 -3.815102 0 0
77.447556 309.320500 -40.061623 33 1
-40.022636 335.152010 28.108578 11 1
-85.191254 317.508610 -25.021719 4 1
28.705296 141.502180 -28.542921 0 0
-91.702232 241.723820 15.858074 14 1
-1.767813 105.868000 18.431202 0 0
-69.089409 130.948590 -43.873703 25 1
-51.843086 127.181990 17.028620 32 1
-93.427742 169.512990 87.140320 38 1
7.308433 145.673080 16.329363 28 1
-79.998741 116.160060 2.784160 6 1
56.696949 120.330370 28.173233 19 1
-70.171608 233.582120 76.120331 13 1
139.606810 187.502030 -69.206612 1 1
-43.980984 338.991360 -121.060960 35 1
-14.584008 328.574890 24.696245 8 1
42.453175 113.242100 -20.390463 17 1
98.895515 184.273990 -84.060059 12 1
-98.937340 159.083160 13.284832 2 1
17.268095 114.979050 36.818089 0 0
-14.446171 128.739120 23.998383 30 1
-7.222231 301.132660 -39.949162 0 0
-79.386978 242.540760 46.067909 0 0
-3.282261 126.506670 19.573568 0 0
-9.940632 139.195540 -60.083122 21 1
-46.381104 128.418700 3.721126 32 1
52.011417 131.016390 18.073008 18 1
7.772985 92.956940 -14.732033 0 0
13.038093 330.065490 8.290911 7 1
-86.536682 316.142820 -11.824196 4 1
-4.783165 102.117520 -18.332802 0 0
46.906231 290.362460 -74.562531 16 1
144.007280 175.410400 -64.010498 1 1
-73.514175 247.554990 72.753693 13 1
27.633501 298.979190 -46.281338 16 1
5.738845 214.045070 -20.965990 0 0
-60.108231 332.261020 -85.582703 36 1
-49.528591 150.590320 -61.905636 22 1
-0.976905 156.742840 3.410166 0 0
-54.185223 133.374450 27.024599 32 1
27.792824 129.756560 6.765634 18 1
-54.765747 155.633060 97.824348 5 1
-72.923203 322.005580 7.390043 4 1
-42.484386 247.444520 59.151787 13 1
99.150833 291.668790 -81.279327 33 1
-23.310923 344.913970 -69.503014 36 1
-59.092010 325.475160 30.593349 11 1
-73.895210 153.389970 96.619934 5 1
45.465279 297.155060 -17.697527 15 1
48.738544 128.349720 49.511356 19 1
-116.658650 119.658550 24.879072 2 1
52.501194 294.640720 3.000409 15 1
-4.276993 125.371730 -7.637217 0 0
63.817341 184.054750 -100.310680 12 1
-5.110935 333.957550 -6.324155 0 0
34.197571 141.197980 50.191082 9 1
-34.389267 134.061540 26.711094 32 1
-138.803890 113.656710 108.251140 38 1
-65.188599 140.138810 -34.737183 25 1
22.764484 142.125050 64.344292 9 1
12.316398 277.715970 -66.826172 16 1
17.803219 334.977450 18.007912 7 1
-94.390450 105.060870 15.081272 6 1
-10.180243 316.114500 -52.886173 0 0
-82.970932 259.310790 36.769665 14 1
89.301620 296.069210 -90.087601 33 1
88.678551 275.939360 15.503548 15 1
-28.579081 122.092790 25.967312 30 1
-5.748390 288.940700 -7.736568 0 0
-33.224812 332.867830 -133.555420 35 1
110.655840 193.729190 -62.732224 1 1
-111.238270 132.767730 20.300301 2 1
-89.729469 168.226970 34.023788 2 1
139.661960 174.110400 -83.898811 1 1
-36.061909 339.830380 -64.164482 36 1
2.871376 116.074020 3.535529 0 0
66.241821 120.211010 73.572220 10 1
-78.400818 254.714390 55.456360 13 1
-16.217056 140.327990 -47.290512 21 1
-111.830920 257.093440 75.676331 3 1
72.825943 298.720090 -89.542946 33 1
47.062386 99.409004 -14.867335 17 1
-55.317070 145.854310 -46.832352 25 1
40.339214 131.707340 43.098083 19 1
-113.266030 149.196140 36.517292 2 1
88.744499 203.112960 -24.544136 23 1
96.903969 296.837710 -41.028717 33 1
21.003057 263.379030 -89.237083 16 1
-35.984058 130.314700 6.252587 30 1
-44.324245 138.866000 -82.218010 22 1
-17.327915 149.225480 -64.201172 22 1
107.811510 291.279050 -66.886971 33 1
-122.125850 115.717030 9.699442 2 1
-3.425406 93.549500 4.689517 0 0
56.190525 122.583630 45.956802 19 1
-103.160790 152.657290 118.200480 38 1
-70.335213 321.166560 57.312241 11 1
-55.112225 127.973340 -36.309853 26 1
-138.998380 318.465520 73.143433 37 1
29.584261 297.510590 -35.160301 16 1
79.459717 187.042370 -42.794521 0 0
-31.367813 150.749980 105.397550 5 1
56.993149 290.282320 -7.199902 15 1
51.509064 303.550450 -2.004076 15 1
10.079114 259.242430 -77.598610 16 1
160.694030 166.631260 -69.601456 1 1
4.961163 324.038940 -9.396626 0 0
-83.533958 259.229490 26.547354 14 1
90.501160 194.353090 -36.137531 23 1
-70.664787 250.384160 47.911671 13 1
8.853484 205.298600 -10.102208 0 0
68.505562 121.666220 58.392975 10 1
-9.954804 74.442787 -19.184507 0 0
17.712431 342.482670 -93.573555 34 1
4.249810 125.993170 -12.596718 0 0
51.482296 123.527150 -2.467445 17 1
40.825016 338.372190 -106.429280 34 1
21.187801 254.096450 -30.381630 0 0
-71.345207 234.366520 45.637535 0 0
0.193241 154.978240 19.496826 27 1
10.118228 120.904940 -1.285276 0 0
-37.260052 131.537700 122.115200 5 1
-29.852064 328.609010 45.613926 11 1
127.213000 185.465900 -90.236290 1 1
-30.892754 123.267790 47.644985 29 1
100.292930 191.761900 -17.091843 23 1
-29.089205 107.148670 20.842361 0 0
-115.009910 139.779800 28.728840 2 1
68.528717 290.183230 -5.815931 15 1
-28.006536 341.678960 -116.627530 35 1
-10.998012 88.255333 -7.036797 0 0
-24.466906 329.198360 25.653511 8 1
81.564369 309.046260 -60.230644 33 1
-72.650330 322.886540 17.383461 4 1
-95.473175 312.171480 5.230012 4 1
16.721109 155.857160 9.887516 27 1
-61.299038 251.249760 62.986473 13 1
-147.777850 113.979510 101.823340 38 1
-39.666363 133.220370 36.346985 32 1
-3.757301 141.483980 -2.349904 0 0
157.012940 169.224430 -59.777611 1 1
-3.546326 198.405760 -2.204565 0 0
-47.784351 241.487350 47.681965 13 1
133.669880 189.491730 -53.723473 1 1
-18.125763 84.131210 -16.060738 0 0
0.364134 313.454680 -4.945653 0 0
8.888823 155.352840 -4.370245 27 1
96.386703 300.402650 -51.642071 33 1
-73.091423 127.482600 -8.164040 24 1
79.377609 203.200730 -53.770802 12 1
-128.886200 150.648150 82.702492 38 1
-71.055382 237.016190 33.509518 0 0
78.543243 173.318950 -98.221657 12 1
-74.871826 130.231960 7.201259 6 1
-59.194199 330.306240 -67.218369 36 1
-97.455269 255.853180 65.039253 14 1
-83.935463 319.571290 23.197248 4 1
28.262918 333.232700 -105.271030 34 1
-16.707943 346.918400 -106.897130 35 1
11.357714 140.098570 -4.476342 28 1
85.638618 292.189880 -71.520241 33 1
28.074821 336.735750 -78.241051 34 1
29.401175 105.208850 -9.156009 0 0
-66.434967 115.605780 -30.978083 24 1
54.538769 130.983140 27.381393 19 1
89.804596 196.946530 -52.880581 12 1
-29.393879 133.905040 -86.654633 22 1
-96.145508 247.137410 58.771477 14 1
6.726012 289.196960 -57.702896 16 1
-43.727711 173.330090 77.130287 5 1
-58.026081 163.162050 78.182770 5 1
-30.955547 336.806580 -79.800529 36 1
38.362907 281.640530 -67.254189 16 1
-53.230045 205.835220 24.066633 0 0
-46.757080 151.046220 -41.909519 25 1
113.003090 199.390260 -70.221321 1 1
-30.785789 164.247280 91.364052 5 1
94.882286 283.988160 1.470217 15 1
-3.365956 168.252980 5.255037 0 0
140.711400 173.538940 -96.310715 1 1
-53.216957 317.530330 59.856255 11 1
-64.155823 134.148640 -25.486513 25 1
-25.586805 164.097080 16.466658 0 0
3.285938 283.817960 -71.792305 16 1
-40.727364 153.386610 103.971640 5 1
-2.170590 70.756294 -8.029052 0 0
-61.370007 143.991460 114.864970 5 1
-55.353470 127.884020 -6.871254 31 1
-64.798279 122.556590 -17.578920 24 1
-8.363867 100.476460 22.689962 0 0
66.830063 297.472750 -40.314957 15 1
-99.797874 159.381480 43.287174 2 1
-50.933372 315.551880 78.187645 11 1
120.151970 195.212400 -77.197014 1 1
-7.982800 138.596820 -31.244423 28 1
-100.981480 256.380040 56.180302 3 1
-127.329430 311.638550 76.851898 37 1
52.820881 294.243320 -52.943192 16 1
-62.932495 123.242640 1.193084 31 1
-100.715630 151.822940 55.526806 2 1
-13.271197 141.853070 3.137168 0 0
-76.896584 129.083500 -38.862915 25 1
1.986429 315.014590 8.667161 0 0
-56.722832 235.834640 40.392315 13 1
52.448772 173.902250 -114.204620 12 1
-54.222809 301.067320 19.695759 0 0
31.209778 289.873900 -75.368813 16 1
17.162760 266.917570 -81.365227 16 1
-49.607582 298.443790 86.190742 11 1
-18.885513 340.046260 -124.645680 35 1
-60.457912 223.997890 34.687687 0 0
-94.592133 163.018480 104.898010 38 1
-62.246387 306.457090 81.290916 11 1
5.294488 337.839970 -106.228900 34 1
-87.938805 332.101590 35.893749 37 1
90.743103 303.587980 -74.594620 33 1
-58.109608 136.425320 6.518815 31 1
-1.395904 176.563870 -4.823142 0 0
-69.259956 328.953190 25.646046 11 1
-118.260270 131.201630 120.288190 38 1
-99.020157 150.907010 30.050558 2 1
31.634949 340.811710 -95.267403 34 1
6.797715 109.462970 -7.807942 0 0
-2.829835 343.524200 -87.841972 34 1
-91.530457 169.768920 56.931499 2 1
42.943390 131.575120 -3.675423 18 1
-51.678051 253.389040 53.662231 13 1
-105.631420 305.521700 -23.174141 4 1
39.152588 102.808300 -19.971901 17 1
-45.984188 287.354400 14.397832 0 0
-23.860966 143.307630 115.529220 5 1
-105.429580 306.538330 -5.617913 4 1
45.021877 130.172520 32.276859 19 1
107.913480 275.163300 -80.595207 33 1
-59.282516 111.864360 -46.093254 26 1
20.909605 345.704280 -69.839989 34 1
-54.365570 149.634190 -27.989170 25 1
-55.531734 318.843750 18.987774 0 0
-69.429001 167.643460 60.824158 5 1
-44.097542 189.867000 26.709476 0 0
-98.983643 162.139010 64.049286 2 1
63.188339 200.409260 -76.518433 12 1
144.741390 183.048720 -53.602898 1 1
-78.196655 170.628430 63.995052 5 1
150.978840 161.803130 -90.816483 1 1
-21.348614 123.047020 19.925402 30 1
-101.488750 317.381680 21.853313 4 1
104.065660 184.354800 -30.609179 23 1
40.658039 339.294920 -93.325470 34 1
-39.518188 346.720760 -57.880089 36 1
16.639374 292.238710 -62.845066 16 1
-12.624092 114.232670 19.868483 0 0
-87.311203 120.040280 7.014339 6 1
-5.903754 339.572240 -79.297188 34 1
18.420662 282.096410 -84.704063 16 1
-85.371353 325.933780 -74.840019 36 1
-114.152370 315.371090 73.652817 37 1
2.144518 144.293610 -14.367325 28 1
-11.186266 336.525210 -88.804398 34 1
-22.259100 325.753570 62.428822 11 1
-146.068300 137.547350 81.799767 38 1
-105.678780 308.807100 6.479929 4 1
-25.347797 157.379300 102.571880 5 1
-7.100184 143.187670 -76.819901 22 1
24.502203 105.384590 -1.300953 0 0
-26.900730 140.015950 -75.491188 22 1
-46.786991 340.401430 -69.649239 36 1
-32.791084 126.133710 -50.631107 0 0
11.360597 336.310850 -79.908569 34 1
5.411751 275.712370 -81.779343 16 1
39.266651 97.728096 -28.844805 17 1
87.199265 297.633240 -50.006531 33 1
-106.020390 162.840380 82.861145 38 1
-45.529263 330.275910 43.462666 11 1
-12.138499 96.781456 -16.742975 0 0
46.401550 115.767070 -11.193796 17 1
-46.954685 148.946530 111.351910 5 1
-0.983558 226.364240 -1.228702 0 0
-139.937450 128.184230 99.385841 38 1
-47.361832 141.927170 -35.594093 26 1
-47.908749 130.516660 -54.507381 26 1
-4.359246 102.054950 -5.648103 0 0
-12.029562 346.564480 -93.708580 34 1
70.867668 296.100250 9.790842 15 1
-46.118462 135.259220 15.299723 32 1
-102.217770 103.494200 20.030107 6 1
93.469292 197.329850 14.091269 23 1
-81.748772 326.137360 48.269531 11 1
-0.796232 273.046690 -12.304826 0 0
108.706540 194.103550 -44.568615 23 1
-29.946949 176.345470 15.621710 0 0
-120.036190 318.146790 37.804443 37 1
82.571793 202.618330 -43.880081 23 1
-14.828956 338.498630 -72.059822 0 0
73.097839 303.198550 -56.911930 33 1
-4.051793 332.701320 48.310600 7 1
63.112396 302.354740 -80.882156 33 1
47.860901 303.924100 -12.067226 15 1
-88.203789 162.521150 26.098694 2 1
-77.772171 248.619570 39.047523 14 1
-10.269040 226.480640 1.113614 0 0
31.136629 286.773530 -50.365601 16 1
-88.349213 249.346300 20.341572 14 1
-63.458946 128.308490 11.865995 32 1
-120.991930 258.174290 64.895157 3 1
-3.512602 137.037610 -40.426563 28 1
-148.900210 121.051430 96.198952 38 1
37.409096 296.365300 -53.999111 16 1
-25.890753 91.139885 -28.953375 0 0
55.399467 185.658390 -103.357700 12 1
-36.115917 116.988820 2.721145 0 0
6.557134 122.800580 13.583588 0 0
40.902847 147.593520 -20.899992 0 0
-19.163895 95.228004 8.681280 0 0
-112.063330 260.583400 67.306007 3 1
59.693546 291.213620 10.870400 15 1
-70.098877 119.564960 -3.201483 24 1
-85.960289 163.028880 52.195015 5 1
38.658989 137.530550 30.053804 18 1
-98.454002 324.869230 53.321899 37 1
58.206894 128.137660 66.034637 10 1
-31.956875 103.438370 -38.730625 0 0
-11.431746 325.561130 -61.676529 0 0
123.948280 195.239500 -62.321846 1 1
-16.337204 120.060900 31.680965 0 0
4.262630 77.223999 -7.345032 0 0
-20.588547 341.220370 -93.076424 36 1
20.226564 144.644100 3.599372 28 1
-60.900452 235.840420 73.074791 13 1
-85.724419 163.547390 65.125229 5 1
-37.196648 318.151730 69.073563 11 1
3.698100 152.791610 -11.291445 27 1
-38.136742 122.965550 -44.092018 0 0
-29.857561 118.090070 -42.501537 0 0
-110.192530 325.930080 54.209446 37 1
-90.061157 116.231940 29.774494 6 1
-129.534090 137.547640 106.611880 38 1
-86.392212 252.121990 9.405477 14 1
-63.617142 313.704470 23.919802 0 0
-28.950663 113.703320 29.194376 0 0
-42.039818 333.346500 -88.289368 36 1
-94.130302 249.393170 50.318169 14 1
-19.137226 140.920670 -67.218109 22 1
16.006363 288.985110 -71.919434 16 1
-8.662305 116.132800 11.993642 0 0
-123.502260 129.412870 33.919106 2 1
62.901611 126.250950 -14.233494 17 1
-92.426117 171.833220 75.101997 38 1
-9.399283 319.252530 -8.258622 0 0
97.184296 288.942570 -57.299683 33 1
-107.798460 144.771910 119.926760 38 1
92.519592 188.568250 -68.988541 12 1
10.845086 119.965830 -10.401684 0 0
-100.490740 243.324940 42.740128 14 1
66.093590 190.197110 -90.067863 12 1
4.038698 346.183620 -68.206535 34 1
13.842135 222.712860 -15.546344 0 0
-81.754913 234.589490 82.172577 13 1
-128.686420 141.080380 97.999237 38 1
-34.080330 150.718030 -19.744049 20 1
-2.709035 212.068100 0.079516 0 0
13.839154 141.556380 75.855598 9 1
-13.599534 307.982450 -54.388214 0 0
-9.071260 344.344640 -102.934840 34 1
-65.493217 245.264530 33.580910 0 0
45.065613 292.773680 -66.198784 16 1
33.180000 334.284520 26.192827 7 1
11.377489 147.987810 -9.330299 28 1
-46.432106 331.272860 34.286678 11 1
-58.136017 120.511660 -49.439980 26 1
-47.825634 167.285080 88.837440 5 1
157.372310 164.670240 -80.641357 1 1
74.899612 289.427950 0.958302 15 1
-9.717934 333.143920 34.813557 8 1
36.538254 129.410110 8.255644 18 1
-5.228580 301.694790 -0.349605 0 0
-28.517941 135.392070 -37.513870 0 0
-17.285112 157.652740 16.261658 0 0
75.961716 180.720230 -94.088104 12 1
-49.673431 239.639760 62.542908 13 1
-115.301960 128.813870 7.991819 2 1
-48.533047 126.210030 -30.640190 26 1
-13.611405 140.326020 -83.335541 22 1
-21.261011 256.180730 10.130380 0 0
-29.935570 107.847020 12.075591 0 0
-5.726767 146.813750 -20.300194 28 1
37.850498 275.719670 -78.598763 16 1
17.347910 282.289090 -55.026245 16 1
-73.437454 126.593830 -25.346668 25 1
-86.307159 111.295220 7.117767 6 1
-52.586960 331.676790 -92.852905 36 1
-5.523972 190.877380 -7.122893 0 0
19.886417 239.458450 -20.727543 0 0
-44.471691 122.207480 32.260735 32 1
-104.375900 166.013030 71.695953 38 1
103.412610 282.352970 -92.801872 33 1
59.730778 170.760450 -34.712910 0 0
-53.715527 330.482910 -79.350151 36 1
100.368990 190.830540 -65.830177 12 1
5.943563 141.140240 -22.127760 28 1
-53.324051 144.094440 -55.169491 25 1
-38.909847 150.944030 -32.966381 20 1
11.923444 132.922560 -11.146916 0 0
-49.381454 338.410030 -53.137020 36 1
-29.385962 128.259350 13.764866 30 1
51.855885 117.849670 20.918577 19 1
85.512398 174.360340 -103.379300 12 1
11.946081 107.562710 34.814537 0 0
-30.848936 332.316530 53.448841 11 1
-50.981300 333.153500 -65.724335 36 1
-89.227310 327.979250 64.221260 37 1
148.861710 181.213490 -68.826973 1 1
-48.914036 155.467000 -24.373804 20 1
92.079681 182.889970 -91.790771 12 1
71.884232 294.401490 -15.280579 15 1
46.984226 292.537630 -44.299480 16 1
82.895042 185.542860 -89.894478 12 1
119.621020 171.699010 -10.226440 23 1
-129.052060 126.025920 116.372210 38 1
-5.620350 115.184620 -4.329699 0 0
140.559340 190.896480 -58.804996 1 1
-43.127281 312.435490 84.655640 11 1
109.623790 201.252870 -55.460388 1 1
-108.010480 143.905560 51.384563 2 1
4.209100 94.688774 0.749457 0 0
-54.505936 169.711910 73.735725 5 1
-67.186966 313.712220 80.216583 11 1
-122.066690 136.568830 38.961494 2 1
64.177658 178.579300 -46.320641 0 0
-59.121563 155.613250 -14.360278 20 1
0.314905 284.710330 -3.249953 0 0
-130.093280 162.692350 69.502350 38 1
109.508970 266.532560 -87.466408 33 1
92.757942 176.718480 -98.764008 12 1
-51.256504 137.926030 121.466030 5 1
19.087084 333.142790 -96.657806 34 1
91.210091 188.310010 -77.513016 12 1
19.258196 296.960940 -47.738281 16 1
-133.338290 153.542010 72.402260 38 1
-35.054634 143.349470 -68.119576 22 1
-96.548386 319.069460 -0.264472 4 1
-115.365100 147.760180 105.524080 38 1
93.174461 196.535020 1.780302 23 1
-121.778560 124.070580 19.048351 2 1
-35.238720 149.574540 -45.150043 26 1
-11.759571 300.376010 -47.231190 0 0
-0.621468 328.304050 12.312031 0 0
-33.434986 313.655300 81.788033 11 1
-123.089260 149.100910 98.000214 38 1
70.479546 173.262330 -106.126240 12 1
-18.773987 153.750320 -0.817328 0 0
47.967598 126.722580 11.704422 18 1
-97.581093 326.804870 61.691395 37 1
98.084366 301.217930 -64.379341 33 1
86.931007 306.078430 -51.241318 33 1
83.152985 288.606540 14.507818 15 1
69.072075 113.532930 61.334103 10 1
81.204460 208.942120 -30.502741 23 1
-115.996640 313.525020 81.966621 37 1
-101.045170 242.371110 14.835957 14 1
40.711056 153.247960 -29.937973 0 0
-15.391715 142.191820 -33.616283 28 1
-16.077158 119.026280 -23.518248 0 0
-40.653446 162.673490 88.302643 5 1
-68.610741 154.013980 103.290190 5 1
-108.341010 307.903840 -34.626518 4 1
114.227750 185.699510 -24.718843 23 1
-69.025696 326.472750 -22.743198 4 1
-87.844765 250.878880 70.647270 13 1
-62.817791 257.274170 56.959068 13 1
93.348640 297.788600 -80.333061 33 1
-17.357563 245.741500 2.993862 0 0
-80.139297 324.875090 30.648411 4 1
-3.448236 147.301390 13.949123 0 0
75.928490 307.424990 -71.643089 33 1
51.706303 157.217800 -30.717896 0 0
35.794605 276.906490 -31.988251 0 0
-58.324322 157.400820 105.435300 5 1
-37.907398 333.471340 45.332214 11 1
-10.133561 183.129010 -2.148404 0 0
-122.693050 319.456120 69.304947 37 1
24.450365 264.806370 -32.014320 0 0
-75.904945 121.386570 8.157482 6 1
-100.557270 165.037120 88.940315 38 1
67.392067 163.349660 -116.791950 12 1
80.812859 162.296040 -112.108440 12 1
126.426790 191.269270 -72.406090 1 1
-37.764824 178.814180 12.680209 0 0
59.296955 112.538860 30.512585 19 1
-54.745689 152.000700 112.420540 5 1
-87.126335 323.040860 16.212608 4 1
-119.964450 317.874050 46.281792 37 1
-60.347546 137.996920 -52.481781 25 1
-4.551311 85.484932 -2.019610 0 0
-20.494822 89.318893 -22.756643 0 0
-121.065710 161.403590 73.457451 38 1
-2.845008 69.359032 4.845911 0 0
-80.674103 120.747520 21.058197 6 1
-11.945504 162.952290 -1.303709 0 0
-88.366264 254.079210 40.520893 14 1
-108.609780 148.524480 58.563171 2 1
94.520294 197.813020 -16.323774 23 1
1.425709 344.435640 -95.021545 34 1
-43.058533 197.349330 23.050125 0 0
63.478729 126.649140 53.884140 10 1
-60.426918 166.107680 86.833611 5 1
-54.860649 246.540600 68.875328 13 1
50.600643 282.869380 -75.283638 16 1
33.116489 339.911770 -103.523580 34 1
-55.217342 320.933010 46.398521 11 1
101.721370 190.633620 -25.583075 23 1
-4.201910 126.699090 28.301613 29 1
-73.782555 325.653350 -81.105408 36 1
-78.386734 127.291020 -15.730171 24 1
19.328468 329.247860 28.533546 7 1
88.619492 191.780880 -45.848240 23 1
52.750847 292.492680 -14.392880 15 1
-102.537470 256.580960 83.562805 3 1
-97.514381 310.209810 -4.283876 4 1
-37.344894 327.074400 55.531235 11 1
-3.804844 104.704380 3.709458 0 0
-25.128498 332.668980 16.795298 8 1
-11.084759 109.249790 -2.229227 0 0
27.354343 131.838520 24.503553 18 1
-19.834846 345.277010 -82.940186 36 1
-84.770325 317.057400 6.276853 4 1
-34.072838 242.319270 62.676182 13 1
-98.075600 320.880920 14.916345 4 1
-32.230091 148.734770 -37.449692 26 1
49.427841 301.434910 -23.616085 15 1
-95.733376 248.518300 34.423733 14 1
-47.465038 337.403140 -77.770264 36 1
-93.852074 157.582580 20.048780 2 1
-106.543460 148.128910 26.705990 2 1
-12.424302 154.442870 -6.121943 0 0
-40.244087 255.221470 61.004360 13 1
92.746338 283.901700 -86.946815 33 1
-96.926674 152.340850 39.966148 2 1
81.314415 298.240840 -89.533035 33 1
-89.890244 170.788070 24.151356 2 1
80.855461 285.665410 -97.978004 33 1
-41.742737 341.780730 -98.298157 36 1
-109.121440 157.749620 54.218067 2 1
-17.609112 98.440033 16.157562 0 0
-24.764570 139.635150 -44.499676 21 1
-23.650732 94.802406 -36.274597 0 0
-87.886589 238.134780 73.332550 13 1
-61.298264 176.502990 63.305229 5 1
11.222569 336.039400 -94.901230 34 1
-34.100864 341.243470 38.517441 11 1
-101.210510 245.488400 26.382357 14 1
123.922420 160.735570 3.678997 23 1
-11.354868 103.369700 -23.169888 0 0
-113.195660 319.255920 58.010208 37 1
-97.079071 315.664610 -34.777676 4 1
-117.794620 131.163850 15.585873 2 1
-66.682457 331.216000 18.168159 4 1
-5.371008 138.193160 -22.654655 28 1
-44.163536 138.442440 -42.320839 26 1
127.024250 169.062320 0.952797 23 1
-48.202332 123.832520 10.388167 32 1
-1.529512 189.321810 1.008323 0 0
-45.404415 138.084440 -3.358996 31 1
-5.444440 83.992783 -15.396088 0 0
-113.904350 156.879710 90.920479 38 1
60.302383 313.356200 -46.668358 33 1
91.056343 290.018650 -95.991760 33 1
58.635113 298.366940 -23.868320 15 1
-4.862553 74.853065 -1.478838 0 0
-70.364571 319.509860 65.522949 11 1
98.332802 189.068910 -41.506474 23 1
-126.266560 320.898130 50.651295 37 1
34.714928 334.080230 -91.011917 34 1
109.270460 283.038510 -86.372665 33 1
-62.263561 130.660680 -3.335108 24 1
68.998093 296.483830 -79.582436 33 1
-86.722557 113.189570 18.692890 6 1
-7.752844 171.155720 -5.043826 0 0
-71.766060 328.123380 -7.169870 4 1
154.621340 152.870360 -92.454590 1 1
58.162331 120.459880 72.245041 10 1
-81.419411 169.450610 35.757736 2 1
-39.908787 148.817640 -55.257320 21 1
-1.963210 156.798250 11.569275 0 0
-13.394147 107.011880 6.154314 0 0
-81.364166 324.477330 -21.100401 4 1
31.012478 330.269230 12.671396 7 1
-75.622765 129.107470 23.372089 6 1
-1.841379 121.345540 -0.636807 0 0
-63.403618 331.517460 -60.386250 36 1
-5.964960 111.326750 23.478802 0 0
157.143910 178.583180 -53.350018 1 1
-107.575940 255.418850 62.957153 3 1
19.450876 149.274250 62.438953 9 1
64.971214 307.538540 -71.174759 33 1
101.250970 273.797180 -93.976227 33 1
-83.476418 176.793350 32.513641 2 1
34.529198 129.162410 16.133450 18 1
-5.499137 318.258760 8.762343 0 0
47.963150 337.796660 -102.125600 34 1
35.895859 114.706410 -8.492534 17 1
-83.741478 162.947310 82.037201 5 1
-31.364351 143.314240 -30.573156 26 1
-71.821159 328.499690 2.221109 4 1
-134.810470 146.404370 86.207024 38 1
-11.262328 197.234100 -4.508446 0 0
0.925243 344.210510 -79.897362 34 1
85.133812 164.378220 -104.161090 12 1
53.193901 125.936180 -11.598012 17 1
-76.264870 327.554020 38.844429 11 1
-57.330059 235.076480 65.537674 13 1
103.500890 188.126040 -1.958248 23 1
-113.876720 154.284270 42.950638 2 1
7.764014 146.135730 8.302198 0 0
23.437716 277.893100 -71.024635 16 1
67.483116 204.799260 -65.949829 12 1
-1.113245 335.394680 -90.946960 34 1
-141.268750 135.544510 94.530411 38 1
20.246046 126.380550 -14.150818 0 0
19.844194 288.230350 -40.794434 16 1
-52.872219 212.556140 29.522150 0 0
9.474451 271.175780 -76.537430 16 1
-102.571040 145.949010 38.673233 2 1
-80.716476 171.987300 47.008831 2 1
-32.768726 144.022430 115.709610 5 1
-46.201778 322.238280 46.005108 11 1
-86.172462 334.194850 51.875565 37 1
-101.734230 317.086760 6.843796 4 1
70.942612 186.183230 -97.309761 12 1
-105.113350 153.836730 110.514760 38 1
42.944592 279.575200 -73.497147 16 1
25.784307 283.627080 -56.209972 16 1
35.762463 292.567810 -32.997860 0 0
104.662280 181.497960 19.945404 23 1
16.844624 153.570190 -4.437657 27 1
-100.887860 312.130680 -21.454659 4 1
71.252594 300.555420 -64.323853 33 1
-54.960865 245.741580 51.413853 13 1
70.703323 291.724210 -92.779419 33 1
97.352043 192.503420 -52.474453 12 1
-27.076706 337.940280 26.229380 8 1
-30.062031 336.348330 -88.490959 36 1
93.025246 289.245880 -70.863602 33 1
12.843646 263.066350 -88.380913 16 1
-110.746850 310.016270 -0.787126 4 1
-50.813801 126.986180 -19.793270 24 1
-56.944515 144.998630 43.910557 0 0
-69.024750 149.218490 47.872913 0 0
114.332090 272.146700 -84.229630 33 1
49.920605 130.118820 2.095305 18 1
22.421129 260.141300 -82.056068 16 1
77.897263 195.940050 -73.091156 12 1
-58.942696 139.996990 121.604220 5 1
67.104179 310.682190 -57.056721 33 1
-29.332947 334.114870 38.522049 11 1
-32.585552 157.597030 -12.020307 20 1
58.090469 302.125920 2.225157 15 1
74.905319 105.498110 71.156387 10 1
-1.162851 176.375410 5.291812 0 0
-3.098695 99.456841 -25.655193 0 0
81.710243 303.643890 -45.568604 33 1
87.754494 193.779050 -65.169556 12 1
-10.718566 239.822980 4.322858 0 0
-10.472131 207.394640 -6.353167 0 0
-2.464388 131.158190 2.736070 0 0
5.012794 197.705030 -14.194209 0 0
81.898865 306.018460 -77.012657 33 1
91.449837 306.043240 -67.021332 33 1
66.429405 296.931270 -9.435726 15 1
48.883488 293.988650 -34.831718 16 1
-10.959298 147.562610 11.400855 0 0
-21.207624 127.536290 42.393131 29 1
-46.781075 156.366060 98.941322 5 1
93.147728 288.202450 -15.126686 15 1
-0.862661 125.288430 12.125257 0 0
-115.460560 169.896030 66.427925 38 1
-53.722530 132.574800 39.716560 0 0
152.829960 179.403380 -61.790348 1 1
29.496775 281.036100 -65.417068 16 1
-118.104480 141.245910 51.268890 2 1
49.254456 110.459380 -23.559986 17 1
78.254257 175.491530 -106.281050 12 1
-9.256603 144.299680 -43.448868 21 1
-77.213936 144.229000 110.366330 5 1
-94.500320 251.989470 25.556620 14 1
-91.773781 162.413450 10.822930 2 1
82.527573 291.478300 -21.007605 15 1
66.092140 293.301330 -33.322922 15 1
-33.491428 324.345830 63.143753 11 1
-135.539540 141.627110 94.163750 38 1
-56.626152 113.786460 -36.000038 26 1
-61.686993 336.140170 -53.654274 36 1
-11.366884 344.454680 -76.452499 34 1
70.524666 116.069700 51.084736 10 1
-88.856461 322.716740 1.288507 4 1
143.708920 172.707790 -71.686386 1 1
-10.518277 138.086170 -67.836571 21 1
-87.486610 254.133940 50.815720 14 1
11.155233 279.924470 -59.258675 16 1
12.495080 277.026820 -85.838058 16 1
-50.411507 136.191680 8.802081 32 1
-47.156960 257.798340 58.291004 13 1
-59.548172 212.849010 35.426998 0 0
4.840434 339.093110 36.471115 7 1
19.512220 133.235460 80.301971 9 1
115.867640 181.571120 -31.158653 23 1
24.420151 343.420960 -76.467964 34 1
-91.896629 313.000580 -28.592838 4 1
83.500877 208.651400 -14.624577 23 1
-28.872490 346.039730 -102.430750 35 1
-9.816866 326.053650 -3.699029 0 0
94.786568 278.105870 -101.929990 33 1
78.595810 290.845120 -88.639153 33 1
-45.464939 144.415950 -65.112434 22 1
149.175020 188.516830 -50.233688 1 1
129.791950 183.023760 -76.042992 1 1
97.545731 284.787410 -77.978752 33 1
24.063669 334.557460 -85.002846 34 1
-0.337310 256.142610 -10.729931 0 0
6.687562 154.915270 3.198741 27 1
-51.642513 132.247510 -42.265862 26 1
104.195750 291.243710 -74.731529 33 1
25.815897 122.705180 41.484680 0 0
17.277199 244.218200 -27.902567 0 0
-13.234058 72.580040 -10.206776 0 0
-138.650390 120.712090 111.518970 38 1
-74.628716 237.732380 68.606567 13 1
75.346283 295.110870 -38.289825 15 1
-74.232620 322.572390 25.482573 11 1
-92.907669 335.150600 42.249298 37 1
-10.454415 62.387413 -7.120038 0 0
53.307159 288.755860 -70.476784 16 1
-32.418404 318.002750 75.183136 11 1
-43.329533 183.850250 21.662863 0 0
-29.129040 122.887120 33.956066 29 1
53.779945 121.172500 35.376404 19 1
-7.001900 295.659150 -34.475014 0 0
-38.703335 117.810440 29.549986 0 0
-10.969122 119.121800 4.353452 0 0
3.620892 115.445880 -15.249143 0 0
-27.668882 343.789950 -79.210571 36 1
-42.775410 321.549320 53.124954 11 1
-76.616325 247.613190 81.719246 13 1
-117.077720 116.228100 15.906972 2 1
38.758839 298.781070 -46.776562 16 1
-123.261450 123.989720 26.636395 2 1
-82.600464 318.247070 -4.711108 4 1
-62.807289 241.753830 53.077904 13 1
109.350050 182.137990 -14.500645 23 1
-40.803699 159.471100 -8.557586 20 1
-44.880554 319.440250 67.771683 11 1
-43.546131 303.345310 86.783257 11 1
-32.241959 132.606810 -46.483250 0 0
-120.941240 318.363340 58.125526 37 1
-59.098351 127.120590 -13.562074 24 1
78.235428 302.829530 -83.951195 33 1
123.715850 174.953860 -21.777168 23 1
57.166275 206.965320 -76.975159 12 1
73.515961 291.511110 -29.819414 15 1
12.114344 124.240150 5.606162 0 0
-59.606728 122.126790 -25.719265 24 1
85.523560 290.910740 -7.609715 15 1
-49.754475 127.047940 27.181887 32 1
15.107545 343.021030 -79.611992 34 1
0.240298 318.245030 -11.272652 0 0
123.403820 193.380950 -52.129978 1 1
-78.263939 325.259370 12.395844 4 1
28.869057 286.711150 -82.176773 16 1
10.230290 335.715300 25.768496 7 1
-34.069794 111.227520 -38.528622 0 0
-24.352856 148.408720 -60.735386 21 1
32.849697 130.686070 76.101555 9 1
-101.244810 161.077740 97.666023 38 1
-72.426369 127.082790 13.887565 6 1
-39.035431 329.412840 38.922188 11 1
-122.336120 155.434360 81.497505 38 1
113.382230 280.027740 -77.631813 33 1
-90.532166 165.555530 71.139679 5 1
90.531433 293.095980 -55.322083 33 1
-51.482986 162.355090 99.780014 5 1
-3.282968 139.658040 5.075994 0 0
-74.540337 124.703470 -32.681160 25 1
0.419538 76.822037 4.374471 0 0
-23.252975 152.750840 9.787850 0 0
-33.380550 139.576170 -83.424706 22 1
87.235748 290.731690 3.927285 15 1
26.265713 274.212920 -77.271828 16 1
-66.640625 162.086210 89.146545 5 1
-60.304626 170.484130 78.649384 5 1
23.833191 112.020570 33.389534 0 0
33.068680 147.408190 -25.360218 0 0
-90.262520 162.443120 85.963959 5 1
-12.805419 94.568611 4.018718 0 0
-40.018375 340.949860 -73.632088 36 1
115.755000 191.124680 -57.527996 1 1
-85.938263 247.595260 47.229378 14 1
-17.680483 336.759060 14.238312 8 1
-124.697920 314.601650 83.567665 37 1
114.511590 178.652250 -4.214973 23 1
-14.386408 338.670320 -80.374397 0 0
-89.465820 160.820040 45.232609 2 1
43.046257 127.358700 19.469160 18 1
72.768913 187.118350 -46.598175 0 0
66.666840 290.086300 7.803867 15 1
-55.861156 305.862850 85.367119 11 1
-150.435010 128.375120 86.851074 38 1
83.087906 295.084500 -63.722012 33 1
-12.315128 145.176350 -55.864868 21 1
-132.462170 322.891970 55.690369 37 1
-5.217934 281.613710 -30.567799 0 0
-43.242798 123.228170 16.274841 32 1
141.855930 182.556980 -74.692795 1 1
47.821507 308.261810 2.664834 15 1
112.138380 188.530240 -40.283424 23 1
13.318102 341.228240 -70.400963 34 1
-31.781548 149.371430 -63.650360 22 1
-119.089040 304.134400 -2.244298 4 1
-53.925762 329.927580 35.754089 11 1
19.391396 339.975340 -107.891460 34 1
-92.523705 114.085460 3.796097 6 1
-28.426243 162.985410 9.399914 0 0
-97.672958 310.067540 -14.516558 4 1
24.800150 336.503510 28.125580 7 1
69.470413 194.851550 -85.086784 12 1
-94.146805 165.367170 40.810741 2 1
-5.052873 316.958620 1.227849 0 0
-10.015442 60.192921 0.999086 0 0
-72.146759 330.423100 -60.432564 36 1
29.240606 279.046390 -35.105240 0 0
116.446720 168.583950 5.867351 23 1
-19.835661 146.360310 -50.066357 21 1
-72.646828 242.828810 49.479588 13 1
16.375473 342.496640 -101.177580 34 1
-33.792744 335.999270 -72.538528 36 1
9.142236 208.718520 -16.832516 0 0
-117.666530 142.195390 35.661579 2 1
-78.929634 157.689480 92.862198 5 1
-41.516171 144.158110 -71.938919 22 1
-1.029432 340.050020 -101.851790 34 1
-59.536785 155.978550 91.877037 5 1
88.475952 197.209520 -29.452805 23 1
-19.441908 119.669400 13.307916 0 0
-19.112560 130.523350 8.601905 30 1
-68.952713 147.727830 108.181500 5 1
-12.173073 71.371971 4.237973 0 0
-117.694630 304.114170 -13.971163 4 1
29.371256 267.493470 -26.917938 0 0
21.074291 294.768650 -56.753647 16 1
-102.597730 152.505200 13.539379 2 1
-93.182938 319.118070 -16.286457 4 1
-34.817070 126.025140 39.553513 32 1
44.505764 301.647670 -5.015729 15 1
104.885230 288.135620 -57.092339 33 1
-61.018715 331.693880 26.819145 11 1
-4.267706 307.522160 -5.004428 0 0
131.180420 184.813200 -96.636627 1 1
-117.318830 129.688570 42.540894 2 1
123.888030 178.043530 -11.324853 23 1
122.497060 191.070800 -92.437744 1 1
49.512360 103.409460 -21.000174 17 1
-106.687410 134.732240 4.849042 2 1
39.535702 295.038510 -61.224327 16 1
80.446732 293.802760 -1.568295 15 1
-91.408913 251.614210 63.718006 13 1
-85.724541 170.300200 61.861969 2 1
58.017593 306.819430 -49.547543 33 1
134.309520 177.061740 -97.996094 1 1
-76.897667 157.588380 54.252556 0 0
-62.725628 319.337740 77.825356 11 1
-45.584679 128.830140 37.763222 32 1
136.986480 194.850010 -48.886993 1 1
-111.710890 321.037200 65.146736 37 1
-32.893669 335.577700 30.371937 8 1
-98.899734 104.994670 8.895657 6 1
-106.433270 256.601040 70.386795 3 1
-73.222305 227.126710 45.277496 0 0
-3.193716 333.124150 30.920900 7 1
110.269230 285.841740 -71.407516 33 1
68.489479 119.160390 66.420143 10 1
101.600820 188.459340 11.104910 23 1
-105.038890 95.001511 18.000738 6 1
-12.752448 337.204010 20.199087 8 1
-64.100266 130.119630 -19.069664 25 1
-29.687197 129.301880 21.165600 30 1
0.542989 110.880190 -3.961167 0 0
-52.540524 134.102550 -32.556526 26 1
144.440250 170.819690 -79.192703 1 1
102.032400 198.090640 -59.331207 1 1
-100.709950 321.338070 65.705551 37 1
-83.068237 321.803680 -30.744301 4 1
31.535372 265.521090 -87.396652 16 1
-25.606550 337.559970 -122.583650 35 1
38.746483 291.731780 -74.421516 16 1
9.654557 151.405780 -15.787422 27 1
-4.566474 195.268940 4.522339 0 0
-65.307083 226.297590 29.522648 0 0
-3.983497 251.508220 -5.045906 0 0
-58.458035 327.250890 19.891956 0 0
-120.111760 122.813100 11.819955 2 1
25.550627 341.595370 -91.069862 34 1
-52.034126 340.289700 -61.891743 36 1
-56.211754 309.926210 78.685600 11 1
103.303240 287.463350 -86.471291 33 1
-0.904045 328.609950 -9.294598 0 0
-140.608890 142.137410 79.300224 38 1
45.185055 134.913310 48.803577 19 1
-17.225803 250.036100 9.111673 0 0
64.610924 296.593320 -19.439503 15 1
-14.628024 157.116470 9.118110 0 0
21.432356 327.781430 17.396885 7 1
-32.420635 344.685360 -108.801780 35 1
56.971138 197.364260 -90.510422 12 1
-4.938794 182.443890 3.155880 0 0
-6.826594 93.628639 -11.470671 0 0
-66.792694 321.424010 44.837257 11 1
54.054382 301.456120 -8.644141 15 1
148.230270 159.946350 -102.023380 1 1
26.413210 140.509510 -19.120361 0 0
-87.609795 315.868350 13.801759 4 1
-66.243774 248.055690 68.174583 13 1
-7.220729 329.301330 25.446012 8 1
45.565815 105.698720 -10.999159 17 1
-55.670990 128.636490 0.498451 31 1
-71.499863 124.520900 -15.137484 24 1
14.162808 122.523080 -16.495104 0 0
3.310569 335.225620 22.719801 7 1
-74.621681 112.927670 -26.971613 24 1
-6.444630 161.765560 3.527943 0 0
55.427643 297.100620 9.597164 15 1
-83.310135 327.698210 -67.849297 36 1
3.508429 124.767890 -4.811376 0 0
-82.257668 124.733930 9.847014 6 1
39.925320 331.506960 27.281464 7 1
8.212918 335.950620 -87.885155 34 1
26.234470 273.734650 -88.778008 16 1
-56.755581 317.779110 70.163528 11 1
27.325523 135.224900 74.172485 9 1
-66.274086 328.033110 33.949329 11 1
8.492496 152.050810 19.799891 27 1
30.363140 292.569180 -62.880409 16 1
-49.732803 143.810260 -42.291428 26 1
-3.110885 219.318730 -2.981627 0 0
-13.133441 79.198822 -13.897145 0 0
-108.954070 156.677050 97.238899 38 1
59.801159 300.579190 -40.891636 15 1
49.789562 132.156040 58.739960 10 1
-100.736980 331.747680 42.405312 37 1
-7.814746 134.094300 6.978567 0 0
-9.017052 100.967280 7.839774 0 0
-62.795116 102.441950 -40.976761 26 1
72.542801 311.494050 -45.136883 33 1
-3.296742 133.282960 -4.263362 0 0
-67.514023 169.952320 74.760544 5 1
58.608135 163.967540 -37.955803 0 0
-12.223495 126.875800 30.725422 29 1
-5.159752 338.756070 44.328201 7 1
-5.203466 83.800690 5.681722 0 0
-26.938700 339.133820 -73.019226 36 1
-60.810665 119.732150 -33.193779 26 1
-37.260509 163.683040 95.762375 5 1
42.467491 308.777040 -13.029647 15 1
-91.525688 248.573900 13.287273 14 1
102.412980 191.389570 -47.134727 23 1
11.098246 231.093460 -22.529663 0 0
-121.425070 303.520050 -20.244505 4 1
53.928539 124.962460 21.772232 19 1
-78.227348 319.249210 63.441730 11 1
-144.159700 133.658370 87.685303 38 1
-122.604070 115.440830 26.777273 2 1
-1.344677 246.102740 -9.595510 0 0
77.047180 289.059840 -14.863536 15 1
124.660690 166.115860 -10.264695 23 1
64.488914 168.666660 -39.824970 0 0
-11.669015 126.908950 0.840573 0 0
-30.077272 128.542830 29.459066 32 1
-42.918213 121.738110 2.566260 32 1
12.718501 142.642720 2.602463 28 1
143.841250 168.907640 -91.435646 1 1
74.392822 311.238590 -57.328003 33 1
-5.951552 232.911380 -1.773295 0 0
80.806862 187.762500 -49.949024 0 0
117.054410 194.331330 -83.760742 1 1
-61.730309 333.666660 -73.145523 36 1
-122.077350 135.212690 46.101398 2 1
-64.137375 144.274230 43.202835 0 0
-45.607708 338.148380 32.100830 11 1
150.432430 171.945540 -62.180023 1 1
-110.896820 153.528370 105.283470 38 1
29.575293 338.309510 -110.290620 34 1
-23.402004 117.331350 32.143288 0 0
-37.902554 188.037980 18.970795 0 0
-90.312447 322.618100 -23.827572 4 1
35.469589 133.689000 59.213112 9 1
88.351761 198.185590 -42.461792 23 1
-23.915808 121.850270 46.145897 29 1
4.561561 81.934052 -13.027086 0 0
-134.800460 321.471530 67.545174 37 1
112.493550 175.777850 3.228251 23 1
-112.980250 132.696080 28.432838 2 1
4.897468 342.538330 -111.724990 34 1
-69.886696 330.573270 -73.293663 36 1
104.254910 281.067320 -77.208130 33 1
-48.589855 331.847750 -73.267227 36 1
77.140831 168.063100 -114.921490 12 1
14.616272 100.961000 33.551743 0 0
-12.657294 121.533090 37.881943 0 0
-110.244550 303.937440 -14.328831 4 1
-13.000600 80.491829 4.937810 0 0
35.513161 281.254700 -82.914040 16 1
-38.619923 340.661160 32.693188 8 1
9.340554 290.119170 -51.014103 16 1
96.468452 288.722810 -64.479088 33 1
25.069141 135.525850 66.777107 9 1
74.136284 108.129270 59.093346 10 1
-92.135483 320.933070 -5.657897 4 1
-8.701125 102.140670 34.667839 0 0
-23.518715 341.296050 -100.574250 35 1
46.380421 132.378100 39.090187 19 1
-69.452866 172.974930 68.010506 5 1
-52.304192 312.559390 84.893997 11 1
-63.694229 256.832700 49.820354 13 1
39.362133 120.858220 -9.925532 17 1
-13.612380 138.212890 -53.666222 21 1
-106.598790 314.880740 17.310755 4 1
