-37.194553 214.528440 -22.673960 63 1
-95.548615 570.421750 -15.430445 53 1
12.385017 214.681560 18.176855 2 1
-7.538977 77.625298 34.727333 36 1
71.750519 143.634640 48.176792 14 1
24.092480 383.387270 50.514141 25 1
-5.453387 500.707820 -113.631820 34 1
18.568724 600.697450 -51.322025 4 1
-34.467522 546.257080 17.673607 11 1
-10.240253 38.999279 -3.916399 0 0
-20.672421 565.225950 15.979547 0 0
-92.307846 583.290830 51.968418 9 1
-46.385406 527.312440 -7.032088 0 0
-37.836437 277.690730 -21.091263 0 0
69.260468 409.641780 -18.092087 26 1
-19.950724 193.812410 -14.480744 0 0
-10.880100 196.156890 3.155457 0 0
41.103550 414.186800 -2.917247 26 1
14.505958 549.761290 -5.708237 66 1
56.937717 176.735460 5.739326 21 1
45.541695 167.652270 -4.924428 21 1
-24.441645 520.907590 -3.491659 0 0
55.632900 137.892120 31.255331 14 1
-4.733528 133.220870 6.607161 0 0
-123.306180 302.450040 -26.924505 49 1
30.561651 209.680340 -9.312752 0 0
69.827301 596.737980 -17.553837 3 1
77.833084 88.054008 -32.267483 33 1
87.274956 161.678600 -23.344524 19 1
73.763695 151.804820 4.209677 14 1
-66.197021 102.110610 -33.634342 40 1
-93.094704 166.265060 -73.419197 35 1
-18.021360 467.964140 -10.056262 0 0
-9.400662 94.151588 21.279308 36 1
-38.944790 80.239067 32.387627 37 1
10.605424 378.751830 -7.642269 12 1
-106.663400 83.019722 -10.802973 41 1
-27.709467 525.523190 -89.030197 34 1
63.927223 121.464360 30.524752 14 1
45.685410 600.607850 -17.594179 3 1
56.495609 274.771820 -50.590855 51 1
54.411369 416.684230 12.047894 27 1
-46.503490 529.101440 -79.240173 56 1
39.521152 160.590260 45.385918 15 1
28.614687 206.504700 17.403624 2 1
110.517380 171.448940 -66.184586 17 1
0.705938 600.914250 -23.412649 4 1
4.328658 528.975650 -4.594248 66 1
8.393461 509.411290 -9.344703 0 0
81.957893 124.442360 14.564981 14 1
-45.323410 576.220030 37.331509 54 1
42.965981 424.177700 34.378693 25 1
5.415211 610.970150 -38.142227 4 1
37.626774 246.207730 -10.802008 52 1
16.573915 528.691470 -56.726662 23 1
-4.804876 361.254940 -6.441463 0 0
-79.995827 309.996340 -40.030754 49 1
-37.295723 393.919040 -17.844791 0 0
-64.476974 576.317750 49.464535 11 1
31.672852 203.984050 -47.499298 20 1
41.940899 143.375340 51.863132 15 1
-18.994434 147.640460 -3.291157 0 0
-10.074105 269.794340 146.244780 8 1
-17.359489 530.014950 -53.110977 45 1
56.116123 252.657970 -32.663651 51 1
43.935322 390.714630 42.852348 25 1
-42.706810 560.366520 5.429850 54 1
73.979942 266.839200 -85.344131 51 1
-58.940727 551.080990 14.815870 54 1
-2.842916 275.680880 114.763600 8 1
-8.526647 271.280550 70.444077 59 1
9.405553 581.001710 2.644328 66 1
-113.071230 87.057030 -62.805809 39 1
-88.298691 571.525270 40.096096 55 1
-73.487312 124.394650 -8.273985 41 1
-107.018410 160.867570 -10.260013 47 1
-77.062973 580.984190 9.667798 54 1
28.348175 399.992740 50.558334 25 1
-29.078430 568.108460 -15.246240 0 0
-31.232624 514.788450 -36.024784 45 1
-133.358320 149.950910 -11.632312 47 1
42.133766 427.843900 -22.693233 26 1
-93.045815 305.223050 -12.106451 49 1
87.046799 100.883460 -51.061989 28 1
-0.795187 489.819270 -4.112095 67 1
-18.624414 332.525730 -10.651077 0 0
-35.203873 412.070310 -22.913073 0 0
89.595436 100.195340 -21.516586 28 1
25.650257 406.311800 31.017859 25 1
21.277260 532.987180 -2.725259 66 1
-23.762199 246.525740 -14.297937 0 0
38.617355 453.178250 44.127380 24 1
130.354260 142.805220 -14.468750 16 1
13.823308 236.582020 -25.161236 58 1
-71.931038 109.191470 -53.455704 40 1
-82.026421 570.661620 55.844971 11 1
13.675430 272.732210 -66.690826 0 0
-70.940056 259.590970 135.229570 7 1
-55.213425 514.774410 -77.002731 56 1
84.918892 454.693540 0.690977 22 1
-111.610790 562.663270 20.165741 55 1
6.269986 530.497070 25.854355 65 1
-37.099163 231.674650 -21.262053 0 0
-56.539196 211.793640 -35.230217 63 1
-72.478546 557.562680 -19.773222 54 1
-144.040020 545.819820 55.127411 9 1
-18.834639 234.924930 39.375065 0 0
-92.774231 259.759550 4.395286 48 1
19.062727 133.209760 94.710938 15 1
-25.570986 74.711937 -9.945221 0 0
62.002209 134.867770 64.025917 13 1
-98.930222 110.439780 -57.786083 39 1
25.316107 481.128200 -75.192078 45 1
-17.759541 208.228300 24.756912 0 0
-0.455502 554.610960 -21.230696 0 0
-0.117450 502.933440 23.335794 65 1
-90.971596 594.753300 28.777143 53 1
85.089218 136.611130 74.464233 13 1
50.141094 466.415010 50.396816 24 1
33.265537 475.941220 17.386669 24 1
-57.479973 279.272770 22.191090 60 1
-73.248955 176.648150 -86.271263 35 1
-33.891018 198.364150 -7.177143 0 0
48.997406 157.298170 23.140697 14 1
-70.798225 184.823870 -63.440517 35 1
9.056565 213.869030 41.042000 2 1
-38.295105 230.112460 -0.057038 0 0
-37.031429 216.046430 -39.860786 0 0
57.230984 398.709140 -16.937437 26 1
-4.884345 79.607399 15.503067 0 0
-57.165710 237.483890 26.325027 64 1
66.838547 477.761570 14.254244 22 1
-17.420792 554.516480 -24.672606 0 0
-73.736702 249.558580 57.163799 61 1
-8.134599 545.894040 32.211952 65 1
-74.553726 295.496700 8.199603 60 1
-5.811616 228.896120 -5.714235 0 0
31.571432 549.879700 -36.940311 23 1
-33.016491 273.125060 169.259080 6 1
-52.529137 305.478270 -32.201984 62 1
26.127428 159.244090 63.088326 15 1
-58.290764 249.071380 44.849247 61 1
-27.835056 482.677670 -15.685293 0 0
-27.283726 113.436210 -22.948492 0 0
-116.392480 595.039730 31.359152 9 1
-93.117592 265.575530 20.849108 48 1
31.952610 254.522380 -26.253698 52 1
-24.329258 84.890709 37.553703 36 1
-4.981793 47.734043 28.905416 57 1
1.694667 566.794740 -3.999815 0 0
-48.029839 550.639650 36.719322 11 1
-56.597233 284.133580 -18.084494 0 0
-48.582005 255.406740 -17.290726 0 0
108.069600 163.022340 -52.561119 17 1
-31.729305 319.038820 -20.076118 0 0
-92.553642 178.006760 -0.654273 47 1
42.023174 463.345980 25.867640 24 1
3.625511 213.712420 -29.580858 0 0
-1.638221 208.458600 -4.089042 0 0
-38.777599 495.755340 -37.945568 0 0
25.369350 402.219420 2.775346 25 1
-78.964027 112.272890 9.590449 41 1
-7.454895 556.498110 7.740523 0 0
68.902168 104.087300 -2.824051 33 1
-107.646500 306.445710 -34.357510 49 1
75.564636 176.131270 -43.011223 19 1
7.927418 513.229610 -28.336742 0 0
25.593435 98.554642 -29.554800 32 1
-1.051970 544.360410 16.105732 65 1
79.252426 129.507640 50.720322 14 1
-45.750031 312.132290 -53.072388 62 1
-91.190651 115.904050 -22.085020 41 1
-44.940830 189.661740 -18.672888 0 0
21.747097 479.588200 -91.929054 45 1
-134.591280 574.725770 49.248680 9 1
111.581670 79.010704 -25.949926 30 1
107.816660 144.003710 5.360954 18 1
9.213790 114.136030 -55.741348 44 1
21.806042 427.321470 5.454476 25 1
-21.170883 528.787660 -35.768475 45 1
15.953770 495.632870 -75.413666 45 1
97.030197 90.169952 -7.123088 30 1
60.604145 487.982760 0.408237 22 1
-114.181280 564.614500 65.239594 9 1
-62.940666 236.959440 5.827253 64 1
-25.071161 54.184731 43.967899 57 1
76.696953 363.364500 28.628801 27 1
8.649311 519.776860 -103.054970 45 1
-70.795303 569.816650 -3.247406 54 1
1.903964 93.560234 4.938538 0 0
-70.193336 127.437550 -29.280594 40 1
24.246988 601.377930 -16.692459 3 1
59.235493 107.237430 -26.892036 33 1
-12.104341 221.270660 44.517971 2 1
-22.463251 515.304200 -54.296162 45 1
3.311403 115.311370 -80.995255 42 1
-38.292702 514.458560 -66.665840 45 1
-107.559030 574.914920 0.288528 53 1
85.191818 473.738340 15.658550 22 1
-15.795837 273.078160 -12.136763 0 0
-38.357662 244.985610 15.645148 64 1
3.815501 499.032870 -57.683945 45 1
-36.849255 271.889650 127.056070 7 1
-101.292890 178.284680 -22.965441 47 1
-28.274485 559.329160 48.412754 10 1
-10.601481 502.999760 -76.210449 45 1
81.562035 376.859680 9.914628 27 1
-69.459290 201.393840 -41.629566 35 1
-19.047228 495.647460 3.618366 67 1
-55.157028 520.278750 64.473526 11 1
-55.578732 567.561040 0.946739 54 1
22.348736 499.462710 -40.825443 45 1
101.202380 452.088930 -23.361969 22 1
-35.851807 570.525880 17.436613 54 1
18.608017 100.316740 -95.412903 42 1
96.703384 64.253876 -33.212601 29 1
-8.475818 554.305790 -47.806694 23 1
-18.779112 279.143550 109.118670 8 1
64.519203 96.376999 17.369995 31 1
4.794563 155.069890 -15.546726 0 0
-17.238695 483.633060 -41.114857 0 0
36.624695 441.061800 10.711931 25 1
-40.623920 293.769040 117.501180 7 1
-5.905439 519.669130 -28.752028 0 0
6.638342 73.043198 -10.600802 1 1
19.428589 455.754240 53.503597 24 1
-34.468719 521.988160 -14.917523 0 0
-39.672623 140.584880 -16.345850 0 0
48.632236 269.516940 -86.315598 51 1
-67.819550 489.241970 -76.419052 56 1
-16.098366 571.084050 2.187755 0 0
-24.562986 535.357360 13.854792 67 1
-79.089455 255.500670 -2.125374 48 1
13.510427 432.124820 21.466177 25 1
-70.627312 490.728730 -56.871357 56 1
30.790642 141.218990 73.166237 15 1
12.006412 284.246030 -90.230682 51 1
34.442337 468.334560 -70.064392 45 1
-1.747620 232.280200 31.431709 2 1
70.774696 137.305270 79.221901 13 1
-31.313780 460.040560 -5.374328 0 0
91.701317 76.186195 -11.443134 30 1
-27.682581 367.575900 -29.305561 0 0
-48.981842 579.088070 18.657799 54 1
-87.100121 571.612730 2.224781 53 1
-83.405914 269.697510 132.327480 7 1
74.174171 403.686430 -4.653443 27 1
91.065887 471.599430 -14.838265 22 1
55.970482 260.488250 -45.467033 51 1
-10.102119 531.462220 -73.492332 45 1
88.853691 150.911130 -0.157770 18 1
-10.696729 129.203170 -6.548989 0 0
-22.991877 433.168670 -39.198452 0 0
-8.186130 88.017555 -9.055741 0 0
-32.165390 497.220370 -112.152160 34 1
-115.097730 586.654480 45.725883 9 1
-75.241112 94.860519 -50.790924 40 1
-103.052860 563.261900 -26.178589 53 1
-77.263496 180.360530 -46.961845 35 1
54.098804 415.038600 38.601894 25 1
-98.170006 253.709080 -24.871862 48 1
68.032143 488.383000 -33.941883 22 1
43.364792 264.574740 -64.961884 51 1
64.683281 164.845890 -1.327508 14 1
-19.593473 519.253170 -99.825554 34 1
105.752820 169.334230 -39.295246 17 1
45.648895 396.216550 -34.182262 26 1
-0.570264 348.507970 -16.641422 0 0
3.935574 416.872830 16.708994 25 1
59.320564 178.669340 -27.552824 19 1
35.026508 149.956220 28.012085 0 0
-117.755490 170.249100 -16.692659 47 1
-29.002718 536.362120 -78.845741 45 1
1.551062 518.264890 -50.657093 45 1
-25.501659 266.384120 137.146760 8 1
51.379055 451.999080 53.621666 24 1
24.854408 519.220460 -6.684781 66 1
40.550644 107.811920 -5.226364 32 1
45.864773 251.891140 -22.097574 52 1
-21.702675 572.094360 51.684025 10 1
-47.027454 96.951065 12.845695 0 0
-67.912529 500.977720 -31.243460 56 1
-100.852650 114.848790 -9.169177 41 1
-77.809662 233.391080 8.299226 64 1
31.225925 405.059390 -49.547104 26 1
3.277510 204.791600 29.442301 2 1
1.172147 259.467860 132.813920 8 1
23.306715 136.624890 -24.390125 0 0
42.128368 404.356080 48.087971 25 1
-110.096370 274.548400 43.020523 46 1
-18.919888 602.651490 -46.801903 4 1
44.179409 185.570130 -36.553120 20 1
78.398163 141.317440 18.739868 14 1
-125.803400 566.190250 20.427092 55 1
-30.751667 439.590180 -20.412539 0 0
-4.996004 138.430530 -25.193079 0 0
-29.803276 270.937010 62.040859 59 1
9.598798 492.507320 -39.148479 45 1
7.724278 568.922790 20.068628 0 0
21.791027 234.485790 126.280600 8 1
-125.532560 547.213930 67.697578 9 1
-26.576521 198.928160 8.882367 0 0
-7.999817 272.414030 87.823540 59 1
-31.181679 260.676060 83.702385 59 1
-5.452627 94.749573 -24.477962 0 0
49.736370 451.864320 21.388458 25 1
11.897066 543.265320 -39.141224 66 1
-91.412933 115.597950 -37.620998 40 1
-25.126888 296.563290 -32.495968 62 1
-28.515490 64.890167 27.615761 57 1
-100.482410 127.886520 -33.379467 39 1
-15.457659 262.795680 47.689777 59 1
6.197605 500.879300 2.154330 67 1
-81.949173 194.797070 -38.095482 35 1
29.525499 521.404110 -54.756729 23 1
-87.581902 185.507680 -60.095776 35 1
12.978958 103.954030 -82.315590 42 1
46.190201 177.298660 -15.682477 21 1
-73.610893 571.596440 36.573860 54 1
65.432068 423.691100 -14.213765 26 1
4.249900 52.021721 -3.785281 1 1
2.122516 518.973510 -90.202911 45 1
-57.211876 567.250310 17.921722 54 1
23.464754 164.335910 49.852413 15 1
-28.913029 255.420410 50.874557 59 1
-23.320095 118.115980 -9.902141 0 0
63.707813 156.165560 70.768608 13 1
-18.451075 98.501945 -19.077745 0 0
-81.674225 174.374590 -25.755007 47 1
83.364197 415.020080 -3.839222 27 1
-10.685433 206.354870 -18.891153 0 0
55.296127 235.055660 -2.815897 52 1
-95.533852 92.348610 -9.978441 41 1
-2.405772 183.495480 -22.007687 0 0
61.217361 95.021820 -15.914554 33 1
-16.723135 237.592030 68.374504 0 0
33.941788 273.045620 -76.166267 51 1
-26.200251 206.890470 -17.449120 0 0
-59.632378 290.693570 13.610493 60 1
-66.579346 535.370240 12.477861 54 1
6.947513 101.274210 -61.711040 44 1
22.299740 108.209230 -56.287182 44 1
-26.400328 250.396850 24.126213 64 1
19.369402 105.293930 22.847952 0 0
36.036331 185.022250 -22.950417 20 1
87.764626 399.841520 -1.756503 27 1
7.694080 149.404750 69.500153 15 1
72.807190 109.414050 30.302406 14 1
11.720750 538.624080 -66.558167 23 1
-132.281280 280.726650 48.137020 46 1
-66.528839 304.464390 -34.812950 62 1
-29.019436 553.783510 -14.808971 0 0
-52.615883 213.727720 -21.665512 63 1
-78.985374 588.589900 24.172726 54 1
-6.110487 57.606178 4.609099 0 0
30.004707 423.364750 -28.594343 26 1
-48.107964 246.432970 35.097805 64 1
-8.159388 329.817870 -19.815371 0 0
-90.602165 265.678310 50.278915 61 1
-12.622692 182.521420 6.503563 0 0
-81.457817 571.259340 -16.269979 53 1
-65.606277 550.731260 66.008995 11 1
-40.551880 282.575900 155.930240 6 1
22.752247 518.671940 -72.126945 45 1
12.238276 402.452480 7.907376 12 1
-11.634219 304.748470 -20.021452 0 0
-112.881060 109.346940 -40.457375 39 1
13.578060 165.568760 -20.048037 0 0
-18.447701 136.077840 5.050603 0 0
3.460703 584.785770 19.023638 5 1
30.622547 286.460480 -99.665741 51 1
-93.412476 581.011050 30.613346 55 1
-8.278202 518.919070 23.298796 65 1
65.559143 95.513023 -32.008316 33 1
10.659349 276.925480 118.486960 8 1
-8.292187 242.324360 45.004398 2 1
-65.976570 253.683840 24.601835 64 1
-53.893978 109.103530 -31.911303 40 1
-23.000898 508.966190 5.888083 67 1
-110.192900 157.165620 2.900653 47 1
-67.675972 527.971070 65.285782 11 1
-9.883760 270.648740 131.440840 8 1
16.785408 552.633300 -20.883392 66 1
-23.293030 263.180180 -5.624717 0 0
4.367978 267.512180 66.437523 59 1
20.508530 221.263670 -7.240236 0 0
-11.008183 256.313390 149.935260 8 1
-16.175024 259.836790 77.300522 59 1
8.955863 479.747190 -6.850346 67 1
36.343517 440.663510 -15.032567 26 1
27.555584 544.330260 -10.501051 66 1
26.886692 68.293304 -2.214233 1 1
-20.475885 237.475950 1.994702 0 0
112.738200 446.254300 -36.621773 22 1
31.258198 445.122310 52.868118 24 1
-5.568497 529.350590 -45.371559 45 1
46.730957 468.149170 9.906815 26 1
17.438311 129.986540 17.074085 0 0
-58.755997 501.374480 -73.217987 56 1
-68.758759 549.263490 49.024326 11 1
61.765179 387.943630 14.164596 27 1
56.853321 398.634220 33.494884 27 1
-83.133316 284.565310 29.284616 60 1
-48.347122 285.443600 3.874351 60 1
-62.418709 198.278520 -25.247995 63 1
-15.158012 280.554900 123.060630 8 1
86.040466 169.478330 -49.396370 19 1
-14.484112 160.082670 7.206018 0 0
78.329819 421.730040 7.643062 27 1
57.377995 250.760300 -14.274819 52 1
30.073193 273.772000 -44.550850 51 1
-48.174549 489.778050 -75.173027 56 1
47.655666 401.845340 -6.439075 26 1
-71.644615 277.011810 119.930970 7 1
105.124390 139.191830 18.100458 18 1
-44.789917 81.431168 19.927237 37 1
-11.028220 518.458500 7.996596 67 1
-36.637821 247.626360 2.160388 0 0
84.517204 471.581760 -27.070126 22 1
-21.732597 541.493650 29.373293 65 1
73.189171 231.192310 -3.500858 52 1
-15.191855 493.603490 -64.054565 45 1
30.230801 561.383480 -3.471122 66 1
57.919044 144.119770 18.204275 14 1
-50.620571 300.675570 16.373211 0 0
-42.970436 540.839170 45.299026 11 1
42.331886 467.534120 39.181065 24 1
-30.914627 289.736270 -18.836525 0 0
-30.393923 225.332990 -32.268642 0 0
78.591797 375.978330 23.376310 27 1
-70.710754 550.158260 7.383727 54 1
-51.165642 267.816350 152.894410 7 1
74.282837 402.391240 22.095661 27 1
-94.570381 167.380600 -9.009612 47 1
94.515427 165.957520 -12.590455 18 1
33.253887 121.957660 32.143047 0 0
110.784740 452.621090 -13.524923 22 1
-11.574649 476.447200 2.528644 67 1
32.986736 238.647430 -39.298912 58 1
83.132523 83.652016 -3.937005 30 1
-12.881529 494.826900 -19.648226 0 0
103.740770 457.706210 1.787565 22 1
-85.862930 565.344850 14.229070 55 1
20.942719 220.014360 9.068640 2 1
-95.555984 91.700081 6.134064 41 1
-78.310204 113.179290 -33.325481 40 1
61.547939 86.215027 30.122108 31 1
-24.454840 581.363280 30.391233 54 1
-58.310627 282.936890 131.567430 7 1
-34.234055 93.241821 -6.559532 0 0
-24.067966 345.346890 -18.695238 0 0
-40.584080 121.116830 -27.580349 40 1
108.481140 157.912400 -32.554958 17 1
51.252819 144.130780 68.924583 15 1
52.306042 420.477390 -14.908176 26 1
2.937217 241.627110 137.617110 8 1
-31.383129 468.475070 -38.239075 0 0
-87.047844 266.183290 -6.067272 48 1
-29.650751 284.569430 145.644070 7 1
-79.948029 271.441380 20.588379 48 1
19.545635 128.256640 81.940994 15 1
-68.378639 512.100710 -75.878517 56 1
-3.798990 604.221310 -46.605297 4 1
91.896294 252.086780 -33.939247 50 1
58.630238 603.984920 -19.631821 3 1
-5.145928 505.546660 -41.375813 45 1
8.036172 556.410890 35.585987 65 1
71.725143 437.779270 2.544468 27 1
-18.515198 242.717680 80.729515 0 0
-7.758534 538.960820 -15.749358 0 0
-123.739250 91.901123 -48.743591 39 1
11.574817 597.416020 -14.707587 4 1
-51.608372 208.329670 -2.685532 63 1
-107.664510 116.623120 -30.476189 39 1
-55.017181 119.087220 -43.358086 40 1
-53.369694 289.372530 120.801290 7 1
-107.348960 583.399600 12.276196 53 1
-78.596703 198.141300 -25.378313 0 0
-124.553110 148.800670 -0.861974 47 1
-29.328524 307.244320 -55.085350 62 1
97.056061 87.913887 -31.202980 30 1
-46.175602 502.150630 -12.522250 0 0
-79.950844 124.579500 -19.968075 40 1
48.465034 413.765440 23.684937 27 1
5.568960 554.589420 -43.292953 23 1
-21.331362 90.340027 -8.608232 0 0
-61.559505 166.659320 -26.075300 0 0
143.369930 130.464140 -13.156841 16 1
-65.237511 115.774660 -34.066223 40 1
-114.602360 266.073850 64.106216 46 1
-3.213794 581.338500 -1.976964 0 0
-58.880814 153.564800 -11.810954 0 0
65.535530 408.566070 35.346298 27 1
-18.140659 237.950530 -46.461067 0 0
-132.989140 554.482850 51.348759 9 1
-59.148994 516.672790 -26.544823 56 1
43.416534 99.771790 -15.591755 32 1
-35.354328 532.195250 -63.513336 45 1
3.769884 517.349300 -64.973434 45 1
38.083897 264.792080 -37.779202 51 1
39.926960 264.409520 -16.003260 52 1
41.176331 599.479370 -5.123037 3 1
82.935059 477.277890 -2.429701 22 1
5.981081 186.237060 -31.880219 0 0
-67.349472 292.742610 -11.710958 62 1
25.879148 96.584122 -50.983273 44 1
62.087234 403.430180 6.512779 27 1
79.593033 260.806580 -41.256084 50 1
-68.437874 500.832920 -82.764526 56 1
53.854256 444.593290 -3.613184 26 1
64.100365 475.968230 -17.945650 22 1
45.948364 456.425960 3.794026 26 1
38.528030 96.625145 -31.082943 32 1
9.923016 595.120540 -31.043007 4 1
-25.702478 544.770320 -69.255508 45 1
99.701057 155.812410 -21.879271 18 1
-118.440080 576.210880 36.362431 9 1
22.759661 142.456530 86.131325 15 1
-35.201458 428.881590 -26.923954 0 0
-31.639683 251.923490 36.884338 64 1
-108.818380 562.101320 53.521790 9 1
-20.528870 453.038570 -39.151424 0 0
-12.265585 527.361210 -92.233864 45 1
-19.004469 513.514040 -73.128510 45 1
-87.620308 106.957570 -7.375471 41 1
-49.764053 129.516690 -17.410898 0 0
51.324089 139.351330 43.554504 14 1
-104.999820 581.046510 54.381664 9 1
-23.204449 262.831120 105.108140 0 0
-34.796795 107.745670 -13.713203 0 0
20.229868 557.145260 5.454272 66 1
-58.760143 269.449520 133.377900 7 1
31.404623 418.507810 4.659726 25 1
26.244875 614.135380 -14.137956 3 1
-98.081039 566.475890 -2.882505 53 1
-121.855180 543.831910 -21.990631 53 1
-89.526711 590.966250 41.806538 9 1
31.376400 428.904480 30.741833 25 1
-0.421089 226.328450 6.023705 0 0
51.058739 196.472440 -56.804127 20 1
41.010117 486.065400 20.012375 24 1
-98.987961 187.145680 -13.430437 47 1
-6.445806 232.622470 -19.868891 0 0
-43.049381 280.785520 119.057330 7 1
-30.584721 387.953220 -32.050568 0 0
-88.708359 293.785100 19.829449 60 1
-45.107170 563.487790 34.824150 11 1
1.226362 522.124820 -15.340195 0 0
25.448763 246.240660 -50.154053 58 1
54.160660 97.835754 -3.340779 33 1
2.852662 562.194460 -31.571304 66 1
-21.912033 293.388850 -10.268023 0 0
7.348359 387.212550 1.739026 12 1
-25.898922 552.459960 10.203224 0 0
100.365970 100.399690 -30.126493 28 1
16.766809 471.406160 35.005428 24 1
21.574907 466.500610 46.389542 24 1
-46.811359 198.944900 20.068132 63 1
-2.042396 532.495060 35.551361 65 1
90.592957 456.819310 -16.249529 22 1
-27.425503 493.339720 -43.628578 0 0
-94.668213 570.313960 22.398558 55 1
4.478446 570.077030 32.520462 0 0
-18.543076 315.634090 -14.649466 0 0
-43.140511 517.325130 -40.239960 45 1
-92.293800 306.035610 -35.557518 49 1
-5.506612 266.516850 177.769000 6 1
69.347336 127.814410 89.043152 13 1
-40.034645 253.571030 25.582060 64 1
-130.767750 539.337400 58.974331 9 1
86.782150 467.117770 4.461919 22 1
-23.037907 220.370360 -1.649241 0 0
-16.000563 279.203640 160.621540 6 1
49.321091 475.795410 23.601509 24 1
-20.247797 88.424545 25.898314 38 1
-103.184050 590.966490 27.562037 9 1
3.792907 494.822050 -15.008862 0 0
71.017555 464.895630 -3.389447 22 1
-80.769508 126.803860 -43.533493 40 1
86.127579 87.861259 -20.729425 30 1
-15.527637 7.115198 0.433488 0 0
49.201252 410.062070 -37.878174 26 1
-38.874641 209.529800 11.437118 63 1
-68.996948 580.352720 19.906839 54 1
-0.650810 542.918270 -65.212654 23 1
-120.040260 556.229190 -16.571014 53 1
-12.724914 98.558525 -3.377939 0 0
-92.688965 124.268350 -12.533814 41 1
-111.777400 550.149110 -36.077213 53 1
-61.517761 247.951630 13.037608 64 1
-21.721802 173.484210 5.711736 0 0
-107.556240 313.258510 -45.385246 49 1
68.009232 255.329380 -28.593466 50 1
43.395512 155.492310 56.447620 15 1
-48.027908 303.332430 -43.940838 62 1
0.163567 212.615980 -16.491329 0 0
-12.891593 504.009030 -29.439711 45 1
-10.846941 555.264830 -13.565648 0 0
98.624634 101.755100 -45.859730 28 1
14.842115 72.337303 -0.397840 1 1
-28.728039 303.256870 -69.129486 62 1
-93.513069 564.801030 -35.513397 53 1
-5.578318 571.407230 23.042271 0 0
77.728973 481.467010 -38.765099 22 1
29.580816 218.822540 20.368628 2 1
9.634422 264.747710 122.676630 8 1
-8.341156 580.064210 -14.567429 0 0
4.279494 490.688750 -76.181480 45 1
-43.100281 265.664730 171.448070 6 1
-118.143270 563.471010 9.266768 55 1
12.827849 241.864120 -13.277894 58 1
84.682953 122.081020 34.794434 14 1
46.029442 102.576730 19.085604 31 1
-13.746949 102.987850 -30.213726 0 0
60.074402 387.128140 -12.317678 26 1
-104.182790 309.384830 -16.503824 49 1
16.082293 525.193790 6.408189 66 1
-68.482071 567.607790 25.529425 54 1
-19.535416 557.810180 -39.940735 23 1
-17.395187 274.365910 61.957710 59 1
-33.782139 504.073030 -101.643640 34 1
20.074234 593.389470 6.785433 5 1
-7.023791 593.383540 -10.459895 0 0
-80.574394 558.176880 57.186871 11 1
-61.627365 535.517400 56.905163 11 1
-104.560390 168.280900 0.321611 47 1
-59.745960 556.141300 54.601196 11 1
1.228054 371.176120 -11.424430 12 1
-118.774660 582.224180 23.615522 55 1
25.105827 469.247010 24.325884 24 1
-7.740030 236.118820 15.687970 2 1
22.098726 246.969940 130.719650 8 1
-34.937950 554.794980 26.968853 11 1
83.602112 393.692410 8.455796 27 1
-99.830864 268.822600 38.428753 46 1
-61.593964 229.785830 16.230587 64 1
42.112865 161.975750 32.863186 14 1
-104.072710 149.099720 -6.822368 47 1
91.744484 461.192170 -42.797684 22 1
61.857742 406.807070 -27.894718 26 1
-102.419560 109.773350 -20.584749 41 1
-22.876421 530.232540 -12.872175 0 0
-24.957964 246.926540 166.850190 6 1
-1.145812 508.566800 -83.124908 45 1
13.850748 482.356260 -80.229126 45 1
-14.029084 112.321080 -3.514270 0 0
-36.292210 266.518830 72.659630 59 1
-63.230221 98.176392 -52.542759 40 1
3.331463 548.254700 27.212755 65 1
54.784214 271.109950 -62.573532 51 1
-112.226500 182.800080 -18.688139 47 1
-28.381794 175.608440 -4.812903 0 0
-26.689251 83.649307 14.526777 38 1
16.068499 388.840790 -14.747708 12 1
30.512814 147.580180 61.679569 15 1
63.055470 383.729950 -25.835684 26 1
65.155731 147.934660 37.666897 14 1
17.148743 583.065000 18.189709 5 1
-10.768836 544.434330 7.060316 67 1
3.216337 502.371090 -32.410595 45 1
-118.452170 276.677370 25.752565 46 1
-81.037247 310.756380 -12.775048 49 1
25.910830 258.127660 120.579250 8 1
6.848819 545.130620 3.108300 66 1
-32.387367 505.950100 -14.793435 0 0
28.437462 484.997310 25.344219 24 1
-132.965360 260.445100 59.541973 46 1
11.820940 222.925720 -27.630630 0 0
35.663788 529.127930 -64.457329 23 1
17.078194 513.980290 -39.700268 45 1
-4.659607 253.495670 -61.718796 0 0
-73.346466 554.771120 25.840420 54 1
1.002553 265.036190 92.765198 59 1
23.790277 280.535250 -88.674530 51 1
5.937383 222.223850 26.072643 2 1
-69.275787 255.541080 46.172268 61 1
-29.579325 552.422970 -28.806801 0 0
-44.078728 207.392550 -15.156290 63 1
21.214611 546.185060 -30.969526 66 1
-98.970863 579.566160 42.146336 9 1
120.100740 166.507800 -52.291794 17 1
28.801540 440.124420 -2.674162 26 1
-62.352249 211.948840 3.232375 0 0
74.475113 119.843030 23.362061 14 1
-40.099873 278.334440 10.083381 0 0
-100.359830 273.487300 51.084118 46 1
-12.964514 486.744540 -4.244964 0 0
-2.848732 283.209350 125.403350 8 1
21.365139 246.383530 -25.954447 58 1
-65.738464 503.282930 -44.059052 56 1
-42.821835 241.979480 -25.036896 0 0
-1.867758 527.631840 -82.314247 45 1
-9.485082 200.056200 19.236586 0 0
-85.624710 172.154280 -82.433998 35 1
83.957481 107.386390 37.376904 14 1
0.126937 101.742550 14.038296 0 0
-41.000381 224.237460 -11.510864 0 0
-13.593854 77.446762 -5.674538 0 0
32.963329 84.424400 -10.393939 1 1
50.101765 166.523280 9.462066 14 1
-11.558787 28.759912 3.573739 0 0
19.055325 544.465880 4.733106 66 1
-81.055115 475.479490 -73.238136 56 1
11.089610 608.834530 -27.407692 4 1
26.946251 415.653110 22.471014 25 1
-123.479380 80.781769 -54.395664 39 1
123.251300 154.421040 -32.191044 16 1
-85.105370 158.066600 -68.894600 35 1
37.637409 540.441650 -4.607635 66 1
43.608589 235.518020 -9.481983 52 1
39.696377 610.008540 -12.257783 3 1
-92.413925 189.106830 -30.042482 47 1
-100.689320 559.266910 -14.746689 53 1
36.271317 379.206940 53.899872 25 1
-24.126688 62.676823 -3.509436 0 0
-23.026466 509.071200 -6.529635 0 0
21.079781 483.294650 -61.351868 45 1
-25.914448 276.393890 -18.551876 0 0
26.098253 536.284480 -58.238388 23 1
-28.676760 473.279880 -7.166564 0 0
-29.583616 409.204710 -34.905186 0 0
-25.536190 101.678280 26.579222 38 1
14.938864 210.583100 -26.102777 0 0
-20.597786 571.446900 -23.770803 0 0
-57.132141 196.887650 -2.735984 0 0
44.085625 426.211580 -7.888097 26 1
-8.991556 544.351320 -77.671646 23 1
-4.294902 593.912290 21.617552 5 1
-11.621634 263.766630 167.216000 6 1
-131.780610 570.316530 60.858990 9 1
-61.582657 497.568300 -61.422222 56 1
49.234898 281.015500 -90.398552 51 1
103.658430 70.734047 -21.669355 29 1
-40.046185 502.162720 -64.908363 56 1
37.868576 102.262690 -50.846664 44 1
80.391869 134.376100 86.142563 13 1
54.657413 191.455280 -34.426430 20 1
-20.872837 263.841370 148.198000 8 1
64.351723 442.184480 15.241099 27 1
10.289277 147.094090 83.237991 15 1
64.994019 262.614720 -92.379105 51 1
-0.296793 292.170900 108.859860 8 1
-28.182276 73.880920 5.295137 0 0
-4.130613 162.713810 -34.913315 0 0
-15.515270 120.978010 -62.933567 43 1
-86.520164 174.224110 -64.729225 35 1
40.617371 519.252260 -49.160088 23 1
11.856830 441.371370 13.485771 25 1
0.645661 127.856290 -23.322128 0 0
-81.333229 244.114040 12.739716 64 1
62.069389 476.180690 2.790772 22 1
12.236138 519.682070 -4.181635 66 1
22.257193 407.600860 42.582005 25 1
28.831921 446.575990 18.431215 25 1
31.034279 153.777680 39.102268 15 1
-66.310318 193.287890 -50.050812 35 1
-30.259619 547.613830 -3.281649 0 0
76.074890 474.275450 -18.774427 22 1
-96.746475 578.613460 4.267761 53 1
-37.940693 453.386660 -12.947623 0 0
1.563936 602.875790 3.974176 5 1
-20.714689 495.185120 -74.641731 45 1
-46.213757 188.842380 -30.620512 0 0
30.458879 488.330960 -51.285416 45 1
-9.901454 241.744600 32.866390 2 1
-124.490730 106.494610 -39.061195 39 1
-117.705110 312.591400 -30.157162 49 1
57.125141 393.831730 -29.699718 26 1
4.188653 108.426250 -46.383873 44 1
-19.691032 573.979130 -9.852448 0 0
-91.248482 110.135350 -48.398125 39 1
-9.310225 107.679560 -40.760246 0 0
1.502726 483.095580 5.903591 67 1
-42.907658 68.879425 31.774117 37 1
0.659243 594.883670 -54.522934 4 1
-53.605007 293.718870 -27.063538 62 1
-126.210350 583.476680 49.507397 9 1
22.442911 277.080990 -73.665207 51 1
12.027658 250.743350 140.384380 8 1
-118.921710 571.247740 -0.715936 53 1
41.184204 144.958680 77.795891 15 1
45.299625 177.154860 2.359074 21 1
52.314709 420.059940 0.751960 26 1
66.296066 148.158630 88.743095 13 1
26.963459 455.870910 43.640835 24 1
11.452168 272.977260 107.214300 8 1
-85.168221 306.184230 -2.378088 60 1
-50.464520 538.978520 59.766930 11 1
-16.492981 504.231540 -116.580050 34 1
68.830902 398.166630 -14.117714 26 1
124.958060 138.280330 -4.837243 16 1
-20.823633 273.819610 170.318730 6 1
-52.836334 575.219910 46.886204 11 1
-30.616873 117.663290 -63.937321 43 1
84.643784 124.606250 70.881157 13 1
21.989023 101.841540 -71.957733 42 1
-89.653542 109.137260 5.353532 41 1
72.498482 137.154720 58.148376 13 1
66.186043 433.701690 -7.690331 26 1
11.334570 536.435060 -48.877388 23 1
37.025074 413.075230 28.241602 25 1
99.682327 463.528530 -27.217625 22 1
58.433128 138.901290 53.419468 14 1
-28.854942 526.691280 6.009889 0 0
-26.881014 259.552830 70.428925 59 1
-77.343620 97.841934 -33.573406 40 1
79.558624 95.215706 -13.953094 33 1
-13.342699 533.156190 18.052422 65 1
-51.313126 539.004210 -74.823532 56 1
-10.748346 198.349780 -8.538908 0 0
-52.625778 258.850620 31.036446 64 1
-44.116692 492.951870 -85.911079 56 1
-14.127192 65.911201 26.123779 57 1
-81.310616 259.549010 140.939510 7 1
46.640579 155.617130 -33.620251 0 0
-106.368010 95.139122 -56.906193 39 1
-30.238091 284.302400 132.449130 7 1
-69.535568 304.066440 -9.071595 60 1
7.858867 605.225160 -49.137882 4 1
2.091238 163.152210 -23.751278 0 0
2.114136 491.445160 -48.421658 45 1
91.495949 93.898041 -60.733192 28 1
7.815549 591.948120 6.803185 5 1
11.331607 569.527100 8.839995 66 1
64.285896 386.365510 40.509308 27 1
-32.004299 75.695236 23.998398 57 1
-11.123063 218.646500 -1.716657 0 0
19.525898 507.975010 -5.757052 66 1
-130.350890 574.507320 33.811802 9 1
-56.846432 320.401030 23.855078 0 0
63.838833 433.713990 24.543215 27 1
93.517433 460.373410 -4.995630 22 1
-49.699478 495.097960 -64.437164 56 1
-81.747551 116.463840 -11.291414 41 1
-47.141937 149.690170 -16.023840 0 0
-7.869764 545.176820 -55.190697 23 1
-75.886505 184.542650 -21.370157 0 0
-45.381920 238.852540 22.798515 64 1
-6.721262 110.503440 -60.364555 43 1
-26.220276 220.663820 18.050697 0 0
40.416149 197.005220 -51.889717 20 1
-110.915160 181.608840 -30.286655 47 1
-54.649036 525.765260 -70.425705 56 1
-23.427584 298.250150 -50.412800 62 1
-98.332176 265.039310 -10.021800 48 1
-124.272980 558.865480 67.364601 9 1
3.678360 202.696950 17.914640 0 0
-70.017738 482.808690 -66.875519 56 1
11.058734 585.093320 28.042900 5 1
-41.015980 281.659060 141.638690 7 1
99.249634 67.451508 -8.609851 30 1
80.134445 112.405200 16.319731 14 1
84.162735 165.490860 -38.320286 19 1
52.803841 447.949010 42.739277 24 1
-91.559311 563.290470 -24.007996 53 1
12.036068 561.928960 -1.528676 66 1
-0.823756 262.700900 144.929580 8 1
72.516228 272.643590 -95.380127 51 1
86.447784 422.277830 -12.452276 26 1
36.269432 541.997440 -44.159100 23 1
3.443551 374.374480 -22.686834 0 0
-12.592086 183.102920 18.521351 0 0
66.845032 150.283360 13.906018 14 1
107.250310 161.795850 -15.000832 18 1
-16.912804 70.832840 36.748158 57 1
-91.472618 558.092100 5.780530 53 1
-88.842186 559.885190 39.668819 55 1
15.556577 228.046200 -16.134190 0 0
7.675450 526.025700 36.521450 65 1
141.883740 139.772230 -33.931992 16 1
-41.190441 521.657100 -51.882488 45 1
3.167010 527.372250 8.161719 66 1
-92.856667 124.730490 -44.690575 39 1
-83.394318 276.187590 122.668430 7 1
19.316460 280.682400 -60.353199 51 1
65.480743 392.616460 24.478344 27 1
59.565975 396.831300 -5.717640 26 1
-63.801216 178.939190 -28.575315 0 0
-6.727089 257.749940 41.930885 59 1
-30.009375 266.753300 178.480270 6 1
-64.601448 241.533770 70.008064 61 1
-19.482992 296.088650 -22.255146 0 0
-7.805740 78.588043 4.314444 0 0
101.517910 88.691521 -48.954426 28 1
-64.904114 290.667690 -23.041901 62 1
76.432884 463.722870 -24.229662 22 1
51.388298 395.120820 50.562199 25 1
35.352554 476.385830 42.080894 24 1
-3.675213 611.496520 -25.195276 4 1
-47.663124 552.496460 48.154568 11 1
-24.433002 43.761013 9.080669 0 0
-48.667942 93.372612 -12.154769 0 0
-51.334366 243.518810 -17.231188 0 0
-69.709435 196.054980 -61.002499 35 1
-57.367847 505.785340 -83.902908 56 1
14.320573 205.225040 34.373905 2 1
68.792511 155.701310 -28.522936 0 0
5.476225 606.783450 -8.841881 5 1
35.117229 172.914000 -4.039773 21 1
6.827176 549.883790 -29.454653 0 0
14.966536 400.572570 29.924963 25 1
-86.044769 580.033020 -22.125658 53 1
-62.391510 288.270570 109.086320 7 1
-28.644674 327.158910 -12.363070 0 0
-7.791829 582.513000 21.071304 0 0
-28.557308 210.441250 -3.401191 63 1
42.145470 405.391850 -45.960449 26 1
82.922226 129.197810 25.003435 14 1
23.292721 88.971191 -91.621422 42 1
-35.756699 575.565060 30.309223 54 1
-5.692719 218.090180 20.371494 0 0
-89.537399 177.418060 -11.901488 47 1
-34.280281 257.249450 7.959017 0 0
139.304730 140.097920 -21.105381 16 1
-1.826217 491.017400 -64.057106 45 1
-94.135597 127.526760 -23.618958 40 1
-76.708969 263.235840 35.256512 61 1
-36.479801 557.725280 15.617577 11 1
-32.298363 238.674420 -12.534738 0 0
12.839007 496.245360 -64.150124 45 1
50.681812 605.094670 -8.335325 3 1
-103.842790 256.106140 -15.091234 48 1
34.787388 151.296190 -34.442532 0 0
-71.005127 568.879330 -20.254845 54 1
-121.302300 136.298200 0.801192 47 1
68.035454 149.923000 57.294472 13 1
79.702415 255.912060 -51.933910 50 1
-30.176491 372.674590 -19.407591 0 0
-81.510704 249.923890 65.501694 61 1
-1.474642 595.610170 -65.703217 4 1
73.755676 167.309450 -16.975218 19 1
-3.312516 494.188750 6.114926 67 1
16.486673 258.712400 -67.532707 0 0
-47.113625 529.079590 64.718086 11 1
55.273357 95.756592 10.649102 31 1
1.633302 220.342830 -7.887462 0 0
-59.899673 551.467830 42.008881 11 1
42.375961 414.559690 40.494667 25 1
-2.340606 215.661710 42.929214 2 1
-60.267921 558.582890 -21.169058 54 1
-14.659060 275.394440 79.090271 59 1
-78.652527 286.338010 14.023492 60 1
7.481221 497.059970 -85.020882 45 1
-47.824043 516.935670 -1.974541 0 0
26.198105 271.825290 -55.132435 51 1
-29.023989 232.650740 26.373169 64 1
-39.426178 94.832848 4.372693 0 0
70.870995 89.222626 11.218568 31 1
13.998294 436.059080 3.689155 25 1
89.082359 250.531370 -46.214554 50 1
48.146156 268.190160 -41.747078 51 1
43.043709 606.246580 -27.151939 3 1
108.829210 153.559330 -0.644353 18 1
-72.314400 179.949460 -75.294312 35 1
30.852436 140.024520 52.463551 15 1
-127.134230 270.472140 46.455181 46 1
-126.095160 157.974010 -15.206771 47 1
-19.097733 225.234250 -32.948212 0 0
-74.394981 118.715230 1.485901 41 1
-27.747053 276.434110 120.967190 8 1
-32.061928 416.549040 -11.844039 0 0
-98.665543 316.027830 -36.871658 49 1
36.128784 439.071660 61.792595 24 1
4.359500 112.891270 -65.957245 43 1
-7.362901 498.915500 -55.180298 45 1
18.552172 271.528440 -39.030579 51 1
-12.204688 48.464371 1.922439 0 0
10.586971 94.545486 -100.874410 42 1
-1.607329 600.092470 -34.585556 4 1
60.719189 239.816420 -17.354586 52 1
74.035713 142.469220 32.831982 14 1
-17.495224 519.024350 -29.519777 45 1
-20.113350 235.976070 13.198370 0 0
-106.466840 170.157290 -16.629683 47 1
58.240822 410.886050 -16.087078 26 1
-15.984802 80.270729 11.915976 0 0
-34.940441 79.176079 -5.557534 0 0
2.584145 62.291138 -8.100505 1 1
62.904964 144.419920 69.920357 13 1
-62.832504 252.943330 55.030403 61 1
-62.990681 208.318740 -20.011517 63 1
-66.056976 202.491010 -6.684648 63 1
-24.579252 534.280880 -60.911064 45 1
-16.977415 552.060910 28.818798 65 1
30.945147 283.694460 -80.016426 51 1
-84.008461 312.262570 -29.022350 49 1
-46.796612 109.566810 -9.469911 0 0
152.006300 135.047960 -18.700407 16 1
33.428638 385.370850 44.589806 25 1
93.163002 170.539200 -27.594286 17 1
-20.917994 449.417300 -6.932694 0 0
-63.263309 116.325230 -50.459511 40 1
-20.993832 464.867770 -20.507717 0 0
-6.210799 553.945130 18.799173 65 1
-117.778650 322.780400 -42.874702 49 1
19.657467 517.781310 -82.899323 45 1
15.596674 413.590420 25.117002 25 1
-114.176780 168.479830 -6.209962 47 1
6.641813 511.853820 23.840408 65 1
-107.782420 110.432830 -50.373867 39 1
33.606529 160.854250 54.896542 15 1
-32.358738 492.896060 -16.422516 0 0
-76.877472 579.962460 52.328003 54 1
46.024143 387.089260 -40.657921 26 1
-43.494026 271.226930 137.365660 7 1
-14.804436 172.011230 -3.039090 0 0
11.065226 224.801360 11.306273 2 1
38.731724 250.944310 -51.632969 58 1
2.991394 503.690610 12.477846 67 1
68.412102 259.209560 -40.453754 50 1
25.316917 168.619610 -13.627461 0 0
27.923639 475.919400 32.814480 24 1
-74.264580 119.968230 -51.763935 40 1
-119.127970 562.501280 48.884109 9 1
-35.954674 263.513210 53.882397 59 1
78.830330 147.337140 56.381416 13 1
23.680552 412.201600 -45.287464 26 1
46.423203 446.051270 12.431232 27 1
-88.085854 566.162350 30.343985 55 1
1.951740 88.500092 14.840472 0 0
-90.379005 262.901610 39.518272 61 1
32.193420 215.400280 -18.698545 0 0
38.888474 134.094650 76.317596 15 1
-35.751160 203.634830 2.417064 0 0
-0.602399 203.560940 -22.855433 0 0
-130.429840 270.706480 62.900326 46 1
75.077339 384.584720 29.421906 27 1
-20.316439 509.458920 -35.610142 45 1
-7.131142 262.337620 64.045471 59 1
-73.641174 288.586090 110.154270 7 1
-23.970116 155.574430 3.457211 0 0
-31.821556 56.448715 4.454267 0 0
-5.597239 230.890440 47.049397 2 1
-11.952675 552.172000 -34.010918 0 0
113.151790 150.671680 -11.515259 16 1
-48.202141 271.517550 127.349930 7 1
34.623749 400.034180 33.480888 25 1
9.088942 406.985320 17.503777 25 1
98.892540 146.316960 -0.967909 18 1
96.906471 167.932940 -46.270283 17 1
-114.047600 306.332030 -21.522074 49 1
14.732609 573.233640 -3.461541 66 1
-9.286543 188.912120 -15.267446 0 0
20.761934 229.304060 -29.738073 58 1
-101.471080 571.862610 34.633381 55 1
-31.393478 238.034410 3.735077 0 0
-18.753250 476.422580 -17.291676 0 0
-21.476057 258.077510 169.531680 6 1
12.928449 103.670490 12.772351 0 0
-102.386470 88.570007 -2.199488 41 1
-10.720636 596.010190 -43.589493 4 1
-24.355085 273.946690 145.085540 7 1
-57.264221 204.166690 9.999474 63 1
-49.686489 245.102040 13.078753 64 1
-11.348867 529.266170 -62.468746 45 1
-79.928238 488.106480 -51.585995 56 1
31.684851 430.097690 -20.044176 26 1
-63.050816 527.204900 75.822739 11 1
80.740822 103.814320 23.255129 14 1
-60.071442 108.012150 -40.956989 40 1
-23.260355 244.313580 35.721844 64 1
59.174667 149.011280 46.880459 14 1
53.336720 148.392040 28.946642 14 1
-54.059875 291.641240 -10.472259 62 1
-62.815163 521.255920 -84.077080 56 1
-30.077246 500.649720 -78.351494 45 1
40.601025 141.391160 67.376312 15 1
-11.915995 255.358980 175.725250 6 1
-119.104340 71.263557 -48.609177 39 1
-41.257748 302.487610 -34.490532 62 1
59.808998 155.645720 22.116106 14 1
-36.711071 575.174130 44.790665 10 1
-35.447861 360.108490 -26.005457 0 0
15.808789 158.769180 69.925903 15 1
3.715408 554.633300 -1.398961 66 1
-6.506385 265.086490 79.809303 59 1
-108.478840 570.976810 12.913090 55 1
63.058407 485.030790 -9.849797 22 1
-18.731529 283.684970 -14.225608 0 0
-33.065407 401.358800 -24.655153 0 0
-63.314938 272.773010 143.189700 7 1
-69.078506 277.901980 19.468531 60 1
-10.875450 104.803040 -12.240199 0 0
0.962566 564.784060 -17.501080 0 0
126.051800 150.183760 -22.442898 16 1
84.642632 150.067140 9.887948 18 1
-89.889664 575.711730 -7.642233 53 1
-49.398582 516.990600 -65.701233 56 1
3.423763 598.962890 15.251554 5 1
111.172020 453.033110 -27.667049 22 1
34.638783 438.310700 23.414030 25 1
43.292137 98.082909 -1.153510 31 1
14.166908 504.412660 -35.375721 45 1
5.467059 223.433090 36.961170 2 1
89.971893 485.658780 3.609910 22 1
42.368690 419.024870 6.851254 26 1
-30.573935 508.027190 -111.253560 34 1
-15.712747 501.200440 12.349278 67 1
-57.873428 298.359800 -38.439056 62 1
-116.764730 267.578950 48.438622 46 1
46.426746 151.167340 45.672417 15 1
-28.561684 313.002930 -11.029009 0 0
50.921497 431.142300 30.012192 25 1
10.263852 513.335880 -79.736465 45 1
-103.266850 85.829857 -67.311684 39 1
-32.647583 561.106260 -23.055155 0 0
-86.206299 582.712950 2.919586 53 1
-58.213871 258.991180 142.637850 7 1
25.381294 200.484790 -39.085621 20 1
-86.486252 262.565890 12.759653 48 1
-14.788447 217.684860 30.869606 0 0
92.936218 69.160904 -19.593479 29 1
-70.804955 292.315860 -1.461474 60 1
40.493622 242.174610 -24.130106 52 1
31.825377 142.883580 -26.719099 0 0
29.613401 152.098280 71.871742 15 1
71.597450 392.223720 12.728920 27 1
51.696930 243.350400 -8.754669 52 1
21.921265 430.341890 -30.314205 26 1
-91.644852 576.042660 60.502380 9 1
-52.375420 523.888980 74.276772 11 1
36.745190 170.678910 26.507036 14 1
33.953930 519.138310 -0.332108 66 1
36.025589 276.415250 -53.681499 51 1
43.569382 417.091310 -31.928761 26 1
42.912491 187.962540 -14.914493 21 1
-8.330017 121.875640 -22.923050 0 0
-38.116077 404.494110 -15.647593 0 0
23.766069 147.883770 29.304161 0 0
-15.089595 292.623690 -32.185291 62 1
-5.474229 537.906680 -88.219955 45 1
-62.973930 542.316040 5.060796 54 1
-114.689780 553.958310 66.850891 9 1
-45.497398 199.644870 -22.690422 0 0
-63.145893 166.466800 -15.266558 0 0
-9.992838 261.794620 91.931534 59 1
46.338314 440.396670 -10.081638 26 1
-46.550362 215.378020 -30.840979 63 1
30.001699 246.566190 -19.174377 58 1
27.613766 533.925540 -47.738911 23 1
75.635078 260.091340 -93.561546 51 1
-122.665630 262.943210 57.702229 46 1
3.829188 285.020170 116.629840 8 1
-100.289740 256.004910 55.338604 46 1
20.510723 607.004210 -8.341720 3 1
96.508408 74.862648 -35.098972 29 1
-27.242086 514.346190 -66.293861 45 1
-46.886829 567.699460 15.013991 54 1
-0.456506 215.709410 4.461876 0 0
-4.869193 252.459960 138.376010 8 1
-26.504686 228.510100 4.427093 0 0
16.730572 406.731540 -1.697846 25 1
-81.582039 187.203030 -30.533106 0 0
58.350426 128.771840 36.195797 14 1
38.463688 198.717160 -41.087437 20 1
-58.775131 190.701000 -68.080002 35 1
94.986153 136.119930 15.512900 18 1
-74.425713 251.536040 18.357990 64 1
-27.989504 244.228100 -4.327599 0 0
-60.378590 577.299010 39.568726 54 1
-15.540150 494.415310 -36.953438 45 1
54.348152 165.755290 19.331585 14 1
51.868309 176.728490 -6.422261 21 1
51.440594 264.286650 -54.393265 51 1
-100.105870 304.840970 -25.340502 49 1
-116.126270 309.406340 -40.253510 49 1
90.359474 97.775627 -11.119700 30 1
-10.520510 79.474205 24.599068 57 1
-20.816006 108.575830 -15.960369 0 0
-113.137840 552.176030 18.587513 55 1
74.006599 417.583370 -12.367812 26 1
16.685926 140.801320 77.434380 15 1
73.436737 483.530940 -24.847708 22 1
-25.338350 425.525330 -29.289938 0 0
61.113331 138.959170 90.358070 13 1
-73.492828 267.717160 128.785320 7 1
-28.544807 241.275410 17.641727 64 1
41.058487 192.812700 -28.239470 20 1
-83.510239 294.421720 2.378981 60 1
-11.371119 507.776980 -107.881680 34 1
-25.334393 488.415620 -6.586926 0 0
-75.030495 268.528990 139.350080 7 1
-69.596550 100.519120 -43.601479 40 1
-69.350708 125.453960 -18.852585 40 1
52.138863 260.252990 -19.721889 52 1
55.541950 182.839450 -16.758177 21 1
-3.981667 582.874020 8.637493 0 0
-20.593233 551.604680 -60.666210 23 1
-9.553202 580.201900 34.813984 5 1
107.596300 83.704460 -34.789089 29 1
107.975470 173.308820 -55.254330 17 1
-83.658752 584.187560 33.401730 55 1
-33.787453 260.964420 43.038658 59 1
76.697586 162.327290 -25.963757 19 1
-63.764755 559.318050 20.843328 54 1
-10.901152 497.923950 -123.069690 34 1
-11.626390 565.940250 10.338322 0 0
-57.869980 485.856690 -77.946915 56 1
67.296204 177.204880 -34.728271 19 1
-20.831799 188.204220 10.104038 0 0
66.203812 105.071740 -13.471362 33 1
22.100885 438.323700 17.670021 25 1
1.889280 542.035890 -44.221706 23 1
-111.039100 573.561460 60.498322 9 1
-3.741279 356.782930 -22.467176 0 0
2.992142 99.368347 -52.062798 44 1
87.415230 133.175890 64.328827 13 1
63.927006 171.201220 -21.288229 19 1
10.591255 419.725740 8.506502 25 1
34.445560 91.582947 -55.536491 44 1
0.158672 527.311770 -71.701790 45 1
-108.822310 580.790650 38.499256 9 1
-52.492256 169.265960 -21.011909 0 0
-17.557186 538.933170 -72.864990 45 1
31.588453 455.106050 58.489250 24 1
3.531283 523.430910 -25.829529 0 0
51.160820 93.082436 -12.953919 32 1
-34.486065 298.554290 -14.236417 0 0
-116.251450 269.541260 36.049847 46 1
-70.252953 491.049500 -86.530952 56 1
-79.135948 570.732300 45.692204 11 1
29.472822 537.838130 1.825331 66 1
-58.216137 546.416810 59.835491 11 1
-9.893384 526.488460 -36.182335 45 1
-6.691018 518.891300 -96.001419 34 1
30.027853 597.575380 -7.276312 3 1
63.320927 131.690810 27.235250 14 1
-3.033017 199.594440 9.975509 0 0
-70.538086 561.534970 36.050709 11 1
-97.725174 101.298190 -16.395529 41 1
9.841475 422.281520 23.548695 25 1
-100.526110 265.817440 0.640327 48 1
13.499283 217.307340 31.563896 2 1
-97.213058 287.358280 16.750532 60 1
64.602486 234.268420 2.043084 52 1
3.527685 509.996250 -57.443150 45 1
75.174858 414.823700 14.962230 27 1
22.030382 551.265080 -41.143505 23 1
-17.737551 192.116730 -3.756665 0 0
-22.987587 474.972990 -38.724522 0 0
99.345146 79.729233 -5.093489 30 1
-66.634285 511.690700 -31.982975 56 1
71.733727 473.455810 5.879256 22 1
-55.861156 175.512240 -3.548797 0 0
-82.093025 106.588710 -52.126064 40 1
-116.537190 571.719670 22.158682 55 1
23.486910 560.819820 -19.634758 66 1
0.019228 362.555760 2.789897 12 1
-68.345100 562.252750 -11.131687 54 1
-54.435001 553.904970 24.464676 11 1
66.665504 121.073750 41.599323 14 1
45.051704 272.626220 -58.434444 51 1
-8.577984 38.715481 33.075909 57 1
40.620712 454.762880 12.866206 27 1
64.261375 467.043210 12.680228 22 1
31.345419 166.153090 41.946682 15 1
12.578933 536.894290 -76.846771 23 1
31.412743 248.593410 -34.912174 58 1
3.046374 217.556230 14.435304 2 1
-15.427193 527.566770 -81.610367 45 1
-9.713736 352.730070 -10.388906 0 0
90.801926 156.601470 -8.725976 18 1
22.245310 491.868840 -67.963989 45 1
-25.599356 207.816540 17.185810 0 0
8.062962 379.134030 8.327224 12 1
0.420088 562.669920 12.472692 0 0
-17.107622 251.577180 86.093781 0 0
-61.499336 527.561890 7.455127 54 1
82.537125 247.575520 -31.902193 50 1
42.643105 89.378487 -37.623116 32 1
91.271774 177.938060 -46.289352 17 1
-61.933113 566.611820 52.271282 11 1
-16.232588 257.213530 99.783531 0 0
64.604126 438.471280 34.804214 27 1
-70.982323 299.631560 -19.083042 62 1
0.463756 237.261870 41.238087 2 1
-46.894051 509.899810 -73.080750 45 1
114.737110 163.084630 -60.554310 17 1
-16.582401 228.531400 -1.901709 0 0
15.313252 119.789940 15.837947 0 0
-18.455023 503.595250 -19.182171 0 0
92.997299 467.118320 -34.330086 22 1
22.013929 389.299380 42.214340 25 1
-27.505138 512.169620 -98.507256 34 1
81.210709 95.855713 -25.863686 33 1
20.561951 99.905815 -41.558125 44 1
-32.519680 561.767460 57.646099 10 1
-99.097389 580.522830 21.874485 55 1
-7.788617 501.579350 -12.449716 0 0
-44.963837 532.976560 -69.239868 56 1
-7.605864 244.921050 23.251329 2 1
-5.222699 605.608700 -16.297951 4 1
-6.198092 485.040190 -43.976707 45 1
-63.800060 570.690730 7.841056 54 1
-48.112724 296.034240 -17.887882 62 1
-17.411591 303.014010 -11.325686 0 0
31.538113 178.893690 -11.730694 21 1
77.709648 469.665560 -36.920654 22 1
-31.686722 385.634430 -20.781853 0 0
-97.179970 271.270200 28.509550 46 1
-132.671540 549.457950 60.517868 9 1
-29.099758 514.964900 -46.336658 45 1
-39.268734 304.225890 -51.272804 62 1
-16.016291 58.991291 1.790189 0 0
-87.726669 263.482360 29.515642 61 1
15.077830 399.146360 -15.235140 12 1
15.160475 409.558260 35.086308 25 1
-5.152150 48.156731 -6.232213 1 1
-66.295380 250.412510 64.947685 61 1
-17.301527 290.667880 123.685950 8 1
-91.449303 180.214370 -51.461494 35 1
-105.365170 313.578860 -27.207657 49 1
-2.756765 536.171080 -6.879515 0 0
