112.379640 134.626390 90.376038 13 1
50.248920 378.477050 108.146020 0 0
231.626570 299.618500 -18.792618 16 1
222.843000 256.725040 -20.255247 2 1
90.766441 546.754760 90.520004 6 1
172.135240 137.511490 69.305931 18 1
134.896220 142.437710 19.389853 19 1
43.865944 196.542500 13.508121 24 1
33.611961 315.788670 94.635071 10 1
42.750011 150.915800 64.179123 0 0
-4.321048 344.221830 -11.425323 0 0
2.385206 312.846560 129.258090 9 1
-37.203201 290.330600 -236.154140 35 1
259.975010 247.474490 -72.930550 2 1
17.956808 348.044980 -112.615620 4 1
196.546590 329.411290 -1.272042 16 1
208.644670 310.229710 -20.722214 16 1
245.448090 252.296910 -37.033226 2 1
25.697979 163.968800 12.203282 0 0
74.977776 357.609040 -29.150633 30 1
188.379500 294.606480 -31.888729 0 0
79.616302 229.357410 -190.255110 1 1
194.988980 292.631100 83.073265 11 1
70.987305 344.024350 -181.706940 31 1
77.882072 302.949490 198.895290 27 1
149.966460 437.748930 -75.469185 0 0
-73.198769 515.940370 64.193977 14 1
25.881405 285.379300 -11.027142 0 0
198.525380 316.401250 -30.010813 17 1
-23.523771 470.435060 66.582474 15 1
66.522408 354.785520 -179.462770 31 1
-37.212170 507.832000 -3.444419 0 0
-0.368234 200.115140 3.439140 0 0
178.779630 347.567110 23.854258 11 1
45.510361 225.009260 -247.557480 36 1
19.692457 228.381550 25.599052 0 0
169.435200 119.352960 23.057568 21 1
4.446971 386.067410 25.391804 0 0
28.451057 333.836460 -128.275800 4 1
105.593100 265.070250 -193.352330 12 1
-29.939034 298.013850 -232.788100 35 1
13.615627 290.126460 -135.735050 0 0
195.905260 340.441710 -74.011665 17 1
178.602980 334.612030 13.340279 11 1
15.030627 320.519440 159.416280 8 1
29.044033 210.002900 94.600990 0 0
-2.575837 329.273560 107.740630 9 1
30.371422 345.161770 -80.056099 5 1
19.320175 372.858340 37.636372 0 0
19.896486 184.880580 0.837474 0 0
18.743523 263.983460 -65.972801 0 0
9.538846 406.970950 10.815125 0 0
20.391735 397.550350 -10.312183 0 0
14.805738 215.888840 19.388210 0 0
66.090965 282.404720 239.870040 26 1
69.312607 221.426280 -206.036040 1 1
25.082739 182.764020 81.232040 0 0
9.605599 400.136050 -3.479521 0 0
18.985922 303.140620 210.872680 25 1
-0.363219 283.032560 -277.092530 32 1
263.677090 234.926930 -14.347621 16 1
50.053795 571.258670 46.760708 0 0
49.756790 277.033780 208.362270 26 1
78.273438 195.121430 -189.236130 1 1
65.544403 338.191800 -56.006504 0 0
-29.249929 317.287320 98.538727 9 1
5.331397 322.911010 -6.817550 0 0
26.047974 366.738800 30.285740 0 0
-9.576255 354.364290 25.934759 0 0
82.710991 215.978360 -183.111180 1 1
80.811302 326.298400 -129.806960 3 1
38.604996 267.726010 -227.839600 33 1
165.074840 98.128174 49.199955 28 1
-8.434471 314.249270 116.666520 9 1
-34.053368 523.294680 32.905060 14 1
-72.349991 460.003570 70.193344 15 1
36.422226 276.517030 -44.581871 0 0
189.161220 317.867100 75.568245 11 1
28.460688 151.112520 -35.237759 0 0
11.480070 289.950200 -168.704570 0 0
15.905356 358.965090 -58.495544 5 1
77.028481 489.955780 -130.435270 23 1
7.952356 358.568450 10.500442 0 0
16.838919 285.920350 -121.517580 0 0
14.009603 119.018440 37.319035 0 0
71.505829 346.941410 -117.769300 3 1
109.154460 400.186920 -70.252670 0 0
-5.123678 466.233670 33.902065 0 0
48.193878 495.435910 33.662479 0 0
-53.495995 449.088930 74.294632 15 1
49.484539 278.025360 269.745150 26 1
-68.678719 517.408020 40.691097 14 1
24.795893 421.542270 25.736431 0 0
9.409321 181.444150 8.318143 0 0
61.827042 493.001560 -122.823450 23 1
177.213710 86.903694 50.298233 28 1
177.306200 330.317170 -19.713278 0 0
-30.377918 483.545070 31.335859 15 1
114.274730 291.006990 -134.534590 3 1
-0.612482 310.358400 224.768800 25 1
50.912292 565.772770 76.382385 6 1
68.488495 261.352390 -176.838700 0 0
45.951317 138.486770 -29.284082 0 0
38.787476 433.590550 -30.326872 0 0
14.643661 350.936980 19.172438 0 0
9.935601 284.199220 225.630690 25 1
46.866707 339.480260 -110.167510 3 1
24.740400 276.834010 -36.439854 0 0
80.842323 375.056000 -57.446381 0 0
33.877377 297.539610 200.507390 25 1
60.426563 222.765670 30.450928 24 1
36.010052 172.516310 56.441700 0 0
185.103230 340.202910 20.209991 11 1
38.956535 121.453090 45.924992 0 0
22.601704 257.086760 -11.687166 0 0
16.088001 36.788986 -2.979134 0 0
125.458850 314.693540 28.786997 0 0
54.765678 201.139140 33.730633 22 1
44.278553 320.487520 16.170504 0 0
5.871865 224.728350 2.287114 0 0
52.075314 369.778230 113.211070 0 0
69.960312 350.616030 -136.751220 31 1
3.154176 265.216030 -257.431950 32 1
45.201366 217.909710 1.614525 24 1
22.433681 84.032410 11.456646 0 0
-2.131477 303.892880 -222.204330 35 1
-20.071281 291.611050 -232.947890 35 1
196.516800 335.478490 -44.083836 17 1
-7.446770 153.203890 4.179027 0 0
11.756499 286.092320 -226.157360 34 1
24.066544 313.234100 103.041880 10 1
9.343734 316.794400 149.474990 8 1
11.495186 313.256930 166.637660 8 1
255.538600 247.120360 -46.217701 2 1
11.168358 48.545181 12.900724 0 0
-6.868526 496.470460 -4.514232 29 1
-3.067738 174.723450 -2.813978 0 0
16.494854 66.080490 -24.417160 0 0
-84.666176 481.253330 74.508362 14 1
7.345874 317.711880 211.092910 25 1
140.100400 263.966430 -194.325330 12 1
-46.234013 459.699100 80.933731 15 1
11.412661 234.385300 78.716583 0 0
18.075418 421.087310 4.509161 0 0
172.180510 100.238700 60.130539 18 1
24.721409 351.194950 9.510563 0 0
246.311940 259.912380 -71.020012 2 1
184.239690 129.250460 57.057888 18 1
35.749786 293.768220 -47.589569 0 0
40.757397 290.275970 266.814180 26 1
-41.555038 337.717960 129.943540 7 1
40.718853 110.445050 6.916670 0 0
130.224260 255.074690 -200.545100 12 1
72.858459 214.201750 -192.343140 1 1
96.480453 392.460540 -63.636879 0 0
246.960530 258.615910 -53.509216 2 1
-17.522217 466.637790 58.837704 15 1
29.759258 376.573360 -11.924291 0 0
16.543356 79.362206 -24.173786 0 0
88.403778 193.903060 -181.627120 1 1
72.629379 274.165800 249.660430 26 1
-58.979767 339.176360 149.643780 7 1
5.701035 351.945710 -11.326056 0 0
19.673605 364.970640 -105.851490 4 1
54.110241 195.297230 11.509523 24 1
89.266556 338.039520 -53.900795 30 1
133.953690 121.079250 50.280251 28 1
-11.129335 370.109100 28.286589 0 0
-11.903869 438.950680 -29.184513 0 0
102.122310 337.672700 -120.378340 3 1
-11.279653 124.650790 -11.078839 0 0
231.423610 258.091950 -49.109886 2 1
75.642700 334.171390 -46.571133 30 1
245.062940 240.651440 -11.673417 2 1
248.783130 241.234180 -26.521198 2 1
-4.519821 23.557787 0.013622 0 0
-15.315268 303.074830 -227.091810 35 1
24.614021 169.197910 62.488205 0 0
47.035488 318.066280 -87.104568 0 0
7.403888 244.518520 87.294670 0 0
19.030842 336.308440 10.819168 0 0
14.478647 288.068150 -151.501570 0 0
203.538130 326.514220 -54.229485 17 1
18.679232 324.217100 -2.135676 0 0
-41.545918 515.434510 5.757601 14 1
-25.675072 312.910030 86.702232 9 1
218.248840 299.134610 -37.071224 16 1
134.294020 130.152300 25.855183 19 1
75.693985 214.278110 17.831142 22 1
77.178001 323.466610 -197.271350 31 1
202.329510 327.743530 -17.523752 16 1
32.989323 154.823120 49.776814 0 0
34.938446 406.592470 4.512842 0 0
-5.292229 139.432360 -2.760903 0 0
3.831374 142.225980 -1.489129 0 0
-8.477353 303.709810 125.832760 9 1
14.815318 254.446490 -1.652978 0 0
37.158291 349.156520 -72.124863 5 1
265.798550 220.452710 -46.113979 2 1
15.999876 345.517120 -125.280780 4 1
-31.104481 326.250340 -130.332290 4 1
74.939064 183.102310 -192.814240 1 1
4.493782 289.897000 6.232941 0 0
49.595730 562.170230 61.120338 6 1
14.936640 528.175840 43.536972 0 0
189.206100 341.532680 -60.023300 17 1
-13.352128 353.750460 -116.516380 4 1
36.918278 141.566160 -36.725914 0 0
136.239120 319.883910 19.784273 0 0
4.857352 238.986210 3.732920 0 0
55.606361 335.092530 -115.270140 3 1
43.158707 294.414250 223.966310 26 1
18.231585 79.270905 -14.056546 0 0
-15.823875 449.952700 -21.772017 0 0
102.263050 494.244140 -103.807300 23 1
177.520320 147.733290 17.830282 20 1
249.706560 282.386630 -8.886900 16 1
10.482842 383.184840 -6.356451 0 0
146.341280 112.909120 50.916615 28 1
162.021560 112.953830 30.615185 21 1
28.539032 410.906190 12.387259 0 0
-11.712206 272.057400 -245.980510 32 1
21.330582 114.933200 45.497585 0 0
71.964928 263.155550 -189.924620 33 1
18.724709 259.239040 -49.860092 0 0
160.420430 145.363200 45.211388 20 1
92.561775 490.700590 -109.457610 23 1
-1.509735 489.968810 18.236143 29 1
208.033710 315.362790 -48.400906 17 1
62.397343 359.378110 -27.639635 30 1
11.297206 8.965052 16.021330 0 0
-1.238038 160.627910 7.510801 0 0
99.521751 278.305940 -184.777210 12 1
77.526741 235.623540 -181.449650 1 1
12.802835 507.020630 -1.963861 29 1
2.789560 439.937100 29.712687 0 0
46.155354 504.422030 -76.841621 0 0
98.894257 324.561220 -124.637050 3 1
26.229986 381.934330 36.880489 0 0
249.955030 250.185900 -61.503700 2 1
173.337860 153.716750 42.484127 20 1
23.586586 292.472020 -223.740620 34 1
-14.322020 323.223570 110.037900 9 1
153.971710 122.404660 -6.842340 20 1
13.282044 123.455920 53.278690 0 0
7.393164 369.157010 13.188580 0 0
44.168049 505.983180 -90.764061 0 0
12.541754 330.598270 1.246244 0 0
-19.407497 356.859220 -111.053500 4 1
181.796590 326.867710 15.573441 11 1
52.581787 125.296970 34.726711 0 0
36.338982 142.177460 -27.825352 0 0
186.815400 333.652010 28.731171 11 1
8.411151 317.153290 9.411059 0 0
84.742714 493.258030 -119.695770 23 1
22.792431 338.458860 -76.268478 5 1
34.898121 225.461550 51.776554 0 0
-17.863005 318.467320 88.746330 9 1
21.486242 353.773830 0.993005 0 0
174.471120 111.242390 58.688526 18 1
44.435936 352.012790 -108.059750 4 1
202.659680 317.471250 -81.979675 17 1
25.745184 222.109440 -35.199009 0 0
270.079990 208.652730 -39.477623 2 1
19.931040 197.625460 -27.917162 0 0
92.898865 186.145720 -183.536870 1 1
185.946140 351.453640 -47.001724 17 1
-14.332603 479.292360 25.303329 15 1
-1.599062 460.658110 23.355349 0 0
78.954102 223.609440 -184.000270 1 1
17.816322 181.206650 -27.392054 0 0
185.562470 345.212400 -30.190052 17 1
66.882896 344.728450 -189.616880 31 1
27.682550 183.791960 39.546825 0 0
7.273378 275.298220 -204.190670 0 0
9.576042 377.394680 -23.017487 0 0
95.487236 310.259340 -4.741265 0 0
-2.939268 201.448810 -4.709673 0 0
7.970789 32.622158 19.359196 0 0
228.881620 290.821530 -26.689423 16 1
43.145218 281.654450 224.612780 26 1
0.152269 486.277500 31.543613 29 1
182.038700 326.008730 5.163932 11 1
158.873000 138.235090 24.987144 20 1
167.352690 135.359360 13.616755 20 1
36.361179 268.526980 -48.607380 0 0
-9.769890 465.758390 48.043629 15 1
41.482365 457.546630 -33.082050 0 0
185.364930 318.874240 27.861658 11 1
186.351380 325.017210 -26.817747 17 1
-12.417103 142.702040 -7.145526 0 0
-10.054830 70.463081 7.597679 0 0
11.442225 321.279210 83.091217 10 1
74.102516 269.497280 257.555050 26 1
180.613850 122.242840 85.777802 18 1
4.658637 4.431784 5.666233 0 0
34.545425 275.415340 53.216026 0 0
-53.850964 338.513580 164.486630 7 1
-2.303637 32.617180 10.693287 0 0
-9.375858 286.308650 -278.633270 32 1
56.103477 207.319290 1.816480 24 1
43.821327 354.021730 -127.034520 4 1
44.052639 312.360750 89.760826 0 0
-51.953602 519.296260 19.511208 14 1
-61.099140 474.746340 55.278519 15 1
145.845550 133.205640 7.354762 19 1
-6.616909 108.667750 -13.151022 0 0
81.333572 337.542140 -60.859241 30 1
-26.910568 474.965150 39.128006 15 1
12.056965 388.973210 33.729404 0 0
-18.803110 313.258910 102.939930 9 1
-22.362511 321.214750 148.340120 7 1
70.581528 329.649410 -52.465439 30 1
8.123642 329.913360 16.657610 0 0
23.778318 274.075620 -226.837390 33 1
2.162961 90.755157 6.875608 0 0
17.343544 335.820470 -82.443504 5 1
156.902570 132.088680 49.362717 21 1
-21.751427 476.760350 46.272564 15 1
102.178050 144.093920 91.234596 13 1
114.238430 281.452330 201.750980 27 1
-43.158642 471.623110 58.000729 15 1
-29.195681 348.775820 -115.970660 4 1
132.819310 251.639040 -207.877270 12 1
24.275494 147.537800 49.986233 0 0
21.851431 537.841130 43.941422 0 0
24.845459 378.038270 11.371043 0 0
23.488651 122.281000 49.478138 0 0
40.984200 295.838960 240.920870 26 1
240.315570 257.446990 -65.156418 2 1
222.516250 310.973910 -14.829525 16 1
12.439617 418.048250 26.992903 0 0
-53.555637 481.982450 58.411480 15 1
69.900841 293.756230 197.697940 27 1
173.982770 332.444670 -3.170619 0 0
-16.389406 305.873540 76.106369 9 1
61.220261 269.254330 212.122730 27 1
204.044630 324.852630 -33.034527 16 1
9.784222 290.338290 -8.306352 0 0
10.924764 316.250400 -6.560994 0 0
242.462980 271.423130 -21.472347 16 1
12.487775 406.033720 2.347455 0 0
30.143396 351.944760 -118.423070 4 1
248.876210 267.412960 -8.642061 16 1
51.589279 271.698790 -227.503280 33 1
9.271591 496.236760 39.119133 0 0
-7.906482 226.840610 -3.263722 0 0
253.662250 240.035260 -41.874153 2 1
42.003666 344.116460 -125.906390 4 1
-3.990026 266.160280 -236.293440 36 1
42.524673 570.355710 54.417572 6 1
65.366798 184.441670 -202.704450 1 1
50.665733 365.566960 -160.819410 31 1
239.119190 297.632690 6.795413 16 1
37.894428 326.378420 88.418610 0 0
64.974312 281.382690 -195.017230 33 1
120.123210 138.065890 38.358932 19 1
71.689186 266.405000 -199.707570 33 1
238.517650 260.940640 -40.597454 2 1
261.790800 231.658050 -47.481667 2 1
-64.336983 339.183530 158.293140 7 1
73.724243 359.351010 -20.222805 30 1
59.665279 289.386410 -204.690860 33 1
10.017107 258.552890 -250.362120 32 1
1.309057 306.478030 178.990480 8 1
4.792434 299.021210 221.527590 25 1
166.992200 118.739650 82.512985 18 1
18.133997 266.866730 -23.866886 0 0
260.316280 252.467830 -10.862803 16 1
45.836765 488.575200 23.307404 29 1
23.040850 251.795500 44.131435 0 0
27.985344 431.183780 0.082388 0 0
8.085084 116.146470 4.982019 0 0
69.488487 365.952880 -56.135368 0 0
268.956210 207.893650 -54.676380 2 1
55.151855 385.503690 119.394300 0 0
85.749809 255.908080 -208.519170 12 1
175.693540 340.912020 6.622564 16 1
84.766724 355.031920 -152.650380 31 1
-1.435191 15.537905 8.077546 0 0
-41.532017 306.227050 -237.939560 35 1
239.438340 280.376920 -18.906284 16 1
-19.983952 321.019650 99.451630 9 1
80.349571 267.355930 -203.875090 33 1
40.637344 298.362430 211.670870 26 1
117.068860 145.210390 45.749905 28 1
37.235882 441.718510 3.383905 0 0
9.350012 370.000490 25.447962 0 0
6.631750 152.211300 7.922423 0 0
150.990160 110.419380 34.486294 28 1
118.160180 255.330930 -212.327380 12 1
27.347614 346.928590 -61.478199 5 1
54.492420 348.778350 -36.599289 30 1
66.413963 358.002840 -34.902840 30 1
-7.290664 422.081600 27.964781 0 0
257.549350 231.877870 -19.072556 2 1
88.002914 342.665040 -40.386311 30 1
-97.342796 509.305050 49.685787 14 1
24.059731 390.978910 31.999454 0 0
-68.247414 511.806090 73.783287 14 1
179.968410 341.969760 -5.640538 16 1
39.340729 305.742030 -45.106380 0 0
-71.706383 489.624150 83.284485 14 1
159.672780 108.369580 59.827881 28 1
19.288786 244.938710 -10.170244 0 0
32.900631 261.785310 -53.168064 0 0
216.214200 262.975070 -30.109894 2 1
16.663834 170.240220 -30.918114 0 0
67.434082 214.526230 15.981393 22 1
4.304126 323.226780 112.880210 9 1
37.573235 186.757340 49.584694 0 0
22.808325 297.320650 91.853111 10 1
246.568850 287.343540 6.226734 16 1
-10.181787 308.333950 163.894910 8 1
45.434555 347.968690 96.870415 0 0
-2.900832 353.660920 -55.870712 5 1
-6.422979 286.735170 122.389960 0 0
51.322987 301.258540 -198.664000 33 1
56.822872 329.715330 19.445644 0 0
190.938160 302.935610 43.993397 11 1
33.682606 292.472690 244.281970 26 1
105.569000 259.733640 -200.988450 12 1
92.191208 296.690120 200.914720 27 1
61.474670 353.472410 -50.991264 0 0
13.962545 116.157390 -20.527433 0 0
73.530006 352.550080 -162.365400 31 1
55.608906 295.090880 211.524490 26 1
-3.910785 246.179730 1.214440 0 0
16.436491 172.950410 59.484821 0 0
91.889893 333.007690 -127.280150 3 1
150.634380 92.791374 28.849501 28 1
267.987270 220.879320 -57.337761 2 1
55.380249 116.182040 11.919724 0 0
25.738113 397.859680 9.611451 0 0
66.995583 249.072010 45.498196 22 1
199.919130 329.908720 -27.806362 16 1
30.779354 389.636020 -14.676561 0 0
197.217930 323.036830 -50.205811 17 1
118.450250 129.021900 88.372063 13 1
4.613680 355.087860 -61.482986 5 1
80.411545 282.041500 212.510270 27 1
-5.487942 213.545060 -18.488581 0 0
55.423744 510.484040 -91.343811 23 1
-61.910404 520.468630 61.857635 14 1
125.165150 424.189580 -71.062386 0 0
14.492731 201.039250 -4.818358 0 0
20.746866 221.927730 20.593105 0 0
25.412697 479.046110 37.645996 29 1
6.086605 322.656310 24.943914 0 0
44.901653 289.848630 173.868450 0 0
97.887566 266.957670 -191.172160 12 1
33.014317 172.480380 47.686390 0 0
22.191881 102.814990 30.409653 0 0
30.396246 226.654400 58.550804 0 0
249.598620 258.010470 -14.843294 16 1
-54.495018 516.769410 9.743115 14 1
61.596806 218.480390 -205.025270 1 1
83.564186 547.198240 114.582480 6 1
31.056255 371.310970 25.667444 0 0
15.540636 128.488980 -26.097635 0 0
43.312691 293.728030 84.125008 0 0
63.160168 273.826540 263.471370 26 1
6.391465 510.593540 -16.466610 29 1
161.433560 133.280730 -6.032641 20 1
64.295532 122.464770 15.301187 0 0
16.407024 343.909850 -78.937241 5 1
-12.349579 288.073060 -286.145360 32 1
73.540588 289.079070 -187.791490 33 1
78.213387 550.079650 96.506699 6 1
19.702101 140.308270 -2.992388 0 0
24.590008 263.853760 -33.801785 0 0
41.907024 169.436570 0.561282 0 0
61.310436 276.629060 236.592820 26 1
60.524590 318.693390 -133.222340 3 1
86.477562 229.814410 -174.445010 1 1
84.864235 227.691590 35.488804 22 1
59.866962 224.586690 -4.402250 24 1
80.642860 220.227010 31.920223 22 1
108.957520 146.989380 58.167969 13 1
248.117020 270.091800 -27.560337 16 1
57.824810 348.795200 -129.959840 31 1
21.072107 192.464580 5.716022 0 0
170.487660 147.115160 60.248791 18 1
176.251880 125.319560 59.331871 18 1
12.271738 278.998110 -282.520940 32 1
4.071131 281.164920 -283.670990 32 1
60.388878 211.379320 21.009653 22 1
-65.903450 454.625610 70.237679 15 1
71.216972 338.618500 -34.467209 30 1
7.156560 347.087740 -62.507809 5 1
20.771105 46.572384 23.785347 0 0
67.685989 219.778180 -195.320180 1 1
5.055263 81.106689 -2.562411 0 0
10.937830 0.169140 21.004282 0 0
18.173115 103.054050 22.077320 0 0
-9.488172 421.655030 -26.727238 0 0
8.998795 307.355830 -5.685712 0 0
-34.623020 472.053830 53.005188 15 1
5.116122 107.384830 -0.475871 0 0
-5.380266 500.230320 2.553020 29 1
178.392410 304.954740 -25.460958 0 0
8.209416 222.800340 9.835558 0 0
9.658507 101.579220 -22.845140 0 0
0.451709 -2.872001 -3.836782 0 0
184.657390 142.629410 72.602371 18 1
165.451130 121.271080 66.496033 18 1
-14.599936 477.659850 -24.156939 0 0
-4.024606 274.804440 -216.515440 0 0
70.991051 279.467350 -200.317700 33 1
48.487499 471.681950 -42.531864 0 0
6.775007 193.002500 4.960056 0 0
-4.683969 318.162990 99.178368 9 1
43.068485 281.138850 -43.048035 0 0
5.256599 365.603450 -107.661360 4 1
51.386333 199.766080 25.877373 24 1
3.158874 421.829070 33.549809 0 0
10.248739 17.633432 -1.936797 0 0
-2.467351 148.341510 -6.126213 0 0
50.920666 346.603090 -49.561726 30 1
-5.704454 290.678650 230.810320 25 1
140.116210 110.199970 36.567402 28 1
-8.863701 384.632170 -18.175699 0 0
45.793049 257.452150 66.024460 0 0
20.194281 352.018890 26.626873 0 0
17.814314 87.786331 -21.242788 0 0
-15.931970 321.856660 -137.443830 4 1
58.942745 338.963500 -50.061161 0 0
40.924610 238.693070 -246.511340 36 1
34.225857 396.945680 -14.331809 0 0
46.741173 492.923130 -54.789516 0 0
62.657940 277.800720 56.088570 0 0
2.860440 396.112550 -0.791984 0 0
51.934902 291.039730 233.947280 26 1
23.843077 383.500400 -21.454197 0 0
27.250328 129.156300 43.830387 0 0
-3.291366 360.233090 -9.493977 0 0
197.354870 319.849400 -2.655974 16 1
13.890864 386.578000 -19.574230 0 0
27.751415 320.812810 204.032790 25 1
24.641045 154.236370 3.825968 0 0
6.708642 421.403050 18.174402 0 0
18.612415 96.795776 62.779026 0 0
31.688635 391.079710 -2.177420 0 0
238.509660 294.184230 -14.394754 16 1
-15.837129 263.839970 -237.284010 32 1
24.877743 505.744170 2.543842 29 1
51.044403 301.477840 196.907560 27 1
46.767921 297.544100 -208.378250 33 1
-9.672709 304.149840 175.403320 8 1
0.005590 354.265140 -47.679523 5 1
20.083473 36.358795 20.817072 0 0
22.225992 351.881410 -68.384293 5 1
173.548200 150.646350 34.921394 20 1
76.498192 131.078140 33.509197 0 0
183.155790 343.712100 -42.928341 17 1
16.480913 120.081630 62.395771 0 0
161.339080 121.014450 38.659203 21 1
83.467247 347.765750 -26.471472 30 1
36.123753 485.063170 33.638790 29 1
-9.655592 337.235320 -1.623626 0 0
55.993336 270.630950 280.644740 26 1
-70.824585 517.629330 28.116653 14 1
27.717028 176.954030 65.702370 0 0
46.110065 130.595050 -31.824329 0 0
6.212960 304.894260 32.791763 0 0
-0.385511 264.354100 -225.724060 36 1
1.275911 409.084930 23.665499 0 0
24.284275 250.763690 -33.498482 0 0
28.083742 487.882690 22.825716 29 1
18.646456 316.233000 90.811356 10 1
46.772648 283.243290 250.238490 26 1
81.910400 201.417020 -185.844800 1 1
-26.663090 315.743070 113.328450 9 1
29.818642 433.971980 22.298607 0 0
156.497470 129.493470 22.032444 20 1
23.884537 306.975460 87.104813 10 1
48.687443 330.126100 -94.004440 0 0
23.336256 240.997800 31.659561 0 0
187.723210 314.434720 6.262387 11 1
-8.715665 334.319370 -9.612634 0 0
18.587564 93.779076 32.836605 0 0
7.005702 342.206510 10.000304 0 0
5.607100 306.133150 9.762488 0 0
68.589165 289.169400 -195.794070 33 1
36.581520 151.158070 -34.958782 0 0
-18.243530 276.910250 -228.771850 35 1
47.959072 481.391820 33.557621 0 0
52.945431 332.436190 -47.666679 0 0
118.703740 267.338440 -195.959990 12 1
3.296140 45.733658 -7.810708 0 0
162.851530 130.517330 4.216878 20 1
13.408720 67.763596 14.661425 0 0
96.122971 200.532680 -180.272720 1 1
38.803864 263.100160 -58.811184 0 0
-1.414005 258.810060 10.753482 0 0
2.925000 499.369930 -2.392921 29 1
166.457840 127.161800 26.117216 21 1
33.427361 158.347840 -6.743810 0 0
32.893726 468.555050 44.336231 29 1
-10.049667 36.354298 9.284721 0 0
188.824630 336.798980 -52.674278 17 1
191.629580 330.686430 6.401589 16 1
-7.239148 504.977230 -13.082206 29 1
199.396290 334.279790 -61.951569 17 1
-2.438703 338.744750 -67.307709 5 1
184.238240 342.596860 37.418861 11 1
13.411321 342.667450 -66.149635 5 1
2.285529 311.521420 153.549130 8 1
11.604104 130.089040 -2.531117 0 0
208.531980 304.258540 -88.065666 17 1
240.462170 249.797760 -42.914253 2 1
239.808120 304.841430 11.286341 16 1
149.421980 123.640290 0.131909 19 1
89.601875 502.600950 -98.455719 23 1
60.134823 506.147830 38.144093 0 0
-34.520203 474.577300 66.132805 15 1
82.501617 340.410950 -31.779158 30 1
68.963318 319.105590 -132.968030 3 1
174.229970 110.172630 18.655510 21 1
262.089870 202.929490 -56.378353 2 1
7.896309 14.493358 20.805702 0 0
29.616528 294.207820 -69.146675 0 0
192.183820 306.289890 66.058144 11 1
38.331512 289.975370 254.094420 26 1
-5.784186 327.228490 96.662529 9 1
31.968767 308.360050 206.901600 25 1
254.899350 235.785740 -25.679537 2 1
-4.928795 253.772310 -225.730410 36 1
215.811950 306.905460 -19.895401 16 1
67.618584 275.516600 -209.293240 33 1
-18.443996 495.370820 -11.073773 29 1
248.915480 292.816280 11.678863 16 1
25.183308 406.446040 25.785757 0 0
189.665660 303.872500 81.943001 11 1
-20.113474 299.263370 142.195160 8 1
59.690273 295.654630 -199.512990 33 1
41.767879 432.522920 1.660689 0 0
151.105800 124.064840 15.216434 19 1
83.647148 282.615840 205.299480 27 1
268.159700 225.337110 -29.380602 2 1
84.833740 262.189640 -199.862920 12 1
1.482474 249.931780 9.325041 0 0
20.136021 73.022087 -0.882201 0 0
190.100050 126.110340 86.271408 18 1
32.393738 210.186720 55.621334 0 0
-3.639140 348.838410 -70.097939 5 1
38.425392 307.674770 -37.488018 0 0
-3.208461 266.432220 -245.753780 32 1
172.171710 106.059600 44.980495 21 1
54.012161 257.005190 288.801790 26 1
24.041832 155.943500 51.285801 0 0
41.677948 482.255460 25.667070 0 0
0.255243 44.567093 15.425994 0 0
90.706940 172.060670 -177.921680 1 1
189.830350 318.147400 50.002953 11 1
32.845089 301.793460 211.290150 25 1
44.585030 494.120300 -64.091927 0 0
4.455624 274.691590 -0.469016 0 0
195.663600 297.737980 35.089020 11 1
6.717881 491.843660 15.960846 29 1
68.780304 353.334630 -150.882770 31 1
42.100925 268.985050 -54.014450 0 0
93.587433 210.503590 -176.022280 1 1
20.481262 60.158546 17.836962 0 0
58.777782 423.908390 133.487400 0 0
53.179184 244.347630 -122.353280 0 0
142.056870 248.138440 -206.218570 12 1
94.986816 339.750090 -184.579470 31 1
-34.924744 335.643010 -122.610700 4 1
46.205173 564.969910 69.127533 6 1
-3.835843 56.702892 11.841933 0 0
-7.352286 306.846010 227.528870 25 1
-26.511932 311.913180 103.838570 9 1
-22.409313 307.832640 -230.648220 35 1
62.283894 352.197200 -139.482390 31 1
194.353160 318.776120 7.164193 16 1
42.501522 289.711880 190.586410 0 0
4.016917 355.933560 -40.241066 5 1
22.230625 109.892170 26.089544 0 0
56.117584 267.663270 63.481113 0 0
-15.225916 282.013180 -254.183140 32 1
127.975740 134.688810 31.183077 19 1
259.362060 249.745120 2.211897 16 1
-80.666451 507.886990 68.128006 14 1
-13.034843 202.872120 -20.092806 0 0
26.963150 262.036160 47.711693 0 0
29.589781 339.819430 89.479370 0 0
23.428270 96.912331 -3.447873 0 0
16.560181 296.323120 223.439480 25 1
-37.913208 334.194790 159.831590 7 1
89.561073 314.650480 -134.408340 3 1
33.796295 326.174680 -37.249809 0 0
43.230534 244.730590 62.863850 0 0
46.711994 340.572540 -102.347010 0 0
58.590542 352.494350 -28.027349 30 1
-14.613112 494.049680 9.342882 29 1
12.847125 92.134102 59.584442 0 0
21.425793 216.271300 -46.431557 0 0
25.609024 353.260620 -47.926567 5 1
15.651220 167.865750 8.036727 0 0
-16.184666 309.739690 140.451000 8 1
167.559680 110.994260 22.692078 21 1
40.016678 224.968000 -96.255898 0 0
57.276089 248.495910 -129.615110 0 0
178.347780 342.117710 -29.542244 17 1
-44.553059 339.988740 151.912800 7 1
60.679489 583.253480 46.099899 0 0
-28.333248 324.257900 133.262040 7 1
21.477499 175.140610 -38.281902 0 0
26.136650 344.910030 -125.884390 4 1
3.713722 326.747800 102.868680 9 1
26.139853 215.507570 -40.096607 0 0
62.948833 285.813540 231.714830 26 1
189.064760 319.905980 66.386276 11 1
8.539736 24.460056 11.954252 0 0
-11.553045 69.943298 -6.120518 0 0
17.611320 497.182860 8.298082 29 1
158.266510 136.633790 17.269653 20 1
215.675450 317.402190 -12.939338 16 1
74.238312 217.495010 41.337025 22 1
176.254560 129.752060 71.205742 18 1
29.402807 141.763050 54.607094 0 0
85.147507 267.267850 -190.270420 12 1
1.565115 205.387620 12.928740 0 0
24.879099 289.542330 -4.061319 0 0
175.617750 141.254790 5.550847 20 1
-33.285419 331.753750 144.388080 7 1
18.932522 499.767270 17.675995 29 1
37.368923 274.437410 152.822080 0 0
18.481100 362.647950 31.762390 0 0
3.909913 264.452390 0.423398 0 0
2.786729 301.714750 -1.837809 0 0
158.776520 103.848310 51.754227 28 1
182.042530 314.706970 -21.929512 0 0
20.223661 77.139130 21.609629 0 0
38.036842 331.493320 98.873138 10 1
254.913150 278.053280 11.811434 16 1
80.087959 211.227490 -194.073170 1 1
65.938316 212.144610 40.119110 22 1
43.168137 341.240420 -41.475777 30 1
-3.579682 134.289780 -10.584429 0 0
-33.130737 318.136570 -234.271760 35 1
10.142475 255.043400 -20.148016 0 0
177.615660 358.186770 31.250904 11 1
66.044182 205.018910 16.483406 22 1
-30.644951 333.114290 131.173900 7 1
112.063050 270.887360 -193.825100 12 1
66.636559 491.142640 -134.299760 23 1
7.406022 32.176548 -0.752743 0 0
100.938460 288.485840 200.044080 27 1
106.459190 276.980160 -181.542680 12 1
61.157505 434.410340 138.459730 0 0
13.751169 145.658830 -0.456747 0 0
25.802650 348.760990 35.116756 0 0
41.400249 449.987000 -37.998352 0 0
48.360809 362.743650 102.381860 0 0
4.389145 314.926330 25.469122 0 0
-18.278955 308.824950 128.088650 9 1
0.890870 348.934660 -1.043572 0 0
17.933849 425.235530 27.660952 0 0
-10.355055 279.765470 -225.275730 35 1
20.635828 327.998080 -66.224266 5 1
67.438507 494.380000 -117.393300 23 1
22.398642 114.443120 37.645153 0 0
50.954914 360.370820 -140.287380 31 1
43.264927 158.441760 60.961296 0 0
-2.411491 272.066190 105.187690 0 0
20.139734 209.235200 -28.204981 0 0
103.615820 146.068420 71.223404 13 1
-11.282683 221.626390 -14.524077 0 0
56.038612 566.416810 48.355602 0 0
103.262130 392.333680 -68.071350 0 0
-33.600540 485.239200 39.827839 15 1
136.397510 436.260620 -71.994194 0 0
186.291460 322.869780 -10.282021 0 0
71.568527 552.846010 75.380753 6 1
-16.498674 304.935730 148.892110 8 1
10.514904 278.187740 7.826510 0 0
-2.223131 273.927860 -257.589290 32 1
67.355446 295.292270 208.332640 27 1
98.321396 350.249180 -159.072710 31 1
48.613003 317.546330 -45.107697 0 0
2.056718 252.795430 -0.927034 0 0
77.372932 354.239990 -44.923843 30 1
102.558030 156.143400 65.688438 13 1
55.509441 292.587890 218.868940 26 1
77.316956 224.764660 -196.012850 1 1
111.966610 141.164380 63.403744 13 1
208.375310 312.562040 -12.759531 16 1
44.853664 398.947570 -0.073731 0 0
43.852295 283.780270 241.055730 26 1
21.296677 43.841736 -14.319018 0 0
37.223160 233.098650 52.726089 0 0
171.479770 143.031080 24.778919 20 1
65.821899 275.880620 216.701840 26 1
28.278488 243.134020 -241.258970 36 1
12.993607 299.343570 187.759000 8 1
216.384200 266.825290 -43.058067 2 1
-50.397522 312.538700 -237.574970 35 1
77.477249 278.050050 235.106320 26 1
56.836906 265.870880 -211.121140 33 1
13.702784 261.812320 -265.262390 32 1
9.339274 356.292630 20.657684 0 0
5.071194 351.080570 -54.714157 5 1
70.104088 201.563690 -198.220140 1 1
43.115089 290.557980 -47.645226 0 0
10.411322 357.987730 3.047661 0 0
237.449300 295.484100 -0.513059 16 1
5.583764 320.266420 155.196670 8 1
27.709091 275.746400 49.744644 0 0
38.790833 340.711850 -113.630970 4 1
69.230568 513.908200 -84.433121 23 1
76.231087 350.466890 -26.172470 30 1
68.508270 373.292300 -54.035278 30 1
29.982433 301.969360 99.052971 10 1
-16.148626 318.481990 139.202120 8 1
39.801060 280.352390 212.262040 26 1
10.880097 220.512160 -1.703962 0 0
99.225670 135.292790 100.453670 13 1
270.737520 219.974320 -34.481812 2 1
-5.098193 314.264680 152.669460 8 1
25.169947 158.294460 -35.381878 0 0
85.304626 289.733800 201.151980 27 1
-56.072716 476.350650 63.135509 15 1
89.163612 274.943850 -184.524860 12 1
9.933378 315.374540 174.051970 8 1
48.195366 565.588380 93.750053 6 1
53.738823 498.292450 -115.765750 23 1
18.427677 276.032590 -27.309713 0 0
34.492798 258.285000 -243.792430 36 1
26.216286 235.113100 -33.799843 0 0
10.012856 373.730160 6.298789 0 0
38.790314 285.859650 230.575640 26 1
176.458710 117.579880 20.600805 21 1
75.285141 507.375520 -95.894333 23 1
15.792974 221.671620 69.348587 0 0
180.359190 342.936100 -17.757153 16 1
-6.491806 234.950760 -4.500655 0 0
38.812180 285.164890 -208.340390 33 1
205.068190 323.190950 -40.876308 17 1
11.691755 45.404415 -1.821718 0 0
243.328950 267.842010 -35.411655 16 1
33.089539 359.906010 -105.758330 4 1
35.398075 181.213500 44.816231 0 0
11.329553 485.136600 28.603849 29 1
12.904500 65.218239 -17.451511 0 0
-8.713489 105.840480 -4.623379 0 0
-92.302483 503.208040 63.396137 14 1
9.705895 72.038521 4.577075 0 0
17.021410 333.406220 -130.579220 4 1
9.529633 70.693977 -6.088258 0 0
25.256369 405.143980 -2.503901 0 0
64.477341 282.879180 203.847430 27 1
25.861244 276.040860 -234.242450 34 1
200.591400 320.486850 -69.405334 17 1
262.456910 240.927810 -64.891197 2 1
-8.953890 279.790160 -265.349090 32 1
37.322220 281.179470 76.086128 0 0
162.318040 100.056090 31.927971 28 1
-11.878742 274.234130 -254.036730 32 1
25.690378 390.025700 24.152418 0 0
128.160220 297.640810 -133.025420 3 1
37.995796 365.581700 -14.664712 0 0
237.524310 252.958440 -49.161827 2 1
59.005093 283.883330 246.232640 26 1
-11.657964 416.072510 -18.741600 0 0
188.111470 331.897340 21.450840 11 1
-6.359104 167.581310 -2.236758 0 0
42.207054 561.254210 43.798779 0 0
183.360900 94.593185 60.477207 18 1
3.705511 333.563900 106.208080 9 1
32.643745 489.981450 28.942627 29 1
-4.515954 355.565770 -63.330009 5 1
32.377903 316.834560 102.406750 10 1
40.884682 233.566570 65.647957 0 0
7.931124 61.325218 20.867926 0 0
40.169975 571.264340 68.480125 6 1
23.961395 340.508790 94.578896 10 1
-28.319525 274.774750 -231.885240 35 1
44.120281 147.598300 56.668228 0 0
68.502594 238.317210 -188.999680 1 1
35.981453 82.706421 10.831193 0 0
-3.292802 219.210800 8.034123 0 0
1.042316 493.675140 24.339388 29 1
75.579750 232.129070 -196.291820 1 1
119.454860 137.320250 67.884079 13 1
26.639015 286.673520 210.631240 25 1
104.222730 144.148540 33.958683 0 0
22.383657 280.203220 -222.621280 33 1
11.228047 89.069031 -13.525143 0 0
21.617748 489.995610 19.514351 29 1
38.083488 411.605160 -18.864046 0 0
30.809620 370.182920 42.716648 0 0
33.968395 198.706710 58.473969 0 0
53.128349 289.183010 -200.215030 33 1
41.275387 409.637300 10.167279 0 0
50.420151 291.000090 -210.989590 33 1
109.641460 306.060150 -134.872330 3 1
151.066210 118.850310 6.347798 19 1
71.633438 250.540420 -181.658650 34 1
0.064386 234.513170 -8.785928 0 0
267.587460 227.411450 -43.790604 2 1
27.668394 360.394900 12.381217 0 0
37.191746 240.527240 65.272133 0 0
240.033950 279.011690 -32.234962 16 1
43.912498 138.747890 -37.030136 0 0
80.741234 224.149570 23.240072 22 1
23.328558 296.774110 209.948870 25 1
-56.848373 520.052120 47.913647 14 1
55.451832 412.893920 122.760030 0 0
1.119087 263.373170 99.551460 0 0
39.169514 574.494870 59.903976 6 1
29.106777 221.428890 -28.486712 0 0
70.221375 214.334340 27.732086 22 1
13.291284 242.351490 -3.089289 0 0
2.045263 505.179140 -12.520643 29 1
61.391335 498.722350 -110.319210 23 1
56.064579 204.331330 11.777177 24 1
31.579100 349.323520 -39.339417 0 0
62.051834 558.164860 106.578230 6 1
11.192532 85.528893 1.043374 0 0
89.158272 331.568790 -195.060350 31 1
68.584389 334.242520 26.240843 0 0
14.145599 375.339360 -14.099163 0 0
184.723530 319.171660 18.467962 11 1
1.279142 236.023610 12.111782 0 0
-57.918785 517.272710 74.031990 14 1
17.650894 481.001500 37.219582 29 1
197.518740 319.070770 -37.150948 17 1
118.577750 138.899810 50.639027 28 1
-5.957446 306.349580 141.338780 8 1
166.373550 90.086067 37.094227 28 1
160.751620 94.931686 39.560589 28 1
64.574356 261.505520 -216.893720 33 1
-11.134685 385.749360 25.018375 0 0
26.417095 271.365420 -16.901360 0 0
-4.403085 497.904140 9.668204 29 1
17.686745 523.041440 38.793613 0 0
10.222183 100.013690 36.132683 0 0
11.339405 54.598988 8.461332 0 0
62.337517 342.189150 -44.191250 0 0
85.588295 334.918090 -118.930020 3 1
176.545530 119.803870 28.165745 21 1
-9.408691 46.898457 20.437937 0 0
29.727247 346.013610 -69.004303 5 1
188.359910 310.657320 52.818634 11 1
49.889042 282.929440 203.493870 26 1
17.366983 437.031620 4.483454 0 0
252.067400 269.264860 -0.300837 16 1
43.856396 281.184480 -226.769100 33 1
1.495071 146.721470 9.331818 0 0
5.502264 10.432495 -4.652557 0 0
142.817170 133.893650 14.206772 19 1
-49.546783 480.544980 47.872154 15 1
15.526850 332.533690 16.261940 0 0
10.998198 358.231900 -52.880280 5 1
9.951878 83.776688 22.464710 0 0
30.974596 288.513430 -224.707670 33 1
100.334020 147.773650 78.192932 13 1
-15.673840 445.348050 -28.225939 0 0
21.330561 367.996400 0.856271 0 0
76.952011 277.275150 222.399640 26 1
181.567430 349.962040 16.452839 16 1
16.611732 183.023440 9.580728 0 0
6.518657 263.565000 -11.024068 0 0
-4.994706 317.862270 111.094780 9 1
14.682978 355.132080 -43.589523 5 1
23.436096 347.558590 -78.614510 5 1
15.866661 510.069950 -11.631615 29 1
74.535500 350.804080 -130.773680 31 1
-58.258926 468.006680 69.338234 15 1
17.872248 200.481600 1.855840 0 0
-37.447784 330.968380 -129.740390 4 1
14.759298 308.652890 -1.044512 0 0
52.065014 384.158390 112.730200 0 0
193.841280 291.022980 66.177582 11 1
16.197878 244.349690 -34.968254 0 0
92.354073 378.132480 -64.933456 0 0
2.244186 338.964290 -1.076682 0 0
255.139830 276.198910 -1.408844 16 1
3.120119 457.554900 29.285097 0 0
224.936020 304.645170 -8.303878 16 1
-2.588659 12.541394 -4.911018 0 0
184.756590 134.277330 69.250046 18 1
-52.570087 301.518950 -239.871370 35 1
-12.581966 314.856540 77.726547 9 1
108.037760 137.530700 77.870949 13 1
24.506420 178.136750 6.156892 0 0
5.803608 339.597500 -123.648990 4 1
204.032410 325.439970 -2.268130 16 1
93.713737 220.955340 -177.736250 1 1
259.647830 259.923030 -9.367871 16 1
3.358860 178.393590 3.571572 0 0
-49.561199 521.604550 53.500340 14 1
-5.034210 467.212710 26.524557 0 0
177.751330 147.574390 52.963139 18 1
71.742615 552.706120 99.662819 6 1
13.813611 374.101960 -28.169893 0 0
170.810100 151.144150 50.441971 18 1
75.849831 287.225100 55.945663 0 0
122.675100 310.462490 -128.859020 3 1
150.744460 104.503580 41.359909 28 1
250.151520 278.945100 -15.745504 16 1
21.133070 313.251860 205.474590 25 1
-1.344007 368.379550 -17.924431 0 0
79.418823 351.519960 -156.493530 31 1
189.462170 336.285130 -17.198639 16 1
-13.148015 314.232510 123.488080 9 1
115.724080 130.795380 77.049660 13 1
73.378685 276.373840 -190.590290 33 1
32.630226 196.792250 86.532249 0 0
21.264383 253.247150 -5.139486 0 0
29.327398 353.249330 -66.159943 5 1
23.799944 199.105590 58.381802 0 0
-10.271095 465.156130 62.670002 15 1
28.686392 367.000730 3.821063 0 0
60.422363 228.413220 -204.942570 1 1
63.014236 350.572510 -33.826054 30 1
41.771870 507.114810 -100.446330 0 0
154.027770 255.030990 -197.401720 12 1
48.637341 501.015080 -66.767723 0 0
62.809902 336.744870 -114.645090 3 1
30.145924 338.169070 -122.500990 4 1
22.221571 64.467819 26.438042 0 0
209.222750 313.278260 -55.416832 17 1
240.750430 286.820860 -22.758011 16 1
22.488667 414.389890 28.646603 0 0
8.848674 319.409730 163.354220 8 1
8.730557 136.644910 5.802548 0 0
46.841103 366.109250 -151.009480 31 1
85.337334 350.728240 -136.487410 31 1
7.714771 258.885130 -232.517400 36 1
19.421545 314.106200 215.571000 25 1
-61.373032 456.983250 75.938316 15 1
70.008842 308.626950 192.180440 27 1
49.051395 354.091920 108.103840 0 0
23.438129 355.143860 -115.170650 4 1
0.887674 318.392820 142.213880 8 1
17.422197 79.104187 13.778663 0 0
68.786987 288.162840 218.293150 26 1
27.895882 193.680910 52.636600 0 0
19.530830 142.185230 -30.382885 0 0
37.360912 297.652280 -214.404630 33 1
50.644684 253.498200 -133.728070 0 0
272.395870 210.774480 -46.901169 2 1
19.721706 222.986630 -31.006079 0 0
44.846066 350.341490 -120.709030 4 1
80.510887 506.146790 -87.878777 23 1
3.082423 381.351930 18.310535 0 0
5.401699 485.935180 40.533676 0 0
24.164083 51.144787 19.078678 0 0
2.613655 500.715120 9.145411 29 1
8.045338 270.935150 -226.700670 36 1
-29.799763 340.741820 -124.121220 4 1
49.924805 278.245240 -207.333600 33 1
55.685238 346.617890 -111.793990 3 1
86.909393 348.303710 -116.372600 3 1
28.729948 325.980260 101.859020 10 1
-45.778019 488.442050 41.002895 15 1
8.843098 204.012210 24.187407 0 0
-0.466546 319.428590 219.103450 25 1
191.105450 297.483150 78.553268 11 1
77.373428 490.504270 -122.955410 23 1
86.203178 222.418840 -184.641970 1 1
59.058681 324.572850 -123.505420 3 1
4.114089 251.706970 -232.734470 36 1
150.490950 102.433440 28.300167 28 1
117.095530 261.868440 -203.843610 12 1
40.216824 289.139070 -219.481600 33 1
-0.592088 353.707000 -14.729203 0 0
40.917656 572.795230 100.173680 6 1
14.557282 293.615170 9.400870 0 0
23.412388 344.149960 -115.663090 4 1
-6.870354 84.095634 -1.590363 0 0
7.180315 155.006500 -5.881721 0 0
-3.303099 270.360080 11.906436 0 0
16.002045 265.313630 -236.632060 36 1
34.991920 315.146060 199.698650 25 1
30.872589 454.111420 8.080585 0 0
41.559246 120.039690 54.756428 0 0
68.365540 190.094670 -206.321290 1 1
81.266479 295.692140 204.431350 27 1
-3.718945 276.598880 -230.490370 36 1
43.970055 286.619840 199.639480 27 1
40.840126 241.846080 126.520540 0 0
0.757064 325.354310 118.953330 9 1
25.263544 176.109240 35.231110 0 0
189.902190 140.956130 57.761574 18 1
85.977516 347.904820 -177.740360 31 1
37.052471 354.940460 -67.391754 5 1
88.303001 179.285950 -185.549510 1 1
65.007774 240.000270 -201.291810 1 1
-39.637798 518.556030 14.092060 14 1
9.874579 91.496468 -21.755108 0 0
68.057861 208.791230 10.516807 22 1
22.266413 266.976810 -80.126335 0 0
190.261140 132.777690 81.916420 18 1
15.197557 298.229860 -9.551004 0 0
179.050290 154.848400 23.929161 20 1
61.371708 446.096770 146.438550 0 0
-85.806602 494.880040 69.766472 14 1
67.472649 502.317020 -99.769127 23 1
149.828480 333.672670 -7.690654 0 0
5.069937 506.432860 -4.036962 29 1
251.085170 253.279420 -47.538170 2 1
82.729492 203.193650 -192.912860 1 1
138.564360 124.189850 37.457325 19 1
22.872059 270.437590 -241.639620 36 1
84.719849 183.865190 -192.170430 1 1
41.014347 310.264620 83.292053 0 0
188.191890 309.700870 75.259186 11 1
227.501630 286.809020 -39.255161 16 1
73.971184 190.695510 -193.405240 1 1
-16.224789 295.606690 -227.809040 35 1
159.714340 140.473340 58.040291 18 1
192.498500 333.122040 -59.760796 17 1
5.741610 263.997040 7.499050 0 0
25.397758 252.452160 37.229359 0 0
32.372078 284.267270 -59.829517 0 0
-15.421498 310.382260 -227.551860 35 1
10.346089 44.040127 -9.579972 0 0
172.535460 115.348680 42.523880 18 1
199.605090 332.319640 -52.140064 17 1
-2.719585 291.727690 -223.313140 35 1
265.195370 233.804900 -53.590549 2 1
-74.338409 518.211730 55.621983 14 1
257.454960 232.287770 -10.764808 16 1
-61.465584 519.276370 40.177402 14 1
-23.259920 280.185670 -247.183260 32 1
-21.861620 316.117370 135.303860 7 1
62.954281 303.778630 196.861180 27 1
27.696962 377.651730 -4.974250 0 0
218.302320 311.417540 -4.262204 16 1
22.291033 369.592290 43.858315 0 0
18.459991 134.650670 44.265079 0 0
44.646381 283.472110 163.176790 0 0
68.306488 555.272830 42.711483 0 0
61.083645 559.772520 74.345055 6 1
184.313710 340.284550 0.715988 16 1
110.670490 324.120970 -130.019380 3 1
-34.927670 303.590030 -232.928600 35 1
69.242653 561.045410 52.907772 6 1
188.431340 322.846470 36.440083 11 1
38.279945 220.845000 64.922798 0 0
52.449749 504.363400 -95.223534 0 0
34.550594 128.268880 55.524742 0 0
1.313888 20.453520 12.714924 0 0
67.633934 350.728790 -54.986992 0 0
14.506969 214.661410 0.708082 0 0
-73.212242 339.790710 156.002400 7 1
55.119453 399.687260 116.883540 0 0
110.781970 255.848750 -212.430250 12 1
16.693964 289.033970 -221.503890 34 1
171.697390 131.517240 23.520638 21 1
2.641332 302.511080 227.733030 25 1
192.411850 342.537900 -49.818062 17 1
46.663261 408.154630 0.321390 0 0
5.574094 223.618000 -16.793873 0 0
-44.978085 470.434840 70.274757 15 1
21.024446 237.884380 -38.097683 0 0
168.561630 133.214570 -8.852285 20 1
78.993988 499.770290 -99.284630 23 1
-1.872963 337.435180 -10.423887 0 0
9.533161 231.063520 -26.415009 0 0
-51.038872 338.285370 154.965040 7 1
15.153272 323.855010 96.308456 10 1
44.293568 476.728820 39.951698 0 0
85.095612 351.750180 -56.914902 30 1
173.717560 110.621740 90.434067 18 1
-7.601240 451.428500 27.696438 0 0
37.443485 135.025710 47.805008 0 0
28.929735 162.952670 63.483486 0 0
177.619350 347.292240 9.531938 16 1
22.528418 482.872470 31.562267 29 1
43.998821 120.424270 33.792221 0 0
80.704697 334.661710 -40.676666 30 1
37.025711 274.664400 -231.757750 33 1
34.763130 329.151640 -46.088703 0 0
195.726530 333.178890 -73.858360 17 1
35.233486 494.921510 21.551058 29 1
-37.176842 480.602570 50.443878 15 1
78.128258 343.900390 -120.130480 3 1
-6.396729 395.520020 -24.912071 0 0
-14.876355 311.324070 114.501310 9 1
30.486483 174.155230 71.804131 0 0
-53.824642 522.277590 62.782898 14 1
79.508408 319.368410 -132.309230 3 1
-67.970573 517.003850 49.938507 14 1
77.811913 556.084960 62.202206 6 1
92.089973 353.124300 -169.154620 31 1
47.296890 351.815430 -45.032986 30 1
19.555252 154.027110 -33.508072 0 0
12.329619 328.175690 -74.342949 5 1
75.207657 270.636440 243.875430 26 1
-83.358467 518.479920 40.452721 14 1
14.677547 93.113197 17.399038 0 0
43.850227 503.863040 -111.016460 0 0
56.486198 285.230680 201.319150 27 1
51.762695 361.946440 -147.315480 31 1
219.584300 301.812740 -25.216312 16 1
-5.544984 7.408631 0.181471 0 0
-62.947918 517.307370 10.810976 14 1
188.879910 310.774170 39.069622 11 1
30.726538 238.418300 56.702591 0 0
47.161274 363.230530 -46.290855 30 1
105.540660 129.209590 101.935750 13 1
149.247790 119.003430 53.538742 28 1
-3.644868 64.326294 -2.736637 0 0
103.130260 271.851320 -193.985930 12 1
23.036486 163.374970 -28.606600 0 0
59.218071 344.891940 -189.407730 31 1
-4.097216 122.359630 -15.272805 0 0
224.008180 315.629910 1.089992 16 1
212.436860 265.204560 -35.982834 2 1
32.391045 315.151670 -43.744167 0 0
16.566759 306.423190 7.472416 0 0
35.018379 429.518980 -25.623329 0 0
74.123909 351.615840 -142.750760 31 1
34.510513 441.204500 21.241613 0 0
18.754108 347.533360 32.730644 0 0
29.644341 296.369260 94.102982 10 1
61.692497 352.821690 -189.310350 31 1
71.216255 267.878690 -210.734010 33 1
77.746651 363.669950 -52.850517 0 0
-1.254501 344.803280 -119.579550 4 1
55.979355 273.356320 208.841740 27 1
30.899042 353.218630 -59.109276 5 1
11.164648 420.724950 6.571270 0 0
22.383518 338.532100 2.371299 0 0
-65.769836 305.306700 -237.422710 35 1
38.563332 277.121340 -215.826220 33 1
-5.219039 362.814300 -110.786730 4 1
258.848750 267.655640 5.617694 16 1
44.551769 300.318820 205.097580 27 1
45.286343 567.399840 81.940117 6 1
171.254100 332.663480 -11.701916 0 0
254.034590 254.613200 -65.473030 2 1
5.948326 492.223790 29.746296 0 0
127.173610 139.595730 38.666084 19 1
8.705229 240.921920 -233.522260 36 1
160.221280 130.503890 13.913857 20 1
72.078850 166.076110 -195.580950 1 1
68.166069 496.219790 -124.324280 23 1
68.246902 229.007920 -207.210940 1 1
2.498992 35.474926 15.235703 0 0
28.663063 378.708920 23.990545 0 0
34.035732 332.982510 -133.578690 4 1
62.542534 353.995390 -147.018740 31 1
56.923321 292.190830 196.696350 27 1
56.441502 561.142820 102.586040 6 1
17.220896 231.503400 -240.109880 36 1
-39.889790 282.014950 -237.837570 35 1
229.574220 304.620210 -14.039021 16 1
20.142241 503.921110 8.342678 29 1
19.247494 116.931180 -25.352531 0 0
-15.138369 471.011810 35.759621 15 1
146.343840 173.719960 49.102764 0 0
263.787410 240.936070 -7.717707 16 1
-42.291626 455.213620 84.944687 15 1
138.856190 125.144820 28.806557 19 1
80.548462 342.224030 -181.805500 31 1
-50.463768 290.727870 -239.762360 35 1
17.876257 104.416290 58.006599 0 0
166.861080 338.609070 -11.332994 0 0
-13.470951 316.806090 218.469470 25 1
-58.697552 486.261780 55.100281 15 1
40.801170 352.172270 -115.043100 4 1
56.105980 374.236600 -47.659199 30 1
21.625416 399.598050 32.279678 0 0
170.488650 97.013222 53.790077 28 1
234.207500 250.139100 -16.264359 2 1
11.014908 210.154160 -6.884335 0 0
6.655726 475.505490 36.660282 0 0
132.479220 121.303740 42.882107 28 1
60.789795 273.161220 -219.689060 33 1
37.692825 368.812870 -24.008127 0 0
-3.245908 321.162780 88.185989 9 1
15.170564 286.365230 -141.644420 0 0
-25.181347 478.682920 33.053963 15 1
83.513351 167.385380 -187.069200 1 1
183.997470 330.517820 67.419876 11 1
101.065420 137.499630 93.823517 13 1
3.096833 166.576720 7.496210 0 0
-63.446716 521.269410 53.760902 14 1
-6.657617 329.754210 -137.215240 4 1
204.886180 312.237640 -42.637276 17 1
49.352764 281.755400 256.856320 26 1
82.299637 549.124510 80.147095 6 1
34.209393 152.729870 60.802814 0 0
150.033690 444.881290 -74.807335 0 0
149.089800 131.054520 1.324613 19 1
12.550455 198.263730 12.525702 0 0
21.628626 227.190290 -41.940117 0 0
9.991492 17.532793 10.868779 0 0
90.395630 541.028810 103.364910 6 1
-44.571953 335.738770 144.298360 7 1
13.385835 119.896740 -1.821299 0 0
12.152381 115.094860 59.643230 0 0
136.852650 166.091460 45.249416 0 0
235.775620 287.439060 -17.445118 16 1
38.052677 264.310580 145.715880 0 0
222.024000 296.405880 -31.016874 16 1
27.666882 285.665650 -212.834060 33 1
3.159128 306.092930 218.650010 25 1
16.005133 354.159450 -4.392146 0 0
22.279057 154.911130 59.065643 0 0
38.008911 287.478850 -1.024877 0 0
-7.948105 307.485230 17.545246 0 0
78.265915 266.321080 -188.378040 34 1
32.816097 295.117920 -209.260850 33 1
6.778175 214.386890 17.854671 0 0
22.059696 88.550941 28.471817 0 0
57.081417 357.855500 -159.470460 31 1
33.825298 272.053250 -223.958220 33 1
14.295362 244.386660 -15.241870 0 0
-11.498941 298.663940 129.877270 9 1
-15.723055 93.100304 -3.871053 0 0
14.339010 318.802120 13.936315 0 0
5.225904 73.182114 23.113237 0 0
44.140038 206.720780 5.904508 24 1
84.876427 268.981840 -197.477100 12 1
18.735985 296.648990 -220.302380 33 1
3.026142 293.827760 -1.476302 0 0
