6.887917 14.959943 -12.867762 1 1
-35.425701 74.799202 -32.547195 8 1
-12.246716 68.906532 -30.173649 10 1
39.556541 69.469131 -9.407190 6 1
-13.416478 11.795465 14.147472 4 1
-35.717255 78.993736 -31.677492 8 1
-16.182373 69.048431 -27.183029 10 1
-10.771738 72.117767 -23.757147 10 1
25.553995 72.484138 -8.197096 6 1
-28.288782 76.255165 -29.636423 8 1
2.460972 17.552713 -15.983657 1 1
-43.866543 80.015343 -34.978165 8 1
-31.151022 73.837425 -26.832859 8 1
21.519909 14.478255 -20.719950 1 1
-4.527871 8.507546 19.631039 4 1
-1.079761 25.694979 -1.194466 0 0
-3.318917 62.479610 -1.754073 3 1
-5.007523 71.221092 -6.049412 3 1
-0.798381 70.505287 25.412449 7 1
3.838074 14.442846 -9.220108 1 1
-1.215809 29.300724 -2.369569 0 0
21.541794 16.658699 -9.242237 1 1
20.906387 71.533348 -0.328228 6 1
-7.190557 68.643661 27.717430 7 1
-1.131620 68.344078 28.282429 7 1
8.496995 70.992851 12.181603 7 1
-25.156612 68.853500 -18.723761 9 1
3.997156 48.005886 3.176071 0 0
8.591535 58.110992 5.822076 0 0
-25.125982 73.172417 -20.618532 8 1
-12.489172 6.592300 22.338751 4 1
-7.539629 8.006089 17.113588 4 1
-14.081995 16.500595 4.357329 4 1
-24.664751 72.408852 -17.169548 9 1
-34.098392 75.154205 -35.383995 8 1
-0.426685 13.253661 10.431541 4 1
11.110892 14.161378 -4.243126 1 1
20.256140 75.347145 14.715734 5 1
3.816624 69.878120 16.051722 7 1
5.943267 54.165051 3.083293 0 0
2.437702 44.114864 0.544547 0 0
-19.876944 69.837173 -26.607330 10 1
1.199875 12.912937 -1.154149 0 0
14.042261 71.998619 9.285647 0 0
35.743622 71.393883 -1.852332 6 1
-7.148114 7.912454 20.774202 4 1
15.623691 14.956053 -18.165787 1 1
-35.550846 70.653969 -8.088672 9 1
8.707360 15.813956 -19.595102 1 1
6.567986 15.354561 -15.056116 1 1
5.530908 70.426628 24.255140 7 1
-28.332125 73.007538 -8.979446 9 1
28.437544 71.801842 31.503885 5 1
6.745862 52.443565 2.749135 0 0
-14.356028 71.210854 -27.640259 10 1
-3.002894 52.772480 -0.759867 0 0
-36.522301 67.821358 -15.250981 9 1
-8.354068 67.875641 26.032301 7 1
19.775894 74.409561 18.511755 5 1
-17.205490 15.063324 7.687616 4 1
0.981324 46.864670 -2.859371 0 0
1.051861 19.404791 -0.486584 0 0
31.376369 72.582787 1.576265 6 1
20.859058 14.931849 -5.414781 1 1
7.267337 71.136192 22.700205 7 1
-39.133820 79.254616 -32.779911 8 1
17.962769 74.906502 20.994463 5 1
-23.456999 76.669319 -31.767187 8 1
-5.682220 65.119537 -2.663309 3 1
6.108222 18.451672 -15.096434 1 1
34.617100 70.630318 -9.204110 6 1
-25.272055 71.088142 -24.903675 8 1
-32.554161 78.916901 -33.085999 8 1
9.340918 71.670143 17.633390 7 1
-15.446212 15.482832 6.274055 4 1
0.606602 70.456978 26.699543 7 1
-0.764956 5.079362 0.896828 0 0
-3.130383 71.261894 15.915445 7 1
22.639629 71.463448 -5.548210 6 1
-28.756132 72.240532 -15.751922 9 1
-3.052101 63.508587 1.716988 11 1
-3.844558 67.625648 27.482136 7 1
-4.559372 58.565735 -1.237769 11 1
2.932883 69.523880 26.393412 7 1
-2.943345 15.096881 2.775107 4 1
-19.037048 68.415596 -32.909851 10 1
10.814944 16.328648 -2.856505 1 1
-7.881032 13.833026 4.104924 4 1
16.917862 16.371704 -24.130907 1 1
-32.773529 75.639381 -22.066860 8 1
21.171146 76.111282 10.950118 5 1
25.053253 70.517212 -3.983024 6 1
-4.955906 56.839485 -2.179361 0 0
22.439125 15.314697 -15.600450 1 1
-3.497831 13.329092 3.616597 4 1
18.729830 71.321091 3.016668 6 1
-15.081866 67.792778 -33.052616 10 1
4.204574 17.855038 -13.391958 1 1
-1.081573 15.828932 -15.782200 1 1
-9.391170 71.479782 -25.076300 10 1
-9.843515 6.115946 22.842770 4 1
-15.555370 18.958643 3.733336 4 1
3.476270 15.165898 -12.912507 1 1
-18.046600 70.913834 -22.738180 10 1
-33.289852 67.847198 -16.534536 9 1
-25.207020 74.745865 -28.275921 8 1
19.974251 73.354889 -2.517740 6 1
-33.070183 77.394844 -40.181480 8 1
12.521239 17.057304 -5.310354 1 1
-29.862337 68.471436 -15.988078 9 1
24.404139 70.330902 -0.628346 6 1
-8.134008 74.284698 -24.962833 10 1
9.387423 15.251692 -15.919746 1 1
0.447721 2.771693 -1.174846 0 0
-1.748898 -0.557482 1.958211 0 0
-39.494446 76.759941 -42.594383 8 1
-32.942215 69.769142 -11.325366 9 1
-4.036577 69.447281 -10.905788 2 1
-23.289116 78.671028 -34.286716 8 1
-44.331341 68.043678 -12.290961 9 1
-17.220188 17.611265 6.019080 4 1
19.109135 14.555868 -17.004126 1 1
-16.866821 68.351425 -30.155437 10 1
-33.947819 78.869606 -34.369884 8 1
-0.483333 49.570847 -3.592265 0 0
40.129536 69.165314 -12.620603 6 1
37.685806 71.125641 -2.029306 6 1
-4.777973 66.000305 -5.747071 3 1
1.354628 24.513124 -2.039759 0 0
3.945140 15.732160 -7.412605 1 1
16.287695 73.247711 4.882487 6 1
21.625956 73.951485 20.801979 5 1
30.059216 71.931091 0.224958 6 1
-35.835545 77.365509 -41.905090 8 1
25.896622 75.031067 14.421862 5 1
-24.333227 71.647438 -19.645103 9 1
-33.710205 72.870232 -11.079350 9 1
-10.951934 8.738920 12.873076 4 1
-17.161203 10.526504 17.662672 4 1
10.432980 14.250461 -7.074829 1 1
-0.401916 43.371498 -2.774398 0 0
-35.275726 76.303101 -38.640907 8 1
-9.393758 14.673675 8.610123 4 1
21.539738 70.859184 4.076269 6 1
-5.349723 69.904663 24.531549 7 1
15.337037 72.534676 7.847913 6 1
-20.267872 68.882111 -31.473188 10 1
-20.686874 69.990685 -22.107155 8 1
-3.614863 60.451691 -9.581627 2 1
-23.275761 69.522964 -21.898991 9 1
-17.206762 10.673190 12.134850 4 1
-9.529139 14.327694 4.750828 4 1
-29.622356 73.213112 -31.078096 8 1
-39.162560 71.224106 -7.615315 9 1
1.118490 44.587719 -1.487748 0 0
-12.822053 12.944630 12.167276 4 1
-40.181389 76.022102 -40.685074 8 1
-26.132647 72.147377 -28.544014 8 1
12.565657 16.677181 -3.452366 1 1
-0.679634 27.413343 0.302287 0 0
9.475332 73.469429 10.761878 7 1
7.968936 55.214924 4.647365 0 0
21.439819 17.187540 -14.097013 1 1
-1.113877 37.338928 -1.994211 0 0
22.568058 74.447014 18.260212 5 1
19.945837 73.437874 25.835014 5 1
28.780462 72.234497 28.241047 5 1
14.763823 14.557379 -13.043554 1 1
25.493956 72.039650 -2.360534 6 1
17.550156 72.686157 9.814497 6 1
-1.607611 72.723618 14.704718 7 1
-24.910236 75.324211 -30.626656 8 1
-21.271019 12.502296 14.956132 4 1
-4.958337 57.328846 -4.139668 3 1
40.436539 67.817711 -9.867954 6 1
18.592945 17.802382 -14.634009 1 1
10.373014 64.026077 7.706502 0 0
-0.375915 31.085989 -3.322398 0 0
-32.640408 77.047188 -37.111309 8 1
-12.189697 72.734856 -22.285231 10 1
-0.270837 34.109005 -2.713189 0 0
-19.187376 9.415876 22.300877 4 1
0.582836 19.960531 -2.221919 0 0
9.220417 61.880775 5.427966 0 0
-1.222476 1.926718 1.192390 0 0
-27.543900 75.863281 -32.605404 8 1
-40.368752 79.090904 -39.373859 8 1
-2.025794 64.647072 -7.570172 2 1
4.041270 15.514899 -15.123031 1 1
-3.039668 71.946449 17.836687 7 1
-44.319912 79.466660 -37.053986 8 1
-12.914804 70.996292 -24.713718 10 1
13.746087 72.799942 11.221123 7 1
8.764325 71.533150 19.868252 7 1
-28.313803 71.174667 -22.749159 9 1
-33.731007 72.048065 -14.490414 9 1
-19.575706 7.729761 19.945541 4 1
-0.350363 59.757801 -1.866642 11 1
-20.703896 11.050012 17.756664 4 1
-21.724501 10.306825 15.392281 4 1
14.171540 70.242157 9.883819 0 0
-1.525899 39.838375 0.002346 0 0
10.223333 16.246233 -23.576117 1 1
-3.152492 46.852596 -0.955093 0 0
-0.427579 71.702751 20.430746 7 1
2.736884 39.814594 -0.689142 0 0
-1.611327 67.223358 -1.110136 11 1
0.993724 50.557545 0.755636 0 0
-29.619898 71.361618 -20.098537 9 1
-29.497875 73.278206 -12.321680 9 1
-4.256234 59.532280 -6.860088 2 1
7.147804 72.942787 20.169083 7 1
-24.399599 79.241699 -35.713699 8 1
-2.786319 66.919464 -6.892985 3 1
24.919819 70.373497 2.468503 6 1
29.995831 69.837601 -8.869948 6 1
30.524981 74.087074 23.854631 5 1
-3.454042 64.275764 -1.859457 3 1
-3.266934 0.132511 -0.214165 0 0
18.346235 73.840828 -3.184522 6 1
1.830574 29.354916 -0.792960 0 0
37.141418 70.264084 -6.397850 6 1
18.349543 14.633242 -13.671597 1 1
-34.236282 75.339035 -26.435061 8 1
23.939053 76.203438 13.460883 5 1
-4.824937 54.560951 -2.119083 0 0
7.428289 14.402349 -9.311936 1 1
-39.046146 79.499985 -30.287725 8 1
-33.289959 79.263390 -31.334101 8 1
-30.041382 73.198479 -28.098764 8 1
-30.191311 73.492455 -24.528378 8 1
10.465204 15.434823 -17.680731 1 1
0.525242 5.010334 -0.358179 0 0
-0.105868 68.432014 23.841574 7 1
-33.925396 72.374069 -7.371283 9 1
1.474548 25.006897 0.063539 0 0
-3.504726 67.812599 23.778755 7 1
-35.639015 78.122910 -24.784081 8 1
2.968743 13.176264 -5.671108 1 1
10.824967 18.078529 -23.080313 1 1
3.235422 69.356384 18.491411 7 1
-3.831108 14.851872 6.183362 4 1
37.973347 69.821625 -10.276526 6 1
27.435184 71.613808 -2.473630 6 1
-41.404190 76.622887 -34.493362 8 1
5.434931 49.147835 3.295374 0 0
23.634602 73.451042 27.336004 5 1
-2.987466 13.194528 9.215553 4 1
-38.042484 68.523178 -18.552803 9 1
-10.023166 10.097040 9.652821 4 1
-23.847574 77.028587 -33.489693 8 1
1.109138 22.747532 -2.079881 0 0
34.496925 69.456001 -13.032564 6 1
-24.163773 72.153229 -13.975862 9 1
3.746270 71.978935 21.091976 7 1
1.376719 71.431313 22.494726 7 1
-16.770842 69.376236 -25.453264 10 1
8.226278 14.288608 -1.561749 1 1
10.266237 14.407778 -0.804638 1 1
-38.578415 67.696594 -12.195926 9 1
21.278521 72.712776 1.944860 6 1
13.867651 16.124260 -0.771934 1 1
31.010057 70.976387 29.807796 5 1
-1.009396 -0.533037 -2.099814 0 0
-37.434383 77.010719 -24.696568 8 1
-2.879228 68.680580 -0.265374 11 1
-6.377593 68.503601 29.511454 7 1
-32.559536 74.083923 -30.211636 8 1
3.535861 71.517433 12.661130 7 1
-12.625469 5.773324 20.374371 4 1
35.497795 71.090256 0.706163 6 1
-3.189763 67.293129 -9.114987 2 1
-37.397823 78.122948 -39.137833 8 1
-28.176586 69.068214 -15.755061 9 1
1.031280 52.087067 -1.516355 0 0
-9.563647 66.836807 31.990974 7 1
-26.410397 76.488190 -26.221102 8 1
-8.358069 69.614967 21.811432 7 1
-26.111143 76.997490 -33.767036 8 1
-34.843681 72.998535 -9.463167 9 1
-1.245125 58.628193 -4.282836 3 1
-27.570374 71.575768 -19.162397 9 1
11.557394 73.346878 13.740106 7 1
-44.141415 76.686768 -37.425381 8 1
-37.294651 72.031372 -11.183415 9 1
-0.026890 45.643822 -0.294948 0 0
-35.402466 79.530197 -41.604111 8 1
-1.952627 0.880349 -1.125602 0 0
1.599255 16.356943 -11.179230 1 1
-14.324802 6.917706 22.015268 4 1
-0.994044 60.410656 -5.281094 3 1
-31.034828 74.690308 -22.073761 8 1
31.519629 69.182549 -5.039716 6 1
3.290314 43.025379 1.694492 0 0
-40.785969 79.754944 -33.182827 8 1
-30.444546 78.490395 -31.064264 8 1
-27.067560 68.671112 -17.721987 9 1
-1.974431 10.979874 13.727457 4 1
-13.165782 69.151749 -28.678106 10 1
-14.477896 10.395013 16.663492 4 1
-4.762460 69.436073 -6.322531 3 1
18.917250 16.252146 -3.753178 1 1
21.283710 15.104886 -13.619283 1 1
-3.211945 55.342033 -7.089942 2 1
-22.088297 70.928757 -21.619761 9 1
-5.199263 69.154106 27.800222 7 1
-1.142206 17.567541 -2.089707 0 0
-31.061981 76.335175 -33.446087 8 1
-3.669845 12.443161 6.976411 4 1
-7.913855 71.152031 19.392588 7 1
-41.940281 79.816017 -30.720209 8 1
-9.882506 11.853045 13.708256 4 1
-2.579235 32.328560 -2.017036 0 0
-25.375425 72.734077 -11.188347 9 1
-27.871862 76.908821 -36.007290 8 1
-33.633904 68.316673 -13.823201 9 1
10.725278 72.479164 9.602879 7 1
3.962725 46.039188 2.937008 0 0
1.131924 68.987511 20.862782 7 1
8.006952 18.919550 -18.212757 1 1
12.971631 14.902446 -15.708286 1 1
-0.918324 64.560196 -3.088055 3 1
-2.523196 30.317055 -1.816125 0 0
-6.881217 68.549515 23.951658 7 1
-18.461615 12.517579 14.969280 4 1
1.733690 45.956017 2.270425 0 0
15.122031 14.704957 -14.801260 1 1
-22.905401 70.493126 -17.692482 9 1
-41.101833 70.184418 -8.669978 9 1
18.199743 16.206795 -18.573526 1 1
1.081318 12.078040 -3.308219 1 1
-0.671566 60.172409 -7.826938 2 1
-3.406186 65.129959 0.256433 11 1
-1.817921 52.023582 0.269193 0 0
20.277792 17.731188 -11.396653 1 1
-25.723007 71.900978 -23.420156 8 1
-17.694979 70.103561 -27.181435 10 1
-2.895449 58.047337 -8.621587 2 1
-31.667200 71.583801 -17.474670 9 1
18.917027 71.763283 1.291384 6 1
23.460735 70.929047 4.595041 6 1
-3.257990 62.497475 -10.234552 2 1
-0.230473 31.855385 0.203231 0 0
9.120771 73.101936 13.186133 7 1
36.455593 70.218811 -12.001629 6 1
-28.612179 70.280785 -13.006700 9 1
-6.323934 71.752625 16.645882 7 1
-32.492741 77.341751 -26.658035 8 1
-35.442284 68.032867 -16.588312 9 1
-31.691704 77.338982 -39.076389 8 1
-41.322773 68.520325 -18.237333 9 1
-35.644894 78.491348 -43.344147 8 1
15.010242 18.412697 -9.784555 1 1
-21.890728 74.690140 -29.427883 8 1
-20.990417 14.190046 11.981509 4 1
16.855009 17.855976 -15.013196 1 1
7.127337 56.696182 3.720739 0 0
-0.715277 53.669796 1.799546 0 0
1.792629 36.430977 -1.249468 0 0
-4.802332 62.622433 -8.069239 2 1
-8.762242 73.562347 -26.464209 10 1
1.434502 16.622463 -1.394257 0 0
-37.972790 76.110771 -30.268034 8 1
32.692352 69.340622 -10.681879 6 1
24.313797 72.375092 29.587547 5 1
-1.345969 15.317500 -2.352503 0 0
-7.849924 10.447309 9.875600 4 1
-2.858835 9.173094 18.693651 4 1
19.083021 14.543994 -8.161838 1 1
-9.656944 68.413208 -34.413353 10 1
-19.409819 8.342139 17.142580 4 1
20.569290 71.650383 -2.539758 6 1
-15.208764 71.750969 -25.223427 10 1
7.774705 18.908785 -15.022996 1 1
-15.158322 70.117554 -28.775309 10 1
-13.916942 73.014717 -23.063911 10 1
18.157907 75.947792 12.639436 5 1
-7.174728 12.539032 5.331838 4 1
4.064952 48.125160 1.438357 0 0
16.170279 71.015587 9.643415 0 0
-0.094431 49.251839 0.443815 0 0
-9.065573 16.258757 5.685260 4 1
21.512587 74.151009 26.051834 5 1
-29.311924 78.532661 -27.512733 8 1
5.458508 74.380043 9.362957 7 1
4.929257 16.095079 -20.470215 1 1
-2.662746 55.272896 0.433200 11 1
-35.272247 75.204865 -30.176334 8 1
-6.519519 9.229335 17.920822 4 1
-31.065540 72.736023 -12.817617 9 1
-41.804642 69.261581 -11.979401 9 1
21.649685 73.394836 17.267124 5 1
10.368203 60.461971 5.782234 0 0
-1.292165 11.752934 11.427976 4 1
-14.480331 6.812094 16.694563 4 1
-0.856191 54.428364 -0.097565 11 1
10.582161 19.168871 -18.373552 1 1
13.620970 18.364473 -21.036770 1 1
-21.818939 12.166119 13.240036 4 1
29.604359 70.941612 2.648497 6 1
-31.446152 71.515984 -8.807753 9 1
-5.884823 14.618789 3.055791 4 1
-12.451930 16.345396 7.754926 4 1
16.410488 73.814133 16.857124 5 1
22.408792 71.193687 -1.141819 6 1
16.789051 14.385953 -10.362284 1 1
-29.951529 78.294716 -37.531330 8 1
-42.933487 76.835892 -42.296974 8 1
-12.341077 8.026243 14.137924 4 1
-0.029204 28.056309 -2.589752 0 0
-38.744507 68.982681 -20.491850 9 1
8.346890 16.224550 -22.138020 1 1
23.260956 73.148460 4.987248 6 1
-15.390663 12.827219 8.661044 4 1
-20.930998 71.407631 -19.019947 9 1
-3.038143 67.206551 -3.026281 3 1
-20.125383 70.549698 -25.078079 10 1
-0.502534 64.886559 -1.464554 11 1
-36.616669 76.735176 -40.530823 8 1
-1.907566 14.614102 6.156766 4 1
2.097264 12.829132 11.816882 4 1
38.170387 68.997910 -5.689144 6 1
18.950579 74.852509 15.820727 5 1
-31.079586 69.039330 -14.089141 9 1
20.005775 73.525826 20.158379 5 1
2.338144 42.598869 -0.213716 0 0
30.964321 73.322731 3.713078 6 1
25.286572 72.180458 0.231618 6 1
-23.954184 71.011192 -22.893402 9 1
19.859560 14.229508 -20.475019 1 1
-2.781813 52.584724 -5.142574 2 1
22.585325 73.174133 -4.984354 6 1
-28.835331 69.248367 -21.663467 9 1
-29.212683 74.377014 -21.274477 8 1
24.773924 73.066666 20.322742 5 1
-26.196939 71.525154 -20.236204 9 1
-2.388370 3.386234 -0.442488 0 0
-32.270580 77.207779 -21.675364 8 1
26.484367 70.131416 -0.756597 6 1
-16.356443 6.264340 20.436991 4 1
-4.161183 71.990211 -32.096279 10 1
-17.361595 6.980581 23.318722 4 1
22.877213 72.604836 -2.707556 6 1
13.299631 72.595062 13.340374 7 1
-23.341690 71.380890 -26.755846 8 1
4.454492 73.180435 12.683708 7 1
-19.421364 11.279432 12.467688 4 1
4.102872 72.653664 14.783085 7 1
-21.371643 9.314254 17.337660 4 1
-3.520410 71.467216 19.405436 7 1
6.039734 70.227982 14.661722 7 1
40.053280 68.848923 -6.553889 6 1
-10.811590 73.801941 -23.748196 10 1
8.722216 73.709297 9.171166 7 1
24.318277 73.332443 7.449367 6 1
11.503152 15.720647 -21.018450 1 1
29.325747 69.522682 -3.673458 6 1
13.949968 14.316433 -10.098329 1 1
-0.123608 39.565998 0.887112 0 0
25.217215 70.980164 -7.353085 6 1
-6.290186 70.448723 18.811708 7 1
15.819789 16.699072 -3.659034 1 1
16.422255 16.181103 -1.352578 1 1
22.421255 74.978371 13.195800 5 1
-1.990594 68.835464 20.684332 7 1
-22.872616 72.590065 -14.983763 9 1
22.794060 73.234077 19.835613 5 1
-28.929861 79.528679 -38.172428 8 1
10.638530 73.580696 19.122570 7 1
-9.766864 68.028847 28.426498 7 1
-18.916138 13.563498 12.719807 4 1
-1.480348 55.188824 -3.856472 0 0
-30.099932 74.031609 -32.815632 8 1
-3.221154 67.117096 1.525696 11 1
-6.699792 10.110911 15.717254 4 1
19.537066 73.511909 23.262867 5 1
11.643589 66.437622 6.704427 0 0
11.978637 14.611241 -12.724389 1 1
-1.485751 68.404778 0.691665 11 1
18.432478 73.234947 0.311729 6 1
-0.434107 63.120220 -7.608960 2 1
26.220093 72.719650 26.897671 5 1
-7.142926 16.198034 2.628930 4 1
-39.903187 77.172844 -29.390003 8 1
24.827023 72.758339 22.819265 5 1
-0.924745 10.558773 16.535322 4 1
-1.838629 58.820484 1.259029 11 1
-1.693194 63.024918 -10.035562 2 1
-1.275372 57.808689 -7.428023 2 1
6.205140 70.316879 18.654224 7 1
-0.550107 65.165413 -8.248471 2 1
-37.249893 78.961739 -44.013332 8 1
-0.610178 62.286751 -2.496909 3 1
14.437731 17.710638 -24.048590 1 1
14.472570 15.675354 -21.764969 1 1
-4.973116 10.139139 16.561537 4 1
11.668072 18.584988 -10.865558 1 1
16.401314 71.078835 7.470790 6 1
-26.315704 72.197189 -16.796116 9 1
15.572957 18.795687 -13.520607 1 1
25.302900 72.300232 -5.085861 6 1
-28.430584 72.688942 -24.709837 8 1
-0.944739 68.403160 25.700802 7 1
2.475589 41.128277 1.487796 0 0
-0.558664 62.147141 0.112575 11 1
-22.815964 69.215309 -24.230000 8 1
4.165345 17.570642 -20.206778 1 1
22.159163 73.039467 24.293911 5 1
-1.500685 12.649523 1.228444 0 0
-26.465729 71.302185 -26.272432 8 1
17.449970 74.463615 12.907673 5 1
0.619782 15.745888 -9.259649 1 1
-13.143860 15.101401 10.216762 4 1
21.910383 15.243021 -12.094870 1 1
-40.992622 67.749939 -10.272044 9 1
21.857639 74.583527 28.016315 5 1
6.657467 72.838379 15.533389 7 1
-2.793946 69.885384 26.552364 7 1
2.129295 16.024448 -18.680376 1 1
20.505381 14.885017 -7.159172 1 1
4.549248 13.775714 -6.768402 1 1
2.824097 17.575830 -14.372108 1 1
-33.810257 74.804344 -29.399796 8 1
-1.297197 12.637162 8.350879 4 1
11.341511 71.196068 11.023313 7 1
-22.215162 72.794342 -17.148035 9 1
-17.332384 9.008058 14.400344 4 1
15.569934 74.255577 19.317917 5 1
-0.793107 57.589249 -0.632099 11 1
27.907763 72.680122 2.395188 6 1
21.071262 14.925779 -10.527875 1 1
-27.294310 74.397499 -11.490846 9 1
29.903164 71.821899 -9.087555 6 1
-1.728315 42.109921 -2.572643 0 0
14.494946 14.247882 -3.056531 1 1
-9.044398 69.942398 -34.248825 10 1
-12.355792 11.964377 7.980239 4 1
7.714835 15.449750 -16.228668 1 1
-41.173164 67.820839 -15.856055 9 1
-6.937368 71.466385 -26.139631 10 1
19.104254 14.411202 -18.887617 1 1
-36.005867 68.470047 -18.116356 9 1
-13.239416 13.639543 6.542754 4 1
-41.652332 78.203125 -40.821262 8 1
20.425001 72.046288 -4.955305 6 1
-42.111168 67.858215 -8.484775 9 1
26.699652 70.861328 3.462885 6 1
-11.882755 11.416025 14.703621 4 1
-21.673164 76.822968 -31.627728 8 1
-20.198557 10.014401 20.389837 4 1
-7.191315 67.130180 31.194763 7 1
-4.545685 72.001907 15.127958 7 1
-8.481791 71.144699 -28.062716 10 1
12.518804 68.156296 9.126009 0 0
30.289974 70.562759 -11.499413 6 1
38.856998 68.216461 -7.640040 6 1
-28.504995 68.550392 -19.185848 9 1
-0.006919 17.053555 -18.189903 1 1
-24.014822 72.380302 -28.017023 8 1
-10.013380 6.291933 20.332098 4 1
-1.629878 8.509834 -2.352995 0 0
-8.850803 18.569368 1.793577 4 1
8.413393 17.269314 -9.130654 1 1
-10.574802 14.358770 9.735468 4 1
-4.567920 11.973032 12.210472 4 1
-0.868825 22.652700 -1.500379 0 0
0.382822 12.907755 9.012125 4 1
-20.347145 72.051498 -25.837336 10 1
-36.345699 70.087395 -20.727150 9 1
-32.758995 68.297630 -18.168251 9 1
29.241161 70.560539 1.108501 6 1
-1.499047 44.458687 0.117211 0 0
-0.834684 70.827599 23.818647 7 1
-6.550716 69.306000 -35.042492 10 1
-2.827486 73.819817 -29.673203 10 1
28.089664 69.940781 -5.929515 6 1
-8.272863 68.008102 29.174065 7 1
22.294016 73.817017 15.784526 5 1
-10.767212 13.750309 5.662184 4 1
-30.139828 80.005737 -39.456898 8 1
-0.682270 68.971893 -5.346984 3 1
27.469402 70.908669 -10.471104 6 1
-31.923319 80.228600 -40.708370 8 1
12.372008 15.637046 0.619766 1 1
10.356604 18.690546 -20.717751 1 1
-11.412251 70.779930 -31.809551 10 1
14.554881 18.858171 -11.274358 1 1
1.549367 11.686967 15.145037 4 1
10.965992 19.248594 -14.106113 1 1
-31.096081 71.308792 -19.437071 9 1
17.288069 18.287857 -9.944107 1 1
-28.170271 75.593964 -31.137896 8 1
-39.394592 67.528320 -13.627525 9 1
41.350441 69.585747 -7.883983 6 1
-0.692239 9.868099 -3.011916 0 0
-12.279805 10.310850 10.120730 4 1
-0.560867 8.112693 0.451691 0 0
8.507563 59.539780 6.629535 0 0
15.225788 17.716995 -17.958382 1 1
5.773942 14.824318 -11.707875 1 1
18.726559 73.239273 13.286942 5 1
-37.351448 72.007393 -7.998525 9 1
3.689199 17.871143 -16.994907 1 1
9.306361 14.969261 1.260726 1 1
12.974309 68.860611 7.681879 0 0
-3.287180 10.855004 12.217167 4 1
-4.195426 72.986389 -26.125788 10 1
17.092587 16.478502 -20.152224 1 1
-26.988125 71.122223 -12.569927 9 1
-2.426360 69.849968 -11.104890 2 1
-32.849953 74.052872 -32.248695 8 1
-15.120001 7.292799 14.872116 4 1
-1.182820 69.781403 18.602167 7 1
-29.561560 71.255363 -21.739012 9 1
35.062683 68.838844 -5.826064 6 1
-19.706465 9.923058 14.467419 4 1
-12.632370 15.821664 4.492582 4 1
8.469798 14.761103 -12.497838 1 1
-19.453325 69.233261 -30.012857 10 1
-27.631414 77.947807 -26.595768 8 1
-15.804935 12.093044 14.045779 4 1
30.570654 71.515427 -1.298803 6 1
8.102366 70.798607 16.862251 7 1
-2.264365 6.124406 -0.915234 0 0
-15.047132 6.984036 23.764053 4 1
-28.261997 72.746956 -14.269422 9 1
-31.547823 74.216415 -33.471020 8 1
-2.018661 69.408730 29.080122 7 1
-0.146570 9.910904 0.137422 0 0
-40.564682 69.965256 -14.147100 9 1
0.378460 12.637473 13.312031 4 1
-22.155674 73.469650 -26.153540 8 1
-11.586587 68.110291 26.558117 7 1
-42.980385 79.155182 -37.903458 8 1
1.924927 47.969124 -1.192213 0 0
7.413569 16.237865 -6.518867 1 1
-22.199127 11.865744 16.088970 4 1
-1.110344 18.962425 -0.418282 0 0
-3.345893 11.384815 10.240990 4 1
10.834533 15.895675 -0.908852 1 1
37.671860 69.607483 -3.395022 6 1
-30.484623 73.194038 -29.701132 8 1
-35.891823 78.085480 -39.659988 8 1
-9.832707 6.860789 18.748835 4 1
-5.190509 68.366241 -5.184954 3 1
-17.045073 15.150320 9.621153 4 1
-11.714515 17.512274 4.875704 4 1
-1.359843 57.108017 -6.000783 2 1
32.751263 68.859909 -7.500102 6 1
42.273117 69.025909 -10.376259 6 1
40.620853 67.570923 -12.043334 6 1
13.030433 71.063980 11.094751 0 0
10.411972 64.312241 6.142828 0 0
-1.291176 15.294795 -12.157615 1 1
-2.195533 8.293998 0.396801 0 0
-4.479890 73.594597 -29.832346 10 1
13.984251 17.231028 -5.903404 1 1
4.294948 44.815842 1.554525 0 0
-46.235889 77.635635 -38.612988 8 1
11.227952 71.406189 14.642022 7 1
-1.096354 34.944756 -1.614464 0 0
2.297108 72.413330 17.353575 7 1
-13.585014 5.494395 21.857010 4 1
6.699331 18.032431 -11.876291 1 1
5.987275 13.988647 -2.822846 1 1
-15.380183 13.510813 11.712971 4 1
-2.687743 61.746574 2.078007 11 1
27.603985 75.745399 16.722610 5 1
25.766201 72.999580 29.482895 5 1
10.973001 14.454647 -10.653199 1 1
16.095514 15.313442 -21.513594 1 1
-2.038226 70.765251 16.970009 7 1
4.792931 72.415413 19.010384 7 1
-33.442429 79.965050 -41.278316 8 1
-2.354229 0.616712 1.083820 0 0
32.286621 71.073036 -3.842255 6 1
20.567888 73.446136 15.863902 5 1
-10.282108 69.451706 -29.646162 10 1
6.514651 17.024561 -9.432447 1 1
4.054987 69.851059 21.006813 7 1
-35.590961 77.921455 -27.980759 8 1
31.667152 69.460861 -8.900154 6 1
16.905670 15.381551 -22.884680 1 1
20.324711 74.996407 25.440739 5 1
1.283838 69.770943 28.873886 7 1
-9.326590 74.436234 -23.739580 10 1
31.943125 71.113663 2.456762 6 1
4.201934 51.371132 3.417943 0 0
-44.733448 67.097969 -9.573469 9 1
0.671441 48.591133 -3.095006 0 0
-9.506243 16.755371 3.191306 4 1
-30.999863 76.294289 -35.021568 8 1
-2.287322 47.687302 -3.012215 0 0
0.723962 15.706908 -14.998591 1 1
34.069103 72.312340 1.841939 6 1
-17.708851 68.672661 -27.846714 10 1
-2.578924 71.132736 -30.014441 10 1
26.687004 69.945541 -3.189768 6 1
-1.484285 16.672716 -14.517703 1 1
-13.962030 72.604500 -24.581036 10 1
-7.327994 70.568588 -29.621338 10 1
-25.550274 73.852859 -30.536507 8 1
-0.569080 13.005190 -3.401593 0 0
-44.138325 76.134430 -40.466209 8 1
-7.166417 8.606281 15.406512 4 1
-33.913776 69.115952 -12.369544 9 1
-24.557373 72.476723 -22.401768 9 1
13.519624 14.185420 -7.207583 1 1
-4.149582 68.037941 -10.189551 2 1
-12.124408 10.042100 17.088713 4 1
12.891233 18.991137 -11.857354 1 1
13.069511 14.272756 -2.025286 1 1
-29.107132 77.076279 -37.009743 8 1
-41.064762 69.314636 -16.872925 9 1
5.598355 16.245588 -7.915966 1 1
8.472237 18.333719 -20.746506 1 1
-33.431671 70.191597 -9.901859 9 1
-15.148789 69.256828 -31.110516 10 1
16.789249 72.685608 8.449951 6 1
4.111827 69.906502 23.743792 7 1
-3.020308 75.546936 -7.848436 3 1
18.187355 74.620377 18.275827 5 1
-16.979509 71.300720 -24.964952 10 1
-37.025627 79.871902 -35.061958 8 1
-16.659962 13.730347 8.568581 4 1
-34.785812 77.308914 -37.116646 8 1
-14.837143 9.038537 12.574871 4 1
-35.384483 79.810951 -33.866192 8 1
-1.927661 41.397747 -0.258937 0 0
-13.908753 69.132912 -32.856358 10 1
-28.822365 75.343208 -34.039181 8 1
22.182871 15.431950 -8.378921 1 1
-3.629790 52.082859 -3.303378 0 0
-44.824928 77.558189 -39.782646 8 1
-4.745762 67.275749 -2.668302 3 1
21.203939 70.929138 1.074127 6 1
-12.578181 68.985825 -34.311981 10 1
41.594070 68.878853 -12.145054 6 1
-22.003399 74.170067 -27.541712 8 1
26.560429 76.286621 15.056753 5 1
7.379122 15.820820 -18.548512 1 1
-28.095713 70.709885 -24.215412 9 1
-37.169514 71.455124 -14.581003 9 1
4.145442 14.433727 -3.751697 1 1
-41.428688 79.375465 -38.039345 8 1
-7.998035 9.582398 12.239101 4 1
-5.619092 63.381317 -3.816182 3 1
18.069139 73.170387 3.647358 6 1
-4.097025 74.463409 -6.932833 3 1
-3.527216 72.458847 -27.449284 10 1
-1.594293 3.676249 0.854136 0 0
15.912087 17.162024 -22.369877 1 1
-11.341114 7.747338 21.022270 4 1
3.851653 72.510628 17.110685 7 1
23.599796 71.010178 -4.199476 6 1
7.753325 73.120010 18.075148 7 1
-29.046888 77.601418 -29.573158 8 1
2.655393 14.948074 -11.424354 1 1
0.279188 24.172665 0.685297 0 0
-36.159191 70.693954 -19.292940 9 1
-6.467476 11.475276 7.846806 4 1
-4.528939 60.555737 -8.344171 2 1
-16.471867 71.098167 -22.581570 10 1
-11.848527 66.923965 30.044188 7 1
23.159033 72.051498 7.169211 6 1
21.125578 15.758706 -18.377850 1 1
-27.124224 79.423340 -36.908409 8 1
-0.842007 65.998909 -9.508102 2 1
-35.674835 67.504883 -14.006888 9 1
-35.165459 71.554123 -16.528135 9 1
-34.316853 68.980003 -20.654694 9 1
-43.812553 67.059547 -11.012917 9 1
1.846238 72.081673 19.217285 7 1
13.145477 18.889174 -15.871407 1 1
-3.137900 12.700602 2.213210 4 1
23.013948 73.316826 8.307906 6 1
-1.037762 60.294674 -9.316563 2 1
24.174179 70.271851 1.109007 6 1
-2.723346 49.349625 -0.944117 0 0
5.988474 73.148239 12.612955 7 1
-0.055360 73.336342 11.816391 7 1
-42.859489 67.347839 -13.572151 9 1
-12.240683 8.581464 19.606466 4 1
3.722257 17.826708 -18.626398 1 1
1.316782 69.036621 24.113934 7 1
11.573465 14.876547 1.699388 1 1
6.442612 72.178268 11.087250 7 1
-6.792344 72.468025 -30.799459 10 1
-17.984720 9.683140 18.773462 4 1
-12.790115 71.859978 -23.443644 10 1
-8.410644 7.397437 18.310413 4 1
-9.615823 68.932869 25.450600 7 1
11.571365 73.485046 17.915106 7 1
-34.873383 76.333565 -22.827866 8 1
28.522078 74.522049 21.277822 5 1
-37.580585 70.663582 -17.581114 9 1
-32.503265 77.725212 -28.139845 8 1
-29.514135 74.073067 -9.296556 9 1
25.740910 72.700218 2.895979 6 1
-0.970888 62.465927 -5.552641 3 1
-31.248983 69.016266 -20.705109 9 1
17.053730 74.894669 19.690050 5 1
0.656055 42.705143 -0.927570 0 0
13.878277 14.502329 0.406515 1 1
-1.682542 50.213543 -0.038319 0 0
-2.646871 -1.249605 -0.386912 0 0
-6.293279 71.214447 -33.186993 10 1
-4.848975 73.451157 -5.083294 3 1
7.014326 55.211182 3.401590 0 0
-12.252498 14.291303 5.583388 4 1
-12.215169 5.099310 22.460571 4 1
-3.655341 74.559441 -26.044037 10 1
-27.048222 77.534622 -34.880131 8 1
-5.757480 9.229055 14.912040 4 1
-4.430720 65.612328 -11.424752 2 1
-33.082218 77.259155 -23.762844 8 1
-38.473663 75.935875 -31.692509 8 1
-14.134773 68.416199 -35.829266 10 1
0.029947 13.797505 6.932738 4 1
-8.679856 12.836174 11.436749 4 1
-0.813723 42.828590 0.504980 0 0
-1.609652 45.069111 -2.742527 0 0
-43.630054 78.145897 -32.664490 8 1
34.579521 68.742538 -9.887011 6 1
-1.424123 57.378010 0.786412 11 1
-18.869301 13.151217 10.633280 4 1
-4.694600 61.885532 -2.075644 3 1
-3.809122 10.151088 14.135372 4 1
-10.158727 73.306709 -26.995956 10 1
10.038534 62.199444 7.217676 0 0
-18.046988 69.549599 -23.550882 10 1
-2.654313 68.047836 28.318655 7 1
-10.945863 17.287695 3.207440 4 1
1.867644 72.750351 14.470090 7 1
-40.874531 76.184982 -42.353848 8 1
-0.019863 62.993412 -1.295062 11 1
-40.174904 75.731949 -37.403202 8 1
16.244362 14.800517 -16.793770 1 1
-2.335643 64.923958 -2.646453 3 1
13.455969 14.521003 -12.208498 1 1
13.162534 14.167518 -5.079698 1 1
-28.066462 73.342690 -30.944811 8 1
-20.568718 14.234908 10.407279 4 1
17.613173 74.662567 16.515797 5 1
-2.681201 67.285423 25.369148 7 1
28.596292 73.277809 3.656391 6 1
4.727837 73.180458 10.452765 7 1
-4.193371 70.913239 21.141666 7 1
-4.306168 71.945137 -7.286123 3 1
0.994134 41.164345 1.200528 0 0
-10.096986 68.884491 23.548048 7 1
-31.342058 74.022736 -25.348787 8 1
-20.485796 69.501915 -28.404013 10 1
-5.932811 70.631897 21.274921 7 1
-17.631495 68.108948 -32.445007 10 1
-0.446252 67.639061 -6.283743 3 1
0.921802 16.609762 -12.521467 1 1
-5.177153 15.400705 5.239038 4 1
-30.226328 68.241531 -18.101681 9 1
-27.416740 76.677025 -24.269432 8 1
-6.972982 67.121437 27.469646 7 1
-16.313200 9.770768 12.943028 4 1
1.832052 33.205441 -1.238674 0 0
14.833540 72.959419 6.477597 6 1
-3.883504 54.689751 -4.790312 2 1
-0.406963 21.222763 0.835551 0 0
-40.488937 77.460060 -43.477844 8 1
-43.202530 68.722267 -11.429309 9 1
2.752949 45.496334 1.045195 0 0
-3.333228 68.593674 30.529242 7 1
-21.386124 16.048813 9.360941 4 1
30.934649 69.289764 -3.655673 6 1
0.127738 28.958916 0.449740 0 0
20.185568 72.960106 -0.809715 6 1
-1.515311 67.463455 -4.118691 3 1
-0.159614 69.973732 28.224230 7 1
25.063688 72.777924 -6.796036 6 1
-34.765400 77.546516 -26.249805 8 1
-22.804813 72.604965 -25.114588 8 1
-5.702530 67.897400 24.901728 7 1
-24.262417 74.134705 -27.276266 8 1
4.971244 71.132431 12.851011 7 1
-16.141895 68.479393 -33.858459 10 1
-32.775429 69.348198 -22.058813 9 1
-1.717881 39.706818 -2.388909 0 0
33.999496 70.723923 0.198208 6 1
22.443298 74.143799 29.322653 5 1
-16.752153 6.787482 17.522648 4 1
-3.229584 11.248845 15.327559 4 1
-1.023503 50.979214 -3.497716 0 0
-1.082109 52.240891 1.555310 0 0
22.792921 72.500969 2.083608 6 1
19.440701 14.518740 -4.901750 1 1
-32.449001 71.155235 -20.363745 9 1
-32.967838 76.661919 -35.519974 8 1
19.462942 75.862701 13.391661 5 1
-0.465761 72.238998 17.580362 7 1
-30.927126 78.379112 -40.061848 8 1
7.122387 14.992081 -0.766851 1 1
-11.326352 9.172611 18.583693 4 1
18.355139 73.693474 21.852436 5 1
-7.952707 13.926357 9.199451 4 1
-36.151981 72.018143 -12.344301 9 1
27.231977 71.850975 -5.210546 6 1
-4.610809 63.088997 -10.483037 2 1
31.295139 69.817719 -1.137779 6 1
-19.545437 15.456799 7.985720 4 1
-14.741002 16.523743 8.035427 4 1
-15.988894 10.978972 16.561281 4 1
30.420734 71.296722 -3.187078 6 1
32.772457 71.082520 -8.830518 6 1
13.806907 18.169746 -8.868623 1 1
1.692721 49.895672 -2.999527 0 0
17.590458 72.695381 -0.798049 6 1
-0.419627 60.550072 -0.125804 11 1
-28.032005 72.024406 -10.056216 9 1
-3.934444 70.258080 24.136837 7 1
22.700956 72.384819 -7.179685 6 1
-10.854889 68.366852 -33.350758 10 1
-26.734270 72.002022 -11.250795 9 1
-22.190062 70.245216 -18.973223 9 1
8.968249 70.598732 14.166301 7 1
-4.142187 64.010330 -7.213957 2 1
-7.942991 69.597122 23.346199 7 1
6.575329 18.540091 -18.342957 1 1
-12.051291 69.642700 -33.044956 10 1
-3.380104 9.523830 17.036623 4 1
29.370804 76.394165 16.090675 5 1
-41.271965 68.839073 -7.582966 9 1
-27.940214 68.918617 -20.526915 9 1
-42.165741 76.095802 -39.695591 8 1
-37.419518 78.750092 -37.719978 8 1
41.037167 69.400864 -9.411273 6 1
5.296391 69.813736 16.097443 7 1
18.664198 73.145699 1.852149 6 1
-17.999226 69.176819 -29.677868 10 1
13.701688 70.228470 7.921994 0 0
21.423714 73.090996 27.080132 5 1
31.912685 70.798050 -11.560202 6 1
29.087816 69.664040 -1.461623 6 1
23.873764 72.696655 25.086258 5 1
-35.769894 78.362679 -36.413513 8 1
3.540201 70.843231 26.905733 7 1
0.374655 18.226738 0.093973 0 0
20.735479 71.187309 5.678408 6 1
-27.588491 72.226158 -28.931816 8 1
1.724518 38.413414 0.550766 0 0
15.316911 74.200722 17.770966 5 1
-31.572214 69.958488 -11.865284 9 1
-5.154663 8.689582 17.702427 4 1
39.296715 69.565826 -10.875711 6 1
-17.265350 6.645337 19.051538 4 1
-6.547958 73.145340 -24.277319 10 1
-9.862645 69.877754 -28.273260 10 1
29.089348 71.622635 -7.138302 6 1
-4.152447 8.680423 21.045010 4 1
11.855967 14.242451 -7.786159 1 1
-38.640789 77.937752 -24.916197 8 1
32.074745 70.544106 0.398327 6 1
26.457865 70.504646 1.952285 6 1
24.101467 73.564957 28.750343 5 1
-2.631436 59.404560 -9.141946 2 1
26.934517 72.427956 -8.775142 6 1
11.907793 15.272942 -17.448496 1 1
-0.189134 52.878746 -1.724981 0 0
2.178509 12.928028 -3.835792 1 1
-4.273370 55.762089 -1.427464 11 1
10.289891 70.814735 11.976246 7 1
-5.707930 71.780823 -28.410872 10 1
15.916772 14.579316 -0.713094 1 1
21.452578 73.063171 -3.227238 6 1
-4.789042 61.138371 -5.552083 3 1
-31.115593 78.538162 -38.455208 8 1
10.159767 19.369171 -15.838077 1 1
-37.266731 68.765373 -20.467693 9 1
18.163866 14.450357 -2.785697 1 1
5.936265 16.214092 -21.531353 1 1
-42.287354 76.164658 -38.033550 8 1
-40.246613 76.513870 -32.335995 8 1
-34.073662 71.188599 -19.172739 9 1
-37.622761 78.756584 -28.110947 8 1
-17.541973 6.617083 21.787178 4 1
16.370829 14.479793 -12.228289 1 1
-24.425722 74.165253 -13.506579 9 1
7.874891 72.438805 23.038883 7 1
2.505218 15.423702 -7.297957 1 1
-2.053377 71.496628 -4.587273 3 1
0.814910 15.140515 -1.956920 0 0
8.295233 15.833850 -2.360203 1 1
-43.581539 79.688118 -32.671516 8 1
36.999706 70.093163 -1.217901 6 1
8.769424 16.406635 -4.996124 1 1
21.416683 73.450516 6.820502 6 1
-19.272200 14.307040 9.662585 4 1
-23.988609 75.051773 -29.526997 8 1
-38.075531 77.029694 -42.370121 8 1
-22.409737 13.135879 14.174724 4 1
-39.056919 77.216873 -27.461050 8 1
-28.226967 72.378693 -26.119984 8 1
-38.932476 79.727127 -37.127930 8 1
35.547764 71.934196 -0.513953 6 1
2.529175 73.676346 10.402230 7 1
7.948281 70.478569 15.323740 7 1
-0.459730 66.209320 -4.260945 3 1
-1.625639 13.614502 0.117738 0 0
-32.265785 73.171577 -10.842015 9 1
-10.508329 7.699932 16.047819 4 1
-25.705996 69.137711 -17.402740 9 1
19.319706 15.247225 -22.645174 1 1
0.996752 70.929390 15.393292 7 1
-4.500866 65.442474 -9.214624 2 1
-35.306934 69.931038 -9.324629 9 1
-28.053875 73.560455 -21.714815 8 1
-21.911547 71.282463 -20.129122 9 1
29.587133 71.901031 4.326704 6 1
1.198329 22.599779 0.294098 0 0
32.916237 72.467110 0.974142 6 1
25.426802 75.181168 17.045677 5 1
6.691761 52.798790 4.212217 0 0
-10.109862 10.961710 8.276125 4 1
25.211296 72.491356 24.209694 5 1
-1.895244 15.401230 -9.476460 1 1
-2.629008 42.623653 -1.560706 0 0
21.484985 16.992968 -10.724803 1 1
-35.125259 79.861626 -43.495178 8 1
-19.691368 68.801979 -25.610926 10 1
-33.431259 77.948677 -29.241743 8 1
-11.414876 73.364578 -25.077728 10 1
-4.780723 71.290001 -33.234062 10 1
-13.702498 68.729767 -29.954285 10 1
1.531399 26.452280 0.014734 0 0
-1.247636 46.435467 -3.079203 0 0
16.786964 73.839722 11.655423 5 1
3.201058 16.118198 -20.484941 1 1
12.003572 16.157560 -23.952345 1 1
-15.361174 70.646187 -24.091194 10 1
14.083737 18.984310 -14.245062 1 1
2.138713 71.839676 12.858177 7 1
-2.684748 12.333547 8.086431 4 1
3.486042 49.181805 2.260211 0 0
23.210567 74.943466 15.940977 5 1
-19.991632 10.388219 19.011581 4 1
-5.853588 12.225337 11.468147 4 1
-10.979533 6.886023 22.399130 4 1
-0.630775 72.143715 13.603797 7 1
-45.074009 78.237946 -34.666260 8 1
-0.263752 0.183000 -0.442985 0 0
8.654832 16.869057 -7.745288 1 1
-4.358424 69.832710 -33.465137 10 1
-12.590977 68.477982 -31.592075 10 1
6.605551 72.794563 17.148998 7 1
18.954264 72.286980 9.731413 6 1
20.608286 72.858627 4.051476 6 1
0.294603 33.728809 0.586166 0 0
41.788055 68.101517 -9.327299 6 1
-18.791111 11.503732 16.755098 4 1
-39.254250 78.638588 -27.117098 8 1
-16.545923 7.899450 15.055397 4 1
-28.757654 72.559372 -27.982756 8 1
-5.813446 8.346619 20.458986 4 1
-10.385242 9.357081 11.463107 4 1
9.525594 17.572380 -23.475363 1 1
-36.833908 76.433067 -25.909140 8 1
-18.462072 71.540314 -23.988665 10 1
-30.442738 76.577843 -24.265760 8 1
-41.768677 80.208244 -32.169495 8 1
28.517937 72.085350 25.658346 5 1
-11.926603 15.181283 9.460614 4 1
-3.660457 51.738117 -1.620622 0 0
-45.686020 78.694801 -37.220219 8 1
26.295473 73.425880 5.090209 6 1
-23.556257 68.970825 -20.605656 9 1
22.057358 16.722895 -15.304642 1 1
-0.398264 55.285007 1.148764 0 0
19.132235 14.639555 -11.207197 1 1
-12.726393 18.630604 3.631774 4 1
27.603235 74.913734 19.488222 5 1
-7.510375 16.432325 4.112470 4 1
-4.918774 13.325103 3.223997 4 1
-42.704475 76.818771 -35.242790 8 1
39.921230 69.657440 -7.903518 6 1
-0.812012 16.464720 -12.835991 1 1
2.081301 73.426636 12.346066 7 1
-33.720894 75.233604 -24.965496 8 1
0.399653 12.063223 -0.040125 0 0
-8.909989 8.355444 19.902830 4 1
35.647690 69.362762 -3.705942 6 1
36.960106 68.183563 -9.889812 6 1
-22.095484 13.963823 11.106579 4 1
-33.759941 68.667229 -19.223871 9 1
15.572300 17.694689 -7.329700 1 1
-5.754821 67.165451 29.761889 7 1
-22.425175 76.232140 -30.500399 8 1
-45.215160 76.646790 -38.757229 8 1
-41.675560 77.462044 -42.053482 8 1
26.445528 72.212997 25.458168 5 1
-9.976695 15.577789 4.231660 4 1
0.658933 15.061625 -11.445395 1 1
2.826962 70.610291 15.102402 7 1
1.436128 53.114063 0.459440 0 0
-1.725242 9.487825 19.496881 4 1
-11.537713 72.209160 -29.093348 10 1
-1.253801 10.667217 1.811962 0 0
-34.528065 74.768044 -33.758560 8 1
-11.937988 6.759751 18.010345 4 1
0.784881 10.801119 -3.881383 0 0
-0.328327 63.770351 -4.866245 3 1
31.793749 70.970131 -7.101744 6 1
-30.586760 76.220520 -36.380653 8 1
21.099915 74.505882 18.001575 5 1
-10.283461 72.139366 -29.827169 10 1
-4.859437 72.474243 -30.886072 10 1
-24.101990 70.285561 -24.105808 9 1
-3.628598 70.762047 17.148079 7 1
-17.954777 14.425980 10.763016 4 1
9.289053 73.255440 16.055653 7 1
2.389364 15.410794 -13.964680 1 1
-36.113129 71.487656 -7.086921 9 1
-38.310513 78.052238 -44.340282 8 1
-0.183644 10.452150 17.740511 4 1
-9.790420 9.218343 18.481133 4 1
9.342628 73.333908 20.603807 7 1
19.747417 74.718025 17.034800 5 1
-19.675220 17.496296 6.952539 4 1
-25.611771 69.148140 -21.973669 9 1
-27.865389 69.788513 -23.115110 9 1
-26.209511 75.675369 -33.204704 8 1
-4.928044 59.857662 -1.736223 3 1
9.456476 14.843448 -13.509322 1 1
5.487958 17.222570 -10.425565 1 1
29.497683 70.147766 -10.157146 6 1
9.250370 14.395212 -8.850699 1 1
16.162024 74.578133 14.933240 5 1
-2.192115 67.906212 22.825443 7 1
-8.091311 69.633080 -30.400078 10 1
-30.980177 78.673195 -28.737568 8 1
7.309764 15.715379 -3.531889 1 1
23.741272 72.266991 0.339156 6 1
-37.990505 78.951576 -29.525372 8 1
-23.310793 73.019562 -16.277784 9 1
18.121416 71.147881 4.708161 6 1
-14.613747 14.749481 10.179317 4 1
-35.552879 69.942680 -21.898232 9 1
-36.347603 78.161247 -23.503063 8 1
-8.724193 6.570174 21.180227 4 1
-1.597916 69.795738 0.236972 11 1
-5.027306 68.861397 29.169931 7 1
-36.716480 67.921959 -12.610347 9 1
-2.096384 72.709908 -31.013660 10 1
1.412852 34.227783 -0.144488 0 0
0.786520 31.327869 -2.530036 0 0
-23.359854 72.190063 -17.837740 9 1
-14.274113 7.701958 20.662506 4 1
19.735302 14.778694 -13.353109 1 1
-12.779737 72.894203 -25.331152 10 1
-5.772305 12.525271 5.475666 4 1
16.988537 73.445030 13.961368 5 1
-4.838603 11.120889 9.874708 4 1
-0.684839 67.532875 -0.094130 11 1
-2.411424 9.148651 -0.814928 0 0
-0.210976 36.358120 0.617099 0 0
1.315218 45.542007 -2.504720 0 0
18.549885 18.385361 -12.815006 1 1
24.283752 74.524323 17.836702 5 1
-7.816827 8.927504 14.144022 4 1
1.655503 44.406895 1.709759 0 0
-16.100197 12.887510 12.749650 4 1
-2.874649 56.669464 0.332132 11 1
5.616715 18.178591 -12.931483 1 1
2.803570 69.600502 17.174383 7 1
7.431041 17.019939 -23.334457 1 1
-2.073192 65.730423 -6.656255 3 1
1.531988 38.777493 -1.730368 0 0
-33.965309 77.592880 -41.247868 8 1
-5.558943 68.747360 -3.861825 3 1
20.267214 15.472997 -19.453495 1 1
-4.969443 67.035454 26.881208 7 1
-16.953487 12.018764 14.851540 4 1
-6.557401 7.388884 21.975025 4 1
-21.002726 13.587581 13.275708 4 1
-9.285865 70.656143 21.577379 7 1
23.525568 73.420044 18.286491 5 1
4.727768 15.916723 -18.018194 1 1
-30.396078 76.628609 -32.069500 8 1
21.166162 14.951119 -15.133300 1 1
-31.072260 79.467865 -30.276033 8 1
-35.797321 78.402588 -30.326826 8 1
17.859604 14.224983 -5.698033 1 1
13.614521 16.469809 -2.492290 1 1
15.845175 72.435806 3.742921 6 1
-16.053890 70.353004 -27.720966 10 1
-4.205009 58.177395 -7.255922 2 1
43.647758 68.441032 -9.671330 6 1
-1.065438 55.526886 -1.294977 11 1
-29.864817 76.252525 -20.727219 8 1
24.282618 72.558502 26.470282 5 1
18.155594 16.036966 -22.642130 1 1
-8.939934 10.657334 15.548839 4 1
-37.414368 68.796982 -10.107181 9 1
-30.948017 76.763023 -22.079121 8 1
-9.905281 15.519455 7.512291 4 1
-42.658215 78.746735 -30.151711 8 1
-14.262283 67.425278 -34.645241 10 1
12.076451 15.542047 -19.754112 1 1
18.216145 73.713219 23.789299 5 1
-4.697316 15.725002 3.463654 4 1
18.346550 72.486610 -2.739743 6 1
-39.882595 70.857468 -8.804177 9 1
-14.539038 6.182252 19.163836 4 1
-38.662254 68.254745 -17.301926 9 1
6.370247 13.929750 -4.382970 1 1
-13.099456 6.945672 16.860306 4 1
-25.874569 75.756752 -25.145437 8 1
-5.712244 65.957336 -3.814159 3 1
-24.019379 75.391037 -31.746210 8 1
19.672340 73.731468 -3.842669 6 1
-43.587063 78.347481 -39.291962 8 1
16.073549 14.698051 0.686408 1 1
20.044012 75.158592 11.728241 5 1
32.330605 69.421448 -2.031503 6 1
-16.111650 11.292759 11.065938 4 1
18.435375 14.415949 -20.352545 1 1
-2.650473 69.929855 -7.680608 3 1
0.872382 9.019183 -2.056565 0 0
10.292419 17.168776 -7.088290 1 1
-31.724991 74.853355 -34.698914 8 1
-2.393587 16.158112 -16.331879 1 1
-21.665787 71.693710 -17.823526 9 1
20.332436 16.704332 -16.628696 1 1
-5.996364 68.925591 22.505367 7 1
-15.201681 69.452652 -26.266850 10 1
-11.431549 10.704214 15.930562 4 1
-1.654980 17.692484 -0.800001 0 0
3.801096 73.710472 11.416836 7 1
-26.924133 71.088310 -22.767410 9 1
14.874625 72.962753 4.987451 6 1
14.236404 15.113015 -17.894695 1 1
12.957997 71.007248 9.705590 0 0
-0.657639 34.831955 -0.071138 0 0
-16.299738 16.570858 6.110020 4 1
-1.871203 71.463150 15.357292 7 1
-4.664421 67.374763 -11.305651 2 1
42.464252 68.892937 -7.419474 6 1
-33.376781 79.744064 -42.809204 8 1
-32.014339 71.173744 -22.334978 9 1
12.730439 17.589081 -24.353098 1 1
35.896149 68.481102 -12.126024 6 1
35.850517 68.507172 -6.971237 6 1
18.907713 71.478592 8.117869 6 1
-27.837925 75.586098 -23.482090 8 1
10.763948 61.753548 6.112788 0 0
13.725531 15.898813 -22.916443 1 1
10.172829 18.898291 -13.015479 1 1
-4.472672 70.811676 -3.973766 3 1
-38.276024 79.320854 -25.390356 8 1
12.663838 18.880701 -17.305021 1 1
9.161429 14.132925 -4.081624 1 1
37.570820 69.240593 -12.902396 6 1
8.768567 19.235561 -15.933839 1 1
-39.956009 67.813339 -15.190739 9 1
4.963920 16.952188 -22.257387 1 1
2.383623 14.524031 -9.175617 1 1
18.502142 74.885132 11.726082 5 1
6.929182 14.171060 -7.877798 1 1
25.473419 74.212906 19.356380 5 1
1.902668 50.379333 -0.278317 0 0
-12.779724 11.239131 9.082234 4 1
-4.538874 68.652496 22.358620 7 1
-7.315394 14.928127 3.418642 4 1
4.928636 15.197979 -5.313768 1 1
19.580324 71.893356 -0.156804 6 1
-42.657646 77.842415 -31.704678 8 1
15.310678 73.105728 2.640703 6 1
28.561811 75.551071 18.688498 5 1
-29.169546 71.892014 -17.050840 9 1
2.001860 13.990204 -6.233315 1 1
-39.139729 70.885498 -12.715302 9 1
12.344583 72.477310 15.929577 7 1
28.056175 71.983833 -9.620719 6 1
-29.529320 70.864510 -11.188358 9 1
35.723549 68.399292 -10.583379 6 1
-22.094019 11.173366 18.248753 4 1
0.134909 69.401375 18.778400 7 1
-29.727030 70.844963 -23.966854 9 1
-41.444214 67.335289 -12.775150 9 1
1.979268 69.196671 27.460251 7 1
8.563475 14.164858 -6.327221 1 1
-37.479393 79.167122 -42.065216 8 1
-2.895600 72.521439 15.404070 7 1
-36.029945 71.782646 -13.751390 9 1
-19.235292 69.919525 -22.859816 10 1
15.686438 17.160265 -23.730665 1 1
17.126417 73.759842 18.909769 5 1
-0.137656 18.506725 -2.185377 0 0
2.343695 15.943074 -16.826178 1 1
11.245799 65.085777 7.820888 0 0
14.567518 14.195366 -4.431111 1 1
-5.627898 62.132481 -3.123283 3 1
27.908859 72.196442 29.616570 5 1
27.772821 71.949272 -6.903223 6 1
-26.228901 70.037750 -15.021912 9 1
-0.950744 20.657740 -1.707965 0 0
-2.371450 10.250153 15.808885 4 1
-4.653610 69.915527 19.336138 7 1
-24.990883 71.870773 -21.041260 9 1
17.158712 18.616787 -12.085028 1 1
-43.686726 68.930908 -8.569907 9 1
-37.231560 75.695869 -37.611713 8 1
-22.823807 71.482735 -24.324129 8 1
17.740852 15.808849 -1.270555 1 1
0.269095 39.975445 -2.528010 0 0
11.311156 73.508163 15.125817 7 1
-12.586528 71.265984 -29.530294 10 1
-0.255780 16.071207 -17.071520 1 1
5.939230 70.536026 21.153429 7 1
-29.735880 80.769791 -40.757484 8 1
-2.317387 69.505264 19.533165 7 1
16.780386 72.964432 6.144083 6 1
-26.407478 68.798523 -20.809923 9 1
-19.119205 7.388454 21.192406 4 1
-2.784144 63.474125 -0.971941 11 1
-1.548628 13.347870 9.495374 4 1
-3.337281 72.998344 -4.856621 3 1
-4.795965 64.630394 -5.738908 3 1
21.830339 15.141674 -19.380907 1 1
28.324018 72.660530 5.218811 6 1
-40.183624 69.428520 -17.915012 9 1
11.807936 72.254639 17.340853 7 1
-1.995574 53.887058 -5.564561 2 1
1.910962 22.023367 -0.807251 0 0
8.454236 18.158220 -11.344976 1 1
18.242237 73.633194 -1.608557 6 1
0.694151 71.608040 21.322178 7 1
18.548075 16.897842 -5.478189 1 1
-3.223729 69.323723 -12.091105 2 1
-2.738528 73.719933 -6.203252 3 1
-2.935277 69.815155 0.650022 11 1
10.563383 17.912622 -9.709203 1 1
22.887497 72.929810 22.801401 5 1
-39.386826 75.777794 -34.919426 8 1
-2.108325 11.418996 -1.583402 0 0
-14.871102 17.673357 3.859514 4 1
-14.099668 9.656930 17.897335 4 1
-0.300949 64.998283 -5.562482 3 1
-23.429888 73.320297 -28.828537 8 1
0.086762 5.782778 -2.016611 0 0
-12.004296 7.648777 15.406365 4 1
35.865231 70.194794 -8.838781 6 1
-14.621325 14.369754 6.483239 4 1
-42.645157 68.717934 -15.890209 9 1
16.848217 71.302071 5.245812 6 1
-45.312035 76.682571 -40.990349 8 1
13.076333 18.501715 -19.756840 1 1
6.792657 55.600220 5.222141 0 0
-5.978884 71.443306 17.933113 7 1
11.251787 14.404368 0.150776 1 1
5.355738 15.529980 -15.652492 1 1
2.050176 16.150017 -9.904903 1 1
-42.508427 79.963051 -34.890732 8 1
-19.214392 7.900483 18.440052 4 1
-15.968393 68.752907 -28.494692 10 1
2.776533 40.099655 0.648534 0 0
-36.556633 75.058838 -33.359241 8 1
17.830275 14.338460 -7.293575 1 1
-1.606437 37.582798 -0.749597 0 0
-8.931720 66.903976 29.618250 7 1
18.169870 73.439125 11.890057 5 1
1.037920 69.955193 17.244297 7 1
1.410437 17.802181 -0.717902 0 0
37.033821 70.885483 -3.198417 6 1
-45.335175 77.634422 -35.877068 8 1
-4.274754 71.607735 -28.345596 10 1
-12.665903 72.353035 -27.036608 10 1
-4.574286 13.244905 9.291740 4 1
-0.662393 68.575493 27.028051 7 1
15.401585 14.248202 -9.788732 1 1
-31.230492 68.277191 -15.818682 9 1
2.170766 71.307678 24.383209 7 1
27.054781 72.070862 0.411245 6 1
-1.146355 15.894480 -10.660718 1 1
5.411747 54.479923 4.292944 0 0
-26.010059 74.315300 -23.495516 8 1
-21.370951 9.645818 18.653872 4 1
-1.328491 47.339233 -0.221371 0 0
15.233904 16.080780 -0.704913 1 1
18.800356 74.943451 22.303066 5 1
-1.615019 32.853260 -1.219589 0 0
-16.068764 69.444801 -30.065960 10 1
-0.151490 16.923559 -14.537306 1 1
1.264878 41.456615 -1.655409 0 0
11.428569 18.886276 -19.910614 1 1
-31.410164 69.887627 -23.552755 9 1
12.090811 14.348467 -9.743422 1 1
