-13.391203 149.306020 13.673490 0 0
60.943218 95.120972 -19.377228 4 1
37.884811 249.132250 144.564390 16 1
-12.203959 39.862995 -22.400398 3 1
49.055790 275.127410 38.874828 32 1
-30.228931 256.224610 47.656639 10 1
94.743233 186.766510 87.265221 7 1
-25.182858 251.912870 77.503990 10 1
-49.199234 244.913270 54.197289 10 1
-79.412247 168.482820 48.538471 29 1
67.258186 256.708310 44.464783 32 1
19.212147 260.027770 58.733078 0 0
22.708368 240.381620 51.522560 0 0
25.686163 217.074630 -81.227135 22 1
4.370716 115.123630 0.931579 0 0
71.843376 204.145450 -63.752651 22 1
5.435879 230.163940 -122.260410 8 1
63.747189 217.851610 -39.974422 22 1
41.135963 280.632570 107.858830 16 1
34.816856 115.846200 15.734676 23 1
86.231224 246.175370 51.590946 32 1
-50.847881 223.331120 -67.233452 26 1
-68.280540 168.599580 -100.677990 26 1
-28.140234 33.874680 19.128157 18 1
101.508640 192.435960 74.191246 7 1
19.381159 242.087020 3.148289 0 0
-32.214828 177.933730 66.533653 21 1
-23.367735 175.391680 -5.003444 1 1
-27.053852 43.208424 28.407978 18 1
-32.651371 176.375050 19.156404 28 1
-2.683950 222.647370 -61.874313 22 1
67.744225 182.408050 55.588196 2 1
-23.803669 255.032840 -5.239193 14 1
42.974716 279.245850 1.940160 31 1
-50.054008 180.621410 32.276527 29 1
72.312019 173.023710 23.651480 2 1
-43.961952 257.535030 -1.696930 14 1
-14.315606 163.281560 -45.799564 15 1
25.601280 80.581947 -45.279572 4 1
-55.616489 168.078780 -0.226228 17 1
-46.281044 249.834560 -26.117321 0 0
33.265278 270.248570 115.857240 16 1
47.145321 279.813320 -48.429878 9 1
-21.797823 108.157550 3.765847 0 0
-0.441803 175.028820 1.754034 0 0
-44.478039 199.588330 -95.786850 26 1
-104.270150 159.910460 5.279333 20 1
16.246208 129.735500 10.420309 0 0
-8.950306 160.775670 -91.094482 24 1
55.984760 211.621460 -58.666687 22 1
-50.599724 152.400010 85.035027 29 1
-3.536113 222.212140 -138.355410 8 1
27.727112 92.780571 -40.788330 4 1
-89.056625 169.715100 12.680858 20 1
-15.011903 40.063572 30.933195 18 1
5.834905 173.856720 -8.863707 1 1
68.031227 271.089510 75.678322 32 1
-22.726473 264.051880 21.302866 14 1
-30.444447 180.028520 33.105888 28 1
-33.173725 156.514980 -37.922543 15 1
30.868805 141.522280 116.886600 12 1
2.453434 268.575960 66.358322 10 1
-52.459785 238.620710 -52.497051 25 1
52.131351 273.332460 124.303280 16 1
80.348778 198.648070 96.094055 7 1
35.496845 179.388470 98.150856 12 1
37.437920 220.403990 -61.990307 22 1
-49.021408 209.191600 -84.622726 26 1
-35.856899 249.872270 79.017090 10 1
-54.780186 179.672490 -101.224870 26 1
102.684490 236.992950 56.831123 32 1
-36.168816 124.346930 8.458641 0 0
-13.767844 262.133670 65.448288 10 1
10.829423 213.242490 -145.698010 8 1
-18.157465 163.218630 -35.327377 15 1
8.748961 60.927628 6.064908 0 0
41.248402 267.127010 58.553944 32 1
-70.288139 185.344100 -89.871880 26 1
82.617828 191.534970 69.441429 7 1
-0.003464 33.031925 -26.132322 3 1
37.207119 272.794740 76.514618 16 1
24.066523 194.481030 -161.729140 8 1
1.834909 40.577141 4.161517 0 0
27.151157 174.463150 92.019745 12 1
94.136841 247.371230 69.967300 32 1
51.209335 100.271160 -20.151524 4 1
71.259468 180.530350 34.113277 2 1
-21.425859 164.828950 25.023550 0 0
16.613691 208.112960 31.696173 0 0
-31.627415 173.400590 86.166969 21 1
45.890217 262.410190 46.669731 32 1
-1.377334 230.503660 -110.245110 8 1
-55.127045 236.109890 61.172585 10 1
-27.089817 258.181090 -28.835665 25 1
40.363819 81.455429 -4.138038 0 0
25.831549 134.940310 26.677284 0 0
-11.959295 37.881042 12.932642 18 1
-20.504152 268.026210 37.630436 10 1
-63.767143 266.966520 -21.518154 27 1
92.582527 241.258770 59.718193 32 1
42.555695 98.662056 -34.271282 4 1
-5.208033 192.706480 34.192162 19 1
20.218552 95.688576 3.659565 0 0
61.922981 189.417500 47.017082 2 1
56.219341 277.462950 7.817979 30 1
51.110867 226.063920 -44.600075 22 1
0.406729 146.049380 -0.519199 0 0
32.798370 176.952940 -165.756680 8 1
46.956341 257.711400 136.634510 16 1
24.406916 118.103420 58.425869 33 1
76.787552 106.948200 7.071454 5 1
91.158264 149.802870 20.205042 2 1
-6.399947 37.200256 -13.408512 3 1
58.052807 266.547300 -15.827637 0 0
2.635009 271.792790 85.013573 10 1
-8.803653 42.640923 22.050396 18 1
1.726367 165.500000 -89.433411 24 1
16.869921 260.057740 7.276958 0 0
21.009109 254.245090 146.169530 16 1
38.276302 285.150540 89.574715 16 1
34.125290 264.822390 45.054478 32 1
24.994638 279.187470 81.809036 16 1
94.518570 100.047390 9.699134 5 1
-50.700794 213.551970 -60.850246 26 1
10.398664 161.876950 -47.793613 13 1
82.985893 256.609190 53.066971 32 1
-31.236954 181.760190 53.252232 21 1
16.959583 285.276790 86.632439 16 1
31.255228 225.859740 -124.179290 8 1
53.976646 90.332634 -12.175632 0 0
91.191666 120.135090 12.314765 2 1
45.621025 283.932250 -6.980416 31 1
-40.905479 220.912950 -73.151405 26 1
20.946026 261.269350 -3.719542 0 0
-50.722717 234.836910 71.717575 10 1
-36.262321 268.308870 20.971638 14 1
72.670807 196.269130 65.798058 7 1
-8.058784 184.552150 -17.675497 1 1
10.917856 219.575330 -67.219193 22 1
14.748693 224.996350 -132.597340 8 1
-5.306190 226.807130 -128.799150 8 1
27.187361 265.197270 135.149860 16 1
15.016011 197.618360 8.236529 0 0
80.748360 181.408230 46.160870 2 1
82.291023 166.480530 24.438299 2 1
52.634941 270.161160 47.694790 32 1
21.185091 167.356460 97.351547 12 1
89.371750 244.775530 41.874107 32 1
-75.676903 160.428670 0.624467 17 1
96.580894 79.889603 -50.595638 11 1
14.216555 101.549890 10.125336 0 0
71.098991 279.617680 -20.611881 9 1
-11.804466 163.077210 -4.486846 1 1
3.454775 143.326840 9.807839 0 0
62.491425 253.899020 56.025211 32 1
-26.071819 255.788300 68.079353 10 1
-2.629118 45.837738 -7.454893 3 1
-22.238695 230.542070 -15.306714 0 0
-5.578331 27.763773 -1.975549 0 0
-6.821441 133.382800 1.512075 0 0
15.064761 171.398480 9.161442 0 0
38.974037 132.507290 31.837025 6 1
-30.725994 247.632680 -16.899944 0 0
2.970733 149.230470 -16.916052 0 0
12.371616 112.633740 6.658797 0 0
22.488071 223.614430 43.111313 0 0
37.403553 106.346510 -27.854193 4 1
22.073980 269.846500 13.902208 31 1
88.111214 166.635040 32.943333 2 1
4.348008 178.172290 11.143183 0 0
-81.386658 157.864300 -7.287147 17 1
23.745323 73.842087 0.974768 0 0
51.994061 210.153380 -67.926323 22 1
22.567450 212.042510 -146.604690 8 1
-52.225887 173.228380 63.257683 29 1
78.444168 254.876010 35.370415 32 1
24.357632 273.917630 -5.213767 31 1
36.885937 275.953430 20.741182 30 1
5.593389 262.752530 56.502071 10 1
-63.685951 152.846240 -25.634001 17 1
31.915258 273.367190 66.830536 32 1
-17.198469 167.523770 -66.533165 24 1
-5.454485 121.951770 -3.915584 0 0
16.007824 272.450230 76.132431 10 1
76.783920 259.573550 45.247169 32 1
-23.496788 187.824550 51.300652 21 1
99.589783 236.748930 37.455448 32 1
86.104431 187.540470 -37.723698 22 1
43.117306 79.424576 -44.502121 4 1
80.782784 193.117520 -44.347240 22 1
8.991260 36.142452 -10.502148 3 1
-13.636124 172.893980 -4.961960 1 1
51.712784 269.736210 67.954933 32 1
43.661602 267.311100 124.261410 16 1
-5.916283 179.856630 -8.791287 1 1
-27.769966 261.070250 11.953691 14 1
12.261114 169.719880 19.045263 0 0
8.352698 221.553970 -140.103490 8 1
-39.835102 259.878540 12.765813 14 1
67.547722 264.132900 56.000610 32 1
62.666382 279.817570 -3.575668 30 1
1.002828 174.086030 -46.109169 13 1
32.225449 277.420040 88.669739 16 1
5.786500 102.477820 2.357992 0 0
-6.359615 137.347630 -14.900018 0 0
43.933365 285.879000 77.483238 16 1
-4.648952 72.531059 7.380440 0 0
37.219574 281.320040 70.509964 32 1
6.873453 157.586330 11.041240 0 0
-62.488560 200.584110 -85.614609 26 1
1.304024 43.670082 24.090143 18 1
67.686333 209.143220 -43.297394 22 1
13.702072 265.486480 51.631889 10 1
-7.395705 164.305340 -36.331638 0 0
92.393288 102.597190 -32.006409 11 1
92.137665 87.577141 -45.931763 11 1
-2.866013 149.389390 -25.498175 0 0
-40.054665 248.509610 67.284073 10 1
-74.163155 171.969920 11.217601 20 1
-73.568489 274.026820 -21.810226 27 1
97.348198 162.051590 29.883194 2 1
32.059299 109.784820 5.449637 23 1
45.338993 244.031650 150.597950 16 1
32.975456 158.391430 110.459250 12 1
71.900154 259.413760 64.355255 32 1
-57.434383 247.299790 -43.375648 25 1
-47.646969 173.955890 45.706379 29 1
-59.098305 173.780560 49.734894 29 1
49.248363 277.126430 73.691734 32 1
61.356941 269.927310 38.743561 32 1
38.539894 192.423400 74.781242 12 1
14.061638 214.063290 3.235857 0 0
-21.470280 180.604130 36.781967 19 1
64.480568 183.438110 73.555901 12 1
79.433205 96.165085 14.496565 5 1
7.455508 72.425552 6.651764 0 0
0.251529 205.700130 -53.592373 0 0
55.915466 88.601868 -42.056686 4 1
47.105938 266.812500 29.643368 30 1
-36.026917 172.071040 27.351439 28 1
15.257442 230.613140 5.347777 0 0
37.305504 168.970780 108.577130 12 1
23.764975 221.467540 -131.713270 8 1
92.382912 86.983963 21.458363 5 1
-51.860584 193.534470 -96.132454 26 1
33.131847 269.973270 53.035084 32 1
-2.710667 227.457520 -81.186378 8 1
-19.574041 157.473650 -82.586174 24 1
-6.603465 261.819180 48.292130 10 1
12.574596 141.532930 -1.338668 0 0
-64.159248 161.596650 -6.926931 17 1
-68.928612 154.321040 30.741276 29 1
53.311008 256.215910 63.209324 32 1
3.982403 87.259903 8.867327 0 0
-97.740913 164.312880 14.410416 20 1
17.057907 200.541760 -159.121570 8 1
38.082649 181.741330 83.821571 12 1
69.174065 250.323350 67.469810 32 1
-77.782951 136.906660 -27.790222 17 1
34.280323 76.234192 -47.432194 4 1
30.015030 224.222150 -68.023056 22 1
11.429296 165.380580 2.706145 0 0
86.348618 249.941680 33.682156 32 1
37.647614 281.157200 11.301274 30 1
29.115553 216.922910 3.691132 0 0
56.577515 279.961210 -30.024282 9 1
47.370640 96.857674 -10.420823 0 0
36.469276 91.922775 -37.315998 4 1
12.517961 226.213350 -92.164833 8 1
18.068651 130.200870 114.511570 12 1
65.803352 102.157090 -7.993297 5 1
12.547481 188.548190 6.967847 0 0
-56.280994 153.896420 25.280647 29 1
46.648621 104.457760 -28.085804 4 1
9.515531 278.848660 122.239950 16 1
13.824934 226.478640 -119.676240 8 1
-89.082649 166.610920 3.041045 20 1
-29.990208 251.932570 -46.710693 25 1
60.322193 248.471560 69.997971 32 1
-47.564671 164.292390 24.841787 28 1
56.019989 260.613340 44.916557 32 1
84.405022 101.544590 -2.363265 5 1
-10.365500 262.980770 80.773865 10 1
-59.388561 159.788730 74.829674 29 1
27.373100 217.229710 -140.061230 8 1
25.345383 123.019590 27.643373 0 0
19.650887 266.975830 129.646470 16 1
-9.095041 215.423290 -78.815262 26 1
76.357468 261.186860 28.540659 32 1
51.489841 270.942810 12.564119 30 1
49.858360 126.424880 37.679466 6 1
7.701130 258.385530 6.762358 0 0
0.228420 165.758090 -0.566171 0 0
-0.368579 130.739790 9.262893 0 0
67.056282 190.228240 61.193855 2 1
27.421919 278.259670 99.794235 16 1
-12.687724 159.971100 8.024736 0 0
-36.460415 255.180920 -16.866930 0 0
38.398678 258.764920 140.712890 16 1
6.608495 286.512020 101.285730 16 1
75.587975 175.701110 40.771660 2 1
-58.508190 161.531560 6.856458 0 0
103.998340 230.347030 64.175728 32 1
-7.164963 27.760515 -28.760925 3 1
-12.225918 101.637760 1.333800 0 0
21.492306 123.376430 43.006313 33 1
58.343273 263.433320 59.323200 32 1
-2.798611 169.415340 -70.608055 24 1
-7.682967 170.951030 -46.362011 15 1
52.135658 111.109970 -16.819729 4 1
-62.514515 167.360400 25.382967 29 1
77.489830 105.308350 -21.798599 11 1
-11.074408 91.707748 7.662834 0 0
5.170042 228.565190 -103.832210 8 1
47.404186 251.255690 -10.338827 0 0
53.113018 187.939770 74.767677 12 1
2.472536 11.982491 1.388740 0 0
15.702862 280.171720 111.463550 16 1
-45.013885 173.622470 28.476889 28 1
13.835151 235.977400 -2.678760 0 0
88.652641 108.256740 -24.627909 11 1
22.807127 271.614870 65.873016 10 1
52.007980 220.686610 -56.012737 22 1
38.686718 240.705640 -2.713435 0 0
-70.007179 134.870270 -42.547409 17 1
15.203833 227.464480 -80.100731 8 1
67.581932 190.527950 83.021698 12 1
-30.622002 43.084667 36.778820 18 1
100.887110 92.822800 -37.909939 11 1
24.973860 152.784360 -56.438789 13 1
34.921257 235.635760 -38.114441 22 1
27.860958 229.980710 -107.160190 8 1
69.470100 270.793150 14.778029 30 1
-9.101534 188.561770 43.720287 19 1
-122.348570 148.991900 6.349739 20 1
12.869536 268.354460 5.330565 0 0
-4.653638 49.635185 7.427234 0 0
-13.417703 224.057510 -62.545441 26 1
-31.385542 251.407940 -33.655182 25 1
38.279209 274.304050 40.100449 32 1
18.717522 207.097780 7.568484 0 0
59.254772 192.375090 66.100204 12 1
16.064281 222.633680 9.575146 0 0
-24.360348 162.617230 -52.186344 15 1
-6.236101 117.707730 4.192755 0 0
16.671154 97.178627 -4.594279 0 0
-52.640404 227.364530 -59.335751 25 1
64.436150 282.289030 -39.384117 9 1
96.650673 89.828438 13.974781 5 1
45.423504 180.976270 99.838402 12 1
-31.162104 258.264920 -0.733234 14 1
-54.532181 138.820590 10.599308 0 0
41.573441 218.943920 -70.134201 22 1
82.377579 136.075160 14.233882 2 1
27.083759 270.580290 -21.193939 31 1
28.549664 266.066250 -5.721163 31 1
77.411201 194.134340 88.477272 7 1
7.788206 127.172480 9.155401 0 0
-79.305260 269.466090 -15.461845 27 1
-4.330163 232.778400 -95.614716 8 1
-50.603916 263.462950 -18.760515 27 1
6.586520 211.491550 -153.313030 8 1
30.875368 189.590420 82.075165 12 1
89.011475 93.245201 6.662133 5 1
38.709206 230.354020 -52.015865 22 1
-62.559189 170.176210 40.209743 29 1
76.461006 204.006990 -34.622074 22 1
-50.066097 174.602460 19.075949 28 1
-9.381800 169.843600 -62.929779 24 1
-74.662552 153.006070 -16.151527 17 1
-41.214527 246.278240 58.740513 10 1
23.172239 141.797850 112.503580 12 1
59.005760 276.866210 -60.950901 9 1
7.839823 154.423360 -3.132213 0 0
-64.951385 162.955510 63.925957 29 1
-4.041263 155.708190 -17.434017 0 0
-25.251553 263.722750 46.099148 10 1
-53.640408 239.587480 -61.205399 25 1
-38.406536 182.032680 58.657867 21 1
-89.409782 176.547100 18.537014 20 1
44.889336 197.451570 62.842854 12 1
73.550453 277.069150 3.470317 30 1
0.897833 33.890408 -17.141531 3 1
-5.479197 212.644490 -89.025574 26 1
34.797153 274.424960 107.830580 16 1
63.375736 272.099640 23.273533 30 1
-32.712753 158.636580 -47.500854 15 1
-46.698597 240.791600 81.159935 10 1
-0.742672 157.262360 -38.989491 0 0
45.822620 283.555480 93.729233 16 1
-41.965099 256.490230 -29.832664 25 1
-43.885544 271.808470 34.996033 14 1
28.942390 280.072200 19.389540 31 1
-5.496919 36.859764 1.049719 0 0
-20.714861 35.737400 13.676629 18 1
53.925037 267.865080 21.441727 30 1
95.026627 190.463640 68.657616 7 1
26.477045 257.138090 53.660706 0 0
37.480717 280.083740 -5.433934 31 1
101.344410 98.561607 3.834280 5 1
20.902664 221.279100 -74.198769 22 1
-56.895859 228.738010 77.001678 10 1
57.109943 281.678340 -20.957287 9 1
5.588299 27.973757 -40.538792 3 1
-38.698929 257.072200 45.693676 10 1
64.753769 210.528320 -60.078987 22 1
-45.682129 163.084380 16.343441 28 1
-71.480164 161.648790 9.148674 17 1
18.243078 109.551510 21.044506 0 0
0.197290 138.167010 3.251979 0 0
-68.571869 116.652270 -51.091183 17 1
-8.893433 165.013700 -76.531357 24 1
28.574942 274.322720 4.473960 31 1
98.728584 186.147260 79.638680 7 1
-7.288993 261.268070 -5.362997 0 0
68.879234 191.213360 71.732559 7 1
-39.251251 150.418780 -38.099918 15 1
-43.119881 252.686490 -9.038725 14 1
-113.573570 156.419450 14.746740 20 1
-46.603539 245.551130 -49.060478 25 1
-12.972271 125.806290 -5.532299 0 0
-20.762312 257.052490 83.112854 10 1
78.047668 199.396930 79.969627 7 1
6.563738 230.508700 1.118308 0 0
67.819702 281.554080 -11.319690 30 1
-16.041689 257.689450 57.707378 10 1
-58.016888 213.739560 -74.195953 26 1
5.288692 193.682500 37.526512 19 1
69.560730 281.891300 -65.823975 9 1
3.341400 79.437508 3.983406 0 0
10.251476 270.567930 69.229561 10 1
-0.054129 144.779050 -9.056249 0 0
-0.674944 88.327629 1.801199 0 0
63.678436 213.399730 -50.584824 22 1
2.294503 63.636292 1.205010 0 0
-74.778358 169.649600 -95.271187 26 1
77.919922 103.069480 -11.440285 5 1
-38.124390 267.690000 40.035480 14 1
25.006161 271.475040 117.942030 16 1
67.220230 108.622150 -21.566492 11 1
15.713880 30.365681 -22.378010 3 1
-132.400130 141.566540 18.388033 20 1
-13.716104 191.601300 29.597649 19 1
-64.591843 269.229800 -12.864445 27 1
51.053055 276.619660 19.541973 30 1
73.309639 102.788490 -34.594563 11 1
-21.832428 209.270890 -92.138153 26 1
-25.027245 167.047270 -5.477490 1 1
73.877304 200.691880 -55.167866 22 1
18.757862 163.514820 -47.242065 13 1
38.569950 214.681110 -79.046196 22 1
-36.612907 181.852780 43.110180 21 1
-76.893120 168.471950 2.937886 20 1
-25.567913 252.488140 59.860157 10 1
-3.555782 103.963520 4.708068 0 0
-58.292248 170.751160 32.954086 29 1
-31.563690 202.917790 -98.328758 26 1
-34.154118 249.448580 87.260948 10 1
38.422394 143.605470 -57.328259 13 1
26.580557 229.746250 -91.248993 8 1
-65.448692 142.598570 -39.171463 17 1
-67.771706 145.586150 -29.591906 17 1
-0.264560 202.875290 -3.712037 0 0
68.477081 107.783460 0.660713 5 1
0.998814 216.520510 -67.509041 22 1
-80.168846 148.828640 -21.912910 17 1
-1.366246 2.912176 -4.487508 0 0
86.936508 190.176540 88.139694 7 1
-24.988678 158.313930 -35.949970 15 1
-57.518429 153.311770 8.218099 0 0
-3.547477 163.262450 -21.087725 0 0
6.112621 193.804670 5.851660 0 0
33.818909 267.123320 -16.820396 31 1
1.282107 57.164005 6.631343 0 0
-17.315006 266.602600 46.456684 10 1
14.597939 281.759310 93.858131 16 1
-120.318920 150.865680 14.254106 20 1
9.822650 287.139890 82.707581 16 1
24.085321 205.667180 -151.787490 8 1
64.976692 282.171910 -50.143394 9 1
24.676331 233.419080 -50.434105 22 1
5.206604 44.254929 -2.523541 3 1
-104.231380 168.153750 20.541582 20 1
16.160400 254.778580 -1.623296 0 0
-46.976894 255.377150 -40.568562 25 1
0.479532 166.215670 -52.193855 13 1
15.552948 37.755749 -15.926533 3 1
15.648817 19.289625 -31.988714 3 1
62.428753 105.175960 -15.215766 4 1
-56.908588 206.301100 -83.298836 26 1
49.468960 229.790130 -36.283859 22 1
4.039647 114.865300 9.349157 0 0
-97.872742 163.533420 1.402893 20 1
48.421379 186.880250 94.644287 12 1
78.138954 159.329380 14.005315 2 1
30.791561 194.552830 71.958351 12 1
-71.453598 169.439450 39.420036 29 1
-17.336323 232.410190 -57.197327 26 1
-2.633014 265.929530 41.725254 10 1
1.054024 31.362076 1.767936 0 0
-35.365349 175.244190 73.709045 21 1
-113.521740 162.279240 20.915651 20 1
94.222183 247.087680 53.519115 32 1
-35.660408 275.815830 26.785906 14 1
87.142044 177.785890 -42.982765 22 1
62.352203 261.779020 39.575939 32 1
-6.298139 149.573990 2.745974 0 0
58.846260 92.917908 -35.068863 4 1
-14.791697 146.357380 4.533326 0 0
48.297413 267.606870 54.344009 32 1
79.758331 91.137497 -53.681778 11 1
-51.823334 167.680020 73.589615 29 1
-6.179606 17.741053 -0.382910 0 0
35.777763 265.188870 124.994320 16 1
-35.132622 245.760860 -54.553253 25 1
-55.795425 168.174700 20.264605 29 1
22.914267 274.120090 -15.095622 31 1
2.675591 173.228880 -75.696220 24 1
58.588226 274.719850 -16.912428 0 0
19.960255 188.312090 -165.155170 8 1
15.879767 124.915070 17.070461 0 0
-55.769440 247.972350 -52.319839 25 1
-35.802353 166.038450 96.015373 21 1
-50.512234 177.318100 53.495369 29 1
-126.071630 149.588930 20.185669 20 1
-75.001007 164.943410 16.807446 29 1
48.662441 280.091000 -31.920183 9 1
83.406418 152.104490 22.901621 2 1
17.440161 249.146300 7.385864 0 0
-70.434204 169.151320 25.024040 29 1
105.849030 88.035141 16.470827 5 1
1.489578 192.971800 -44.656918 0 0
30.671850 278.090880 74.054581 16 1
40.967663 284.708340 100.264610 16 1
5.724806 268.017490 42.675201 10 1
35.409794 66.392349 -48.547485 4 1
-4.281991 161.338780 -84.528847 24 1
11.751678 193.333760 32.675842 19 1
88.141724 101.064800 4.860107 5 1
25.357592 179.569180 85.781830 12 1
57.783154 100.547060 -25.794601 4 1
-10.019625 165.775310 -52.478851 15 1
24.309147 260.743870 3.631444 0 0
8.849543 108.997830 -2.205545 0 0
-78.319405 121.262130 -43.935658 17 1
-43.621983 226.017870 -64.942299 25 1
-58.067513 155.528960 -32.254997 17 1
92.354027 97.786407 -8.034584 5 1
76.194267 195.525630 73.178955 7 1
-17.393568 183.676120 42.984543 19 1
-56.330013 162.292430 26.124811 29 1
13.564164 169.764650 96.675064 12 1
-43.935074 204.580750 -89.543457 26 1
59.806160 272.651460 64.597694 32 1
-110.944990 156.584580 0.163868 20 1
1.715288 150.408390 6.455210 0 0
26.392616 175.217100 -170.189620 8 1
-41.641449 265.086360 26.061310 14 1
83.992355 193.518570 77.694527 7 1
72.280800 111.177280 13.508454 5 1
10.302411 120.828590 49.875515 33 1
32.295162 260.202450 130.764570 16 1
-3.601690 90.065849 9.872017 0 0
-23.471375 36.872524 24.840569 18 1
6.171587 219.110600 -78.039040 26 1
-5.043099 266.518400 54.520935 10 1
38.821388 172.882890 101.287160 12 1
-5.782012 40.011383 8.408500 0 0
-15.317562 187.504840 -16.352938 1 1
41.042999 133.780870 -62.426411 13 1
51.190575 280.655060 -41.259422 9 1
-3.383463 267.096410 81.364502 10 1
61.866058 274.069180 -68.849457 9 1
26.058022 228.948960 -119.046150 8 1
35.365784 245.110890 151.438430 16 1
68.417534 249.040830 53.555153 32 1
108.094530 86.553398 -39.670162 11 1
-4.843382 3.675179 3.413251 0 0
-3.055722 195.019880 26.511555 19 1
26.814600 246.982620 49.201984 0 0
-0.898616 216.733720 -75.188118 22 1
55.709873 220.072020 -41.608887 22 1
-42.595242 248.643690 -56.353783 25 1
67.740425 273.775090 -3.932530 30 1
17.149857 146.897320 112.813540 12 1
-67.845039 201.513630 -79.658844 26 1
-45.886715 240.902020 -60.501900 25 1
60.377853 179.210190 57.944672 0 0
31.302160 128.093720 26.258711 23 1
9.324237 67.222130 1.018871 0 0
59.567814 189.001310 83.691132 12 1
-13.279659 157.203950 15.428156 0 0
45.231270 186.237960 86.533821 12 1
25.602806 224.574280 -59.540009 22 1
-26.005352 110.184910 10.119262 0 0
8.624896 97.858688 14.273830 0 0
44.076839 170.032460 112.671250 12 1
48.929157 275.543030 5.539047 30 1
-59.632977 164.975130 14.131703 29 1
84.304863 251.569140 64.662689 32 1
52.527767 196.571840 61.088707 12 1
15.908727 227.028350 -62.139385 22 1
11.556149 156.864180 3.344609 0 0
10.313720 181.001970 6.561512 0 0
48.675938 93.388741 -17.340431 0 0
51.127258 179.507350 105.027500 12 1
-1.192749 230.468930 -88.715881 8 1
27.458567 237.689740 -40.283623 22 1
62.136177 284.412200 -65.807640 9 1
9.858317 128.912490 0.975776 0 0
13.379053 159.901280 -55.430599 13 1
20.733591 119.641490 13.920305 23 1
4.706938 231.802950 -55.945679 22 1
-6.462404 265.243590 65.986588 10 1
-126.979740 142.582990 5.587132 20 1
-73.031609 168.394320 53.041420 29 1
33.868675 142.472380 39.610699 0 0
-46.468876 216.950150 -68.240318 26 1
63.110584 277.102480 -33.355694 9 1
76.155403 101.820980 -45.575272 11 1
19.400377 193.525910 38.169056 0 0
-7.764875 159.987630 1.425884 0 0
40.895393 120.658230 16.563980 23 1
78.508743 252.355680 47.630154 32 1
19.369745 267.599700 56.545666 10 1
-56.793434 165.403850 -7.602916 17 1
58.379814 189.841030 95.778473 12 1
18.030222 149.235750 -58.287514 13 1
-49.008305 179.645070 40.263340 29 1
-20.608547 35.946415 5.365793 18 1
3.515421 181.284680 -8.922897 1 1
-6.767762 150.123290 -108.215560 24 1
46.715382 192.328800 74.250816 12 1
32.111816 152.984730 -52.034470 13 1
41.804863 155.568970 40.995895 0 0
-3.217628 214.629970 -56.386456 0 0
75.350525 191.155780 60.596378 2 1
-26.395954 40.687401 15.569656 18 1
34.963287 272.119930 33.432835 32 1
70.422363 262.264680 49.041161 32 1
0.719898 180.830220 -40.087887 0 0
31.564775 194.423510 -159.492830 8 1
3.663732 227.400670 -115.230430 8 1
27.903034 271.404210 47.517937 32 1
87.642914 197.017960 67.318634 7 1
65.346710 183.173000 38.336582 2 1
62.726120 276.725100 -44.516521 9 1
-10.855637 261.053310 73.039108 10 1
-10.962370 44.825027 -16.539700 3 1
-72.020920 270.382480 -28.802233 27 1
-38.088688 253.314590 0.947594 14 1
-28.765999 224.676030 -69.192696 26 1
-11.060492 153.982910 -94.040665 24 1
4.772744 220.767260 -62.230736 22 1
-58.704041 145.841380 -40.949646 17 1
-55.674797 185.579150 -96.398705 26 1
48.431389 280.943180 -66.546997 9 1
31.413153 253.126220 145.746670 16 1
86.011421 187.831340 55.282711 2 1
23.018412 278.322480 74.436966 16 1
-4.783068 156.541630 -103.981890 24 1
-29.943487 265.183720 23.978056 14 1
-3.957602 44.814453 1.475540 0 0
29.241379 143.574830 -62.045155 13 1
-33.330997 243.099640 75.941833 10 1
-24.796574 185.497300 31.727131 19 1
-76.130234 133.114700 -38.305241 17 1
44.710701 91.345825 -5.833469 0 0
31.490778 123.985390 40.175236 6 1
-75.103989 168.720000 31.104786 29 1
6.634821 199.724730 -2.267935 0 0
41.731339 273.864810 14.984146 30 1
-6.616340 270.293430 35.544708 10 1
-47.167633 242.146300 72.990982 10 1
-80.736206 267.240880 -23.957373 27 1
-70.805443 121.392220 -45.510883 17 1
48.588039 74.750916 -47.712570 4 1
35.532700 178.945910 90.455772 12 1
-1.646993 170.357470 -62.730717 24 1
11.301927 228.564380 -126.826550 8 1
100.645550 231.149200 52.134567 32 1
62.965973 275.336330 10.647228 30 1
-42.473492 250.328990 -44.361347 25 1
-55.226593 166.578540 60.150398 29 1
42.063370 281.964940 83.699303 16 1
55.855103 272.878600 34.446781 32 1
34.976006 281.450200 1.875516 31 1
-41.428211 254.520460 -22.544212 0 0
85.523315 97.526863 -34.530724 11 1
26.967852 181.775120 -164.935910 8 1
43.871571 223.614180 -59.328392 22 1
4.775368 190.172160 -2.131130 0 0
93.198570 178.825640 44.915058 2 1
-18.259264 256.506900 69.984901 10 1
1.986506 100.528820 8.733945 0 0
1.457239 269.669130 74.124649 10 1
-44.572834 250.037350 -33.665157 25 1
59.697937 273.294800 -1.272896 30 1
-37.261749 170.240950 82.319778 21 1
96.665985 241.940810 42.036884 32 1
69.930756 267.695130 30.533112 32 1
-64.801582 262.282960 -15.697691 27 1
48.058815 160.317600 51.468632 0 0
-42.263737 192.923080 -99.085655 26 1
11.737992 228.891800 -55.395241 22 1
20.541805 154.890910 107.875930 12 1
-30.372652 258.023190 -8.590888 14 1
51.780396 279.039000 119.325480 16 1
0.555780 169.190610 6.330365 0 0
1.921974 39.187859 -11.904500 3 1
4.048103 161.492890 -26.480143 0 0
4.004923 170.567140 -32.673664 0 0
-65.260017 131.969330 -48.185074 17 1
70.561218 264.258090 70.115578 32 1
31.471939 206.937560 -150.326290 8 1
-16.877918 222.002760 -72.364105 26 1
-29.016628 207.133350 -92.702087 26 1
24.826309 260.356290 141.947830 16 1
-6.054270 157.428820 -10.358099 0 0
-41.228775 258.646940 5.551167 14 1
48.314579 85.044060 -44.931908 4 1
17.742012 172.214680 -42.658901 13 1
9.214226 119.917530 11.153018 0 0
2.268669 109.105350 4.775686 0 0
54.482216 266.102020 28.994141 32 1
75.632851 100.977820 1.916824 5 1
47.697289 276.650210 26.236584 30 1
79.664017 257.584590 70.225693 32 1
64.110748 101.877250 -21.858751 4 1
-15.048878 217.920970 -9.758876 0 0
11.093418 39.616875 -4.284026 3 1
-35.168854 255.820950 53.381855 10 1
-62.145061 151.682400 29.260530 29 1
-3.080968 230.137740 -62.913048 26 1
-36.289680 116.972040 7.656245 0 0
62.363945 251.137450 62.908787 32 1
-19.047249 213.328900 -84.624748 26 1
-34.934532 268.597050 28.315184 14 1
7.615205 169.305280 -2.915664 0 0
46.338097 272.029940 60.792465 32 1
-31.440399 215.063870 -81.029778 26 1
14.021881 215.576580 10.513657 0 0
10.649703 163.074580 14.306118 0 0
-60.337234 236.100750 -52.515472 25 1
9.419921 272.009740 81.952003 10 1
-58.337345 261.555660 -19.740067 27 1
43.591564 290.442380 -3.997079 30 1
-17.178223 159.777300 -51.655769 15 1
51.409500 108.479610 -23.698490 4 1
-1.159856 176.955920 -59.163803 24 1
64.850998 189.010470 53.799480 2 1
-1.467933 231.586010 -102.639090 8 1
20.206903 277.506620 104.523730 16 1
38.547291 188.664220 81.319321 12 1
33.749039 231.579120 3.729069 0 0
89.324448 252.689760 53.103008 32 1
8.767749 264.425750 65.441002 10 1
-59.990314 161.252990 -12.991377 17 1
15.440635 194.712570 25.023289 0 0
53.955475 124.650310 30.330488 6 1
57.985855 277.256870 -8.749950 30 1
9.033934 84.145355 4.510384 0 0
-60.188671 160.564870 -0.289129 17 1
-81.797447 170.158630 13.804313 20 1
-69.981110 175.353260 -93.275017 26 1
30.893538 164.534730 106.247510 12 1
-7.323169 225.595110 -66.842377 26 1
33.780739 269.302920 -9.749817 31 1
-48.525024 169.634110 13.749544 28 1
46.376965 262.523960 131.106280 16 1
50.553993 255.990190 -5.688965 0 0
-87.073875 163.176540 9.622749 20 1
-74.733360 143.911590 -27.976473 17 1
15.968833 230.115280 -107.934460 8 1
-61.986942 262.144710 -27.196384 27 1
78.540474 104.801070 -29.870749 11 1
103.416310 104.668900 -27.483860 11 1
11.588032 153.641280 -52.070721 13 1
-62.206005 226.530620 -57.987309 25 1
-20.417713 259.447910 63.636616 10 1
17.101999 232.638140 -49.154148 22 1
19.568802 268.416930 -4.490355 31 1
104.502160 79.887321 -45.973152 11 1
-31.311535 252.608490 73.572319 10 1
-48.677719 233.306810 -55.997910 25 1
18.134306 273.289980 126.289570 16 1
57.612133 267.824520 53.273415 32 1
109.187260 99.181557 -33.496281 11 1
74.159485 182.285960 50.785397 2 1
62.033440 269.158420 70.607971 32 1
5.280894 167.173050 -45.020287 13 1
-68.862717 158.339750 -1.865112 17 1
-32.039707 178.073790 26.262274 28 1
-33.498238 210.857190 -86.691910 26 1
42.861122 127.623950 36.034496 6 1
-16.961687 162.922410 19.588306 0 0
37.339981 85.201515 -9.691253 0 0
0.412851 266.875760 59.569283 10 1
42.849461 253.008070 140.897600 16 1
19.957546 228.047100 -94.072426 8 1
24.677517 129.339490 21.935005 0 0
-14.453765 162.045490 -72.357796 24 1
71.806938 196.385480 83.844635 7 1
7.165312 139.393540 -5.705478 0 0
-59.456940 155.906770 19.065264 29 1
-34.259811 254.886950 14.385688 14 1
30.211731 263.423680 54.184364 0 0
71.353722 106.548120 -9.606041 5 1
9.861517 174.035000 13.733468 0 0
88.708710 132.086720 15.400781 2 1
26.372490 184.238600 80.184761 12 1
23.981224 124.432400 36.286312 33 1
35.516235 268.127200 63.154774 32 1
12.281466 244.116500 6.673017 0 0
-52.707451 145.394870 8.186799 0 0
-63.055031 165.431400 34.630577 29 1
31.972126 134.277020 30.435904 0 0
16.165640 268.832730 136.396700 16 1
52.232891 172.112690 54.481812 0 0
-12.502301 171.224090 -56.524174 24 1
29.571457 277.469570 -20.889505 31 1
22.578749 264.035550 63.901554 0 0
4.129821 237.125500 -0.409254 0 0
-19.696354 228.619540 -62.851799 26 1
86.057114 96.927094 -42.188717 11 1
-4.641624 24.521379 4.821883 0 0
36.708096 224.209550 -55.535507 22 1
67.149338 106.898570 -33.396725 11 1
-31.839460 183.241320 61.641476 21 1
2.416361 95.321709 3.179786 0 0
-10.356107 130.457030 7.126732 0 0
-60.628677 175.284390 -101.272110 26 1
75.792603 166.978940 21.399509 2 1
-54.595406 155.941640 80.219406 29 1
-14.560331 43.549999 37.205208 18 1
13.308477 182.457960 25.305365 0 0
20.123388 132.130550 30.195112 0 0
30.741381 228.499240 -50.758636 22 1
84.467636 249.512500 57.789974 32 1
62.753902 183.939070 31.693346 2 1
102.577130 186.694240 69.948891 7 1
75.949104 261.062470 58.216679 32 1
21.926161 240.641190 44.409225 0 0
32.456604 149.636840 38.840977 0 0
37.302406 229.494720 -44.883545 22 1
80.826157 101.802420 9.963983 5 1
-41.663086 245.715520 79.323364 10 1
-47.291107 259.578000 13.798205 14 1
-30.437605 38.636440 24.091511 18 1
59.568748 256.925020 49.893028 32 1
19.884743 220.926770 36.908276 0 0
41.302998 127.381940 27.443495 6 1
1.435673 120.330230 5.377558 0 0
-12.576514 261.695620 44.373196 10 1
95.784279 96.243195 -33.864189 11 1
-119.564780 148.812410 -0.467339 20 1
65.412849 276.733920 -17.425354 0 0
8.444410 50.447205 -5.123725 3 1
-69.689682 269.571660 -17.833992 27 1
67.664986 264.987400 43.063770 32 1
-65.156219 164.917710 9.164133 17 1
44.900875 228.462570 -47.117626 22 1
10.228807 227.954560 -98.671799 8 1
54.076321 284.820160 -64.558258 9 1
46.156742 259.719390 53.271706 32 1
-1.067314 227.303630 -122.617020 8 1
27.896023 220.731020 -75.330025 22 1
42.004414 137.597810 -56.088814 13 1
86.898048 95.296555 0.200594 5 1
34.865517 272.324070 46.491066 32 1
95.539467 138.605790 17.585730 2 1
94.948853 195.056140 74.844887 7 1
2.058570 160.982120 -5.662403 0 0
8.041176 269.176030 49.473789 10 1
-13.186729 156.421360 -87.231491 24 1
20.934835 281.054110 98.425209 16 1
47.404366 97.405632 -28.265158 4 1
-20.366390 164.025910 -42.015224 15 1
-63.576366 193.681520 -86.958473 26 1
48.444859 282.738530 107.246040 16 1
25.956688 137.627580 33.357395 0 0
13.039590 94.585938 9.317854 0 0
56.495422 275.896880 14.714422 30 1
-58.069363 243.168170 -56.966148 25 1
10.420660 111.377300 13.333885 0 0
-16.778599 105.126270 7.840431 0 0
-80.229156 127.167560 -38.794815 17 1
84.022751 189.968690 -51.660141 22 1
-35.103626 169.926070 20.692169 28 1
77.171265 198.437640 -48.681530 22 1
13.443808 24.960306 -28.432957 3 1
7.802574 119.739480 -10.310252 0 0
-23.054171 218.734510 -73.234459 26 1
50.248169 131.362370 42.910488 6 1
37.540592 98.621948 -29.103529 4 1
-23.869215 256.830960 50.609753 10 1
-50.977646 220.655840 -60.727669 26 1
89.929779 250.055240 46.489941 32 1
-132.957140 138.029770 12.194024 20 1
58.549690 125.930920 42.770042 6 1
38.550167 266.141970 50.618431 32 1
33.076881 262.274960 137.758330 16 1
70.132523 251.097750 60.048309 32 1
-0.831922 57.558609 -0.396029 0 0
-33.335838 250.566270 -40.694332 25 1
-49.047359 134.444290 10.581409 0 0
38.255096 270.725280 120.767150 16 1
75.515907 272.810910 17.922752 30 1
-9.061806 143.943770 -0.397927 0 0
78.256332 99.524704 -5.066666 5 1
3.684162 27.096672 -33.495914 3 1
49.800613 220.592730 -49.110107 22 1
12.447040 261.842070 58.656765 10 1
45.383842 213.390210 -68.237846 22 1
-53.987774 212.050380 -79.851913 26 1
97.547882 236.492610 61.539043 32 1
-46.434078 173.468830 35.447281 28 1
33.961624 81.005478 -1.336677 0 0
66.470680 280.526670 -26.403419 9 1
-17.465336 40.565247 9.599720 18 1
-20.143427 263.518920 52.034706 10 1
24.170389 230.639400 -100.919470 8 1
24.552866 120.674140 51.758339 33 1
-68.061913 152.996610 -20.119270 17 1
-34.549248 220.881360 -70.152100 26 1
69.882027 274.837590 8.953489 30 1
81.947014 176.291140 37.608704 2 1
23.766821 221.426800 6.473431 0 0
17.133429 264.452610 1.427813 0 0
16.883272 247.928360 0.316218 0 0
-30.062737 270.789760 37.768112 14 1
-5.706394 210.718800 -4.832241 0 0
-23.445002 249.528730 66.511124 10 1
-17.966413 184.118670 31.064932 19 1
16.193544 122.303000 9.381576 0 0
-39.079243 259.350830 21.912310 14 1
-19.994463 42.796371 26.944065 18 1
92.905846 193.667740 88.743126 7 1
31.652729 277.009610 81.737305 16 1
-35.685951 154.021560 -51.868958 15 1
-49.153240 229.832570 76.256889 10 1
-0.753582 175.469860 -6.993567 1 1
-37.486248 199.841920 -95.662621 26 1
-30.013344 227.620300 -62.172733 26 1
1.937748 218.358150 -140.141460 8 1
97.039505 244.059660 64.618080 32 1
23.239599 200.085110 -155.882260 8 1
46.838028 278.861940 112.757580 16 1
-28.750536 251.933120 -22.001596 0 0
-2.938360 149.073880 -32.416401 0 0
90.279053 245.997220 64.212791 32 1
-55.915192 164.320330 34.317219 29 1
9.536431 283.200560 107.091870 16 1
-17.468449 167.111050 -5.419956 1 1
-3.888082 67.737610 2.280217 0 0
-12.956389 267.453950 35.292877 10 1
-27.403429 257.257750 5.176481 14 1
51.964752 92.394844 -35.525875 4 1
10.238702 198.636700 -160.758870 8 1
1.815696 5.083361 2.193730 0 0
-7.937592 170.836400 -1.540392 0 0
-17.667889 170.005690 -34.149082 15 1
0.488248 249.941880 -1.220836 0 0
-49.665447 240.300140 59.334053 10 1
29.090574 85.961708 -42.070740 4 1
-14.542447 38.602116 24.206524 18 1
2.776395 162.785250 8.489214 0 0
-2.304941 150.677110 -12.718801 0 0
-16.005381 207.442790 -95.333031 26 1
-25.548353 258.472530 18.433590 14 1
14.144530 221.554030 -72.959862 22 1
70.439468 171.703000 17.072762 2 1
-11.989063 120.026570 -1.921813 0 0
40.119976 271.602230 25.147455 30 1
4.967924 179.241150 0.615122 0 0
37.762531 275.349060 114.051940 16 1
-15.368007 161.709090 -79.192871 24 1
-109.378100 157.619540 9.253464 20 1
20.134016 162.002810 102.058590 12 1
2.896897 228.620090 -128.445070 8 1
68.066513 94.433846 -34.896301 4 1
-44.329124 175.271800 71.091820 21 1
10.436693 199.452360 3.473994 0 0
22.062363 276.428250 113.905480 16 1
74.973099 188.441890 73.203407 2 1
54.821964 271.946690 41.449421 32 1
35.982635 184.844180 93.959473 12 1
42.334259 277.514680 73.020576 32 1
98.393471 235.674040 44.257435 32 1
11.378998 86.727020 10.468094 0 0
26.394110 273.774480 17.852566 31 1
-49.814030 249.240070 -42.040344 25 1
11.278087 98.816513 0.392900 0 0
21.715664 264.477080 9.396174 0 0
5.516137 133.872010 -1.291232 0 0
28.274788 117.675920 14.930609 23 1
10.920432 148.008350 -2.794960 0 0
-11.192655 162.549640 -84.712509 24 1
-67.781395 148.312810 27.146654 29 1
-68.695168 263.766050 -25.058813 27 1
0.313684 152.878660 -0.626848 0 0
26.777590 269.130580 8.936930 31 1
-45.551907 213.624980 -80.526894 26 1
47.660015 263.749850 40.214539 32 1
83.431908 193.313280 93.159050 7 1
-52.858231 160.944840 73.219193 29 1
24.883495 167.330280 103.116400 12 1
-57.818413 158.718110 -19.025322 17 1
-37.867104 251.083500 -31.556343 25 1
-24.707230 215.963710 -80.421234 26 1
-26.801891 174.390500 31.701008 0 0
57.469593 270.869450 9.004564 30 1
13.220199 121.101460 56.174862 33 1
-70.993347 129.038650 -45.965683 17 1
37.588150 131.273710 38.397717 6 1
42.064381 193.652600 69.091202 12 1
-88.236298 164.314090 -4.677257 20 1
-9.685088 259.896420 56.706081 10 1
85.674286 145.385210 17.713682 2 1
41.481586 85.710396 -41.363728 4 1
-5.622483 126.698900 1.312551 0 0
-71.488380 163.239430 66.748680 29 1
29.228409 268.679600 0.766880 31 1
-62.273827 157.896240 26.165861 29 1
31.712116 214.543260 -79.422852 22 1
15.275513 123.668270 40.233620 33 1
67.712776 177.082630 20.773262 2 1
50.971905 187.626740 81.449379 12 1
32.746281 139.777680 -57.358601 13 1
40.766361 115.534650 12.142002 23 1
25.177820 153.850330 -49.757378 13 1
40.927387 266.766480 44.314697 32 1
-66.675255 157.957050 -12.414873 17 1
79.974548 96.154938 -45.855228 11 1
-3.122576 14.300110 4.569588 0 0
9.432702 255.724410 -0.948566 0 0
-42.064201 167.888370 26.420206 28 1
-2.962837 77.124390 2.718856 0 0
92.307617 126.787030 12.679427 2 1
44.026066 277.036900 20.580860 30 1
-2.240435 160.133000 -91.487175 24 1
13.766500 219.102020 -136.211360 8 1
73.857185 176.420780 29.439203 2 1
90.130264 90.064507 -51.926773 11 1
32.468910 121.080180 19.392696 23 1
98.271294 241.833300 54.700890 32 1
96.850014 102.187020 -26.944952 11 1
-4.710278 34.095997 -20.937788 3 1
-14.584998 162.039320 1.908848 0 0
90.832283 172.154300 36.353588 2 1
99.908363 194.070340 65.760178 7 1
-64.967262 156.275710 76.275414 29 1
-8.236034 165.075470 -43.139793 15 1
59.708492 188.062030 71.374573 12 1
55.476124 264.047940 -10.144891 0 0
-64.457596 184.598590 -93.128136 26 1
-33.135029 261.566100 44.807129 10 1
-6.564884 157.661620 -97.442734 24 1
-40.189629 129.979890 8.237036 0 0
-36.732300 216.152250 -75.381126 26 1
8.855807 142.581050 5.704814 0 0
36.556034 146.450870 -51.546120 13 1
22.098963 135.521960 115.174690 12 1
9.982651 187.034790 0.922447 0 0
-67.330406 160.553180 15.619434 0 0
16.422785 223.688660 -126.239200 8 1
21.645334 211.050450 35.094772 0 0
-29.198063 250.777480 82.950623 10 1
0.797315 47.157398 -13.060598 3 1
-33.380634 174.014530 33.330978 28 1
-56.372673 172.780960 56.475674 29 1
50.998394 279.637210 -8.132557 30 1
-83.116280 168.266920 5.931342 20 1
-40.211449 209.386920 -86.769737 26 1
74.496742 151.914430 20.296225 2 1
-31.302118 251.985460 -11.587868 14 1
21.997406 261.051790 135.839740 16 1
39.978428 212.425310 -72.921631 22 1
56.869244 101.042580 -16.695738 4 1
-10.880815 175.760380 -10.563725 1 1
85.867592 97.472145 10.762777 5 1
32.271957 115.050230 9.547744 23 1
33.959091 279.731320 103.708310 16 1
-4.144097 221.194760 -71.443474 26 1
-9.321217 43.322968 28.660629 18 1
-55.122803 176.541490 34.300617 29 1
-93.430847 165.936540 9.256649 20 1
67.663254 183.858490 63.930809 2 1
73.102921 257.919160 39.953125 32 1
64.823799 262.301420 63.459286 32 1
6.237923 30.965176 -25.144032 3 1
59.119766 281.410830 -55.995159 9 1
16.467104 213.351000 -149.221420 8 1
70.145233 106.719780 7.061830 5 1
-13.873208 165.928970 -39.618900 15 1
52.141552 279.640470 -52.800068 9 1
6.250461 218.269450 -145.686420 8 1
71.846825 187.619540 55.400784 2 1
-36.061615 244.307210 82.603836 10 1
30.700655 147.844510 113.331120 12 1
-1.517732 14.376995 -3.666806 0 0
-7.166715 89.627068 2.740992 0 0
16.790844 271.567230 68.634056 10 1
41.419067 151.917710 46.503628 0 0
57.586445 212.853620 -65.638718 22 1
-32.390213 173.912090 79.468040 21 1
-77.785866 275.728730 -16.948650 27 1
67.240273 216.405150 -34.549030 22 1
44.145748 275.017610 43.301540 32 1
35.715347 157.235460 -45.676697 13 1
-37.736607 257.892240 -3.931559 14 1
58.007107 216.896100 -55.238087 22 1
44.438450 241.824910 -5.767877 0 0
17.789307 280.178010 82.489029 16 1
-15.680667 191.316500 23.067589 19 1
-55.978939 194.159590 -90.746536 26 1
22.700207 104.683940 22.693321 0 0
6.954437 121.648050 1.502391 0 0
-36.512787 180.086470 36.050327 28 1
57.487530 274.275420 21.024862 30 1
96.254585 91.587463 -42.710487 11 1
-23.384584 257.939180 73.916000 10 1
-55.837696 236.164950 67.720284 10 1
3.459646 170.803070 -82.186043 24 1
32.614475 173.820620 96.151215 12 1
30.159685 275.492100 -7.965157 31 1
41.679829 103.088950 -24.003849 4 1
14.023044 166.596270 -43.879509 13 1
-99.956703 161.364960 -4.671929 20 1
45.588539 84.182556 -7.055620 0 0
6.165177 217.802400 -71.598244 22 1
49.749149 267.462710 126.707450 16 1
88.944092 192.269070 82.187401 7 1
33.267185 225.870940 0.531062 0 0
86.024902 255.792980 58.846268 32 1
34.870384 268.690700 39.818523 32 1
-84.258568 137.131710 -28.745396 17 1
-63.474728 169.359760 51.939091 29 1
54.904972 274.442600 -65.444099 9 1
-101.991330 160.275710 11.498164 20 1
17.073414 270.418180 48.957230 10 1
-11.535548 98.205475 7.034697 0 0
-16.975584 263.809570 81.687721 10 1
15.564420 237.146100 5.320205 0 0
52.129169 274.818240 63.867599 32 1
-61.779091 170.194470 18.590137 29 1
9.196447 264.413540 9.139660 0 0
-40.105671 245.758650 -49.661839 25 1
-62.573200 162.927720 70.076202 29 1
-11.805946 265.319120 86.962555 10 1
24.582796 275.230590 11.200353 31 1
-28.662640 254.049960 54.052914 10 1
-32.387165 40.259666 31.110275 18 1
81.868767 191.415440 84.226387 7 1
93.348984 155.543090 22.657232 2 1
-2.413199 22.288952 -3.559384 0 0
17.470730 94.750450 17.677006 0 0
10.080434 178.806520 -8.127656 1 1
86.788666 199.295460 94.712364 7 1
31.479458 182.141300 83.642632 12 1
-1.764354 62.575012 8.826211 0 0
-30.127443 274.712370 32.161251 14 1
-53.553951 233.082240 -62.313389 25 1
-33.195522 252.226880 67.160072 10 1
50.657452 275.968260 32.043503 30 1
-33.333870 169.450880 91.047745 21 1
62.342789 268.489560 60.193298 32 1
42.248611 277.472110 8.257439 30 1
-51.709991 172.345540 29.263290 29 1
48.769382 289.136140 92.199829 16 1
-53.780201 218.884410 -71.560371 26 1
-10.511187 214.527040 -85.395172 26 1
53.437767 165.845750 55.861290 0 0
71.268288 206.224790 -38.698551 22 1
-25.176817 260.419100 40.393539 10 1
25.751133 230.172740 -55.933083 22 1
42.492161 288.132230 85.622910 16 1
6.468317 225.746980 -89.908974 8 1
-1.298385 264.402400 69.793724 10 1
31.530363 281.148900 13.560534 31 1
28.486425 275.912930 93.863411 16 1
21.475414 26.767824 -20.498327 3 1
46.780750 278.045410 -3.331852 30 1
80.180397 197.558140 68.445396 7 1
67.756454 278.999760 0.880048 30 1
-51.177971 178.208710 26.400181 29 1
-13.490258 168.293370 0.769504 0 0
-5.604262 164.369280 -3.269095 0 0
-5.059365 -1.089493 -1.037830 0 0
58.082783 193.414640 50.306351 2 1
55.329948 277.033450 -44.827492 9 1
82.310707 109.103610 -23.867241 11 1
42.968830 285.421300 0.107372 30 1
-11.063416 138.412490 2.226454 0 0
24.452757 161.855610 -44.489204 13 1
60.156319 271.845520 29.390717 30 1
-7.804658 46.955296 -11.112959 3 1
35.833820 221.538420 -68.612167 22 1
-31.151855 179.857730 39.600487 21 1
-53.303825 171.729460 47.842266 29 1
0.901071 46.744656 5.726336 0 0
6.744552 224.382680 -125.065320 8 1
-56.417412 242.491010 -49.021500 25 1
73.241814 203.985080 -49.245773 22 1
12.541932 228.469150 -85.857025 8 1
5.362525 265.450840 71.221748 10 1
97.683563 149.861970 20.295876 2 1
79.117638 198.291470 -40.443398 22 1
77.910255 170.836880 26.167868 2 1
18.467243 155.896060 -57.081516 13 1
12.705100 174.849760 22.868761 0 0
-39.242622 247.541790 73.672058 10 1
15.540462 128.122940 3.842451 0 0
-9.175306 164.918930 -58.827923 24 1
58.138226 95.041214 -13.530579 0 0
-9.884358 184.799330 -11.535333 1 1
81.716843 102.760920 3.545143 5 1
66.487808 263.185360 34.501835 32 1
60.879448 214.656600 -44.958435 22 1
5.684466 167.673600 -26.881765 0 0
6.826101 166.051760 -51.134563 13 1
41.244431 269.039520 30.950090 32 1
72.233902 255.742140 48.379639 32 1
85.326111 172.621570 32.519619 2 1
31.552685 266.517850 130.005460 16 1
-5.285424 199.637070 -0.704901 0 0
-60.529774 166.823300 3.880373 17 1
-6.929568 231.842380 -113.124580 8 1
-9.809884 40.093136 34.678452 18 1
91.788857 248.136080 36.999355 32 1
100.793240 237.353740 50.496563 32 1
15.808883 263.136900 63.933842 10 1
-44.857906 253.076570 2.789549 14 1
95.022736 85.920647 -52.011642 11 1
20.235525 34.792969 -10.745378 3 1
23.026064 126.290340 115.471060 12 1
32.658482 241.149630 155.920290 16 1
-76.603409 170.575420 43.199219 29 1
-7.585884 190.771930 28.027153 19 1
-7.458255 41.650337 15.793171 18 1
-71.937721 167.637760 7.004081 20 1
64.964783 113.082780 1.094837 5 1
91.251976 188.044980 92.576103 7 1
23.357834 234.941860 48.274994 0 0
71.522377 104.332260 -23.788639 11 1
-22.168655 166.400850 -31.457359 15 1
-0.649419 100.346630 0.357664 0 0
-8.583712 220.687560 -60.162418 22 1
94.772873 245.115360 47.503216 32 1
57.580296 278.542180 1.624493 30 1
12.589471 203.934330 -156.151900 8 1
67.526398 187.925290 76.988480 12 1
-48.395908 250.495960 -53.053375 25 1
18.067373 71.774399 -1.442464 0 0
31.905062 223.216930 -60.693295 22 1
90.628593 252.056550 66.869858 32 1
76.415009 262.609740 67.451981 32 1
7.811561 215.056720 -61.882236 22 1
21.198189 173.205000 94.902519 12 1
1.770778 169.600710 -5.357948 1 1
7.000142 91.619080 12.330624 0 0
-28.865587 241.862500 -18.722511 0 0
18.261171 202.833280 34.799934 0 0
-69.960861 165.012570 -95.745758 26 1
5.483850 207.852750 -56.416908 0 0
8.718894 158.968950 -61.077568 13 1
20.571695 225.573000 -118.686730 8 1
1.415206 70.642998 7.135236 0 0
88.898811 191.131410 70.035294 7 1
20.079937 272.149720 -9.559593 31 1
13.090771 165.279740 8.914943 0 0
61.273861 220.867890 -35.009739 22 1
11.731494 280.152340 116.369410 16 1
19.270788 180.028840 88.147415 12 1
53.836048 216.784160 -61.704185 22 1
63.963215 99.062515 -15.380033 4 1
68.421562 204.370040 -58.431511 22 1
-33.361294 256.057400 -29.456474 25 1
38.283371 157.597370 113.759890 12 1
-5.895528 152.960530 -5.917980 0 0
-15.084457 260.352810 50.058540 10 1
56.033398 267.742860 63.513096 32 1
13.611564 106.457310 6.053635 0 0
13.600246 266.641330 73.684830 10 1
97.141434 187.279800 73.666214 7 1
-0.526807 41.530861 -3.297455 0 0
-49.637482 166.874470 19.410522 28 1
19.889008 216.281770 -78.773628 22 1
32.156128 96.714798 -38.472645 4 1
-38.389637 176.078200 68.273697 21 1
15.066388 158.823030 106.757050 12 1
-6.279080 40.915039 -20.182240 3 1
-15.535937 151.989690 -97.959595 24 1
-46.357742 236.525830 75.895363 10 1
0.022877 225.506710 -133.735570 8 1
8.457388 268.485440 55.727226 10 1
-0.747865 36.016365 7.607697 0 0
-78.912636 156.211270 -12.834397 17 1
38.319050 286.201260 74.707024 16 1
28.104929 75.645508 -48.345558 4 1
72.925018 108.307390 -18.719967 11 1
-63.984058 158.940460 5.243754 17 1
81.647102 190.850710 58.618526 2 1
-4.321831 55.015324 4.147399 0 0
-27.876978 174.648990 -9.292918 1 1
10.063043 174.696760 7.337445 0 0
50.123207 180.781780 95.703857 12 1
64.641151 188.759720 67.587051 12 1
-33.295315 32.744457 22.669546 18 1
35.808208 253.010790 140.122890 16 1
-54.842346 233.342010 -54.972282 25 1
84.937424 162.918640 29.049248 2 1
5.542171 202.294570 -53.556087 0 0
11.917142 42.005516 -10.102004 3 1
66.856522 184.969790 49.480629 2 1
-33.901691 153.697390 -43.445107 15 1
3.517945 149.808330 -10.647923 0 0
24.111307 263.614350 55.808754 0 0
-38.832081 251.785580 57.045956 10 1
-10.485346 191.328250 -17.306072 1 1
51.171658 255.383350 140.593730 16 1
79.841080 141.792570 14.921062 2 1
42.428001 93.816956 -38.494816 4 1
30.667660 275.243800 112.425220 16 1
-29.249620 160.267430 -40.979095 15 1
-70.371735 164.366670 20.939526 29 1
46.768097 218.134400 -58.203041 22 1
30.178204 179.706890 93.537773 12 1
91.239052 163.716340 28.219454 2 1
-74.937691 265.120450 -27.051428 27 1
-12.137732 147.784870 -106.124690 24 1
40.749615 258.595700 134.957050 16 1
