44.692104 399.359650 -64.088776 40 1
11.521428 271.660340 -104.616890 31 1
-1.417331 276.225740 -89.716339 31 1
-28.274673 194.262650 141.468060 44 1
71.052948 139.804240 59.323318 14 1
63.019958 148.117570 -4.642935 2 1
-63.145206 178.901600 -64.101959 19 1
48.654480 401.478030 118.547010 23 1
-7.507874 138.042070 21.207771 0 0
-81.971367 320.886840 124.629590 36 1
21.892141 146.098020 -94.729546 4 1
-80.227585 457.963350 89.497902 25 1
-89.310379 310.564240 132.190830 36 1
17.441679 141.016540 -61.446602 0 0
-13.456675 379.455230 85.586060 0 0
-29.495075 259.978490 -162.649730 33 1
30.360878 258.788390 -115.506490 31 1
51.123051 142.122700 47.417507 14 1
-97.387070 296.507290 134.475770 36 1
-16.896938 261.012080 -95.950027 8 1
-50.714302 373.869380 10.796797 0 0
-0.192298 120.030360 -4.574425 0 0
-29.042362 163.994170 -149.117430 41 1
5.063778 210.127260 133.207050 44 1
2.242334 144.531160 38.807205 12 1
-36.243267 138.823900 23.810846 45 1
-20.753130 128.377490 -20.230774 0 0
-19.040094 136.010510 43.150246 0 0
-109.306690 440.290220 101.037900 25 1
-62.012943 168.703980 -86.143082 19 1
-6.332658 376.154720 4.710885 0 0
-34.961838 446.536320 2.954837 26 1
-18.810255 25.250364 -22.219301 0 0
-11.937469 259.691410 -84.787445 8 1
-8.368135 147.608540 47.909954 12 1
21.785700 142.666170 -34.299740 1 1
-7.839769 111.550380 -6.666897 0 0
-62.687626 254.827910 -107.761790 21 1
-13.778887 226.353300 7.279263 0 0
-16.387045 328.837860 50.530499 20 1
5.330200 399.186520 125.713730 23 1
-77.918892 408.842960 99.010124 38 1
116.581700 164.306690 15.972718 18 1
-171.197160 411.381320 18.729567 29 1
-4.089113 193.597790 148.642060 44 1
-18.333797 207.050800 120.919300 44 1
-84.566078 320.648220 22.198154 22 1
-80.758636 165.695300 -75.375725 19 1
58.823002 207.295760 53.006004 30 1
-45.546146 352.434140 12.635880 0 0
6.207629 409.202300 83.777000 23 1
-18.284288 156.748120 -111.276500 6 1
47.221832 186.670320 -26.255781 1 1
30.274761 143.937560 -94.898552 4 1
-26.258842 365.854710 -102.925650 34 1
60.423580 407.404110 -54.608627 40 1
-29.474354 432.425200 7.639355 26 1
-27.878010 440.763520 -9.448731 26 1
-67.988220 400.636930 16.328390 0 0
-60.991756 183.920550 186.212280 42 1
3.047671 14.670181 1.513995 0 0
1.049615 402.583950 110.437810 23 1
-60.090729 383.746580 -112.971260 28 1
14.796479 120.197070 -40.725960 0 0
17.955805 197.811460 31.605566 0 0
34.268719 270.959410 -100.945180 31 1
79.142769 169.419720 28.392429 18 1
-55.415058 42.074944 -17.252838 0 0
-17.233540 362.874240 1.184139 0 0
-117.704090 436.062620 -10.298172 27 1
13.160862 70.932915 7.010696 0 0
-64.051437 158.917710 -99.476341 19 1
50.566559 131.790150 14.715686 0 0
-1.180931 356.994840 67.544960 0 0
27.923603 408.346280 -10.736329 0 0
38.266918 116.493340 -133.988880 4 1
-46.321720 168.704320 -126.294820 41 1
-45.463142 388.603180 183.088290 37 1
-38.422775 140.252880 60.202473 13 1
-21.437279 249.307280 -51.536987 8 1
-95.842178 443.354890 6.111106 27 1
36.638309 400.778870 108.706790 23 1
-17.173679 403.634190 -4.714817 0 0
-57.134907 198.400300 96.796394 43 1
-59.877449 315.467830 126.540000 36 1
-17.313498 394.085080 93.114830 0 0
-94.414948 409.889980 84.793739 38 1
-41.654427 30.277699 26.043991 50 1
-155.675020 421.608090 64.463150 29 1
-23.543449 327.119930 4.400157 0 0
-68.624367 192.461200 107.704020 43 1
20.664755 376.367160 -90.611671 34 1
-181.686660 411.375610 18.765017 29 1
-10.212761 380.081630 -59.077190 34 1
58.821316 180.175060 -67.893158 9 1
-175.404590 400.292660 39.185764 29 1
-46.183418 306.781680 55.483425 0 0
-59.873920 164.951400 29.697645 48 1
37.024010 186.024870 -69.449890 9 1
-91.032387 180.654190 110.074740 43 1
-46.239628 376.918490 -77.147339 0 0
-68.548653 173.403260 188.942260 42 1
-87.424416 156.530440 18.606438 35 1
-95.507675 161.670170 -77.765778 19 1
-25.675968 239.653230 -45.348778 7 1
-73.383888 250.629330 -102.579460 21 1
-59.657337 407.731350 98.503723 38 1
-37.279224 181.452940 -16.885874 49 1
-23.917839 198.027010 129.737120 44 1
-15.587504 247.722550 -77.952759 8 1
-1.179470 263.256560 -111.784470 31 1
-21.558577 373.166810 -82.090157 34 1
15.851469 173.499910 -103.766140 6 1
93.709572 196.809590 -38.678894 17 1
-32.814308 170.214070 -139.554820 41 1
-41.042458 351.071530 4.988911 0 0
26.069773 403.255800 85.904808 23 1
-1.003437 73.682243 5.725935 0 0
-16.991844 135.359940 -56.194279 0 0
-30.796227 138.185610 54.048073 13 1
-53.894562 164.523650 -96.810028 19 1
0.123801 62.170918 -6.341136 0 0
-118.908110 440.985780 10.147286 27 1
-71.129517 318.606690 111.005400 36 1
-157.787110 419.396580 19.874041 29 1
-7.413872 327.829160 73.321175 20 1
33.387089 282.235990 -87.844971 31 1
-194.674190 388.600740 45.157749 29 1
-9.305635 390.631900 86.788109 0 0
-22.642191 284.599490 -29.306381 0 0
-25.976685 311.820250 -42.787121 0 0
-54.028286 398.309170 150.561520 37 1
-14.739381 386.401950 1.451519 0 0
-50.385948 413.231260 83.921738 38 1
-7.101457 270.750060 -143.846620 33 1
43.751240 142.183270 -107.836940 4 1
-31.594259 267.259160 -99.697670 21 1
-14.617736 385.466000 -65.726479 34 1
-23.292515 323.541140 91.307419 20 1
-113.669110 305.674930 40.759884 22 1
54.724487 137.153500 62.523499 14 1
-31.616253 135.801770 -22.528713 0 0
-15.795597 260.992430 -165.187970 33 1
-44.043896 371.040160 -83.698418 34 1
100.753470 166.863360 14.729882 18 1
-112.531740 434.030490 96.280045 25 1
-81.142365 311.478820 53.753185 22 1
4.911287 363.529360 -108.840150 34 1
-74.498482 227.536970 -66.312965 10 1
-96.551674 306.015810 52.695278 22 1
-87.722786 156.765350 33.232697 35 1
48.426865 166.263820 -27.511206 1 1
-6.638357 379.241150 -87.522308 34 1
-14.321966 149.866420 -26.760145 0 0
-16.580940 146.943530 48.397907 12 1
22.371565 416.864720 -42.783325 40 1
-92.961510 378.902280 -100.365900 28 1
-6.519482 267.837890 -101.388350 31 1
-53.127659 156.392030 -3.125035 0 0
60.053562 146.536000 -12.491613 2 1
-7.959611 120.629020 6.652676 0 0
5.356156 378.955780 -78.120689 34 1
-22.221903 168.510640 -89.550919 0 0
-71.885422 161.972840 -105.429470 19 1
-96.085068 445.324800 37.718842 25 1
-81.307045 186.771440 140.836270 42 1
41.519241 149.372340 -75.798996 5 1
-29.887749 195.382720 117.019970 44 1
38.726067 403.007900 92.379295 23 1
-20.093290 305.098790 7.060905 0 0
7.264321 144.759800 -97.063560 4 1
-79.712387 370.029940 -133.106280 28 1
34.743275 418.344180 -41.984634 40 1
18.627092 382.856510 -80.749954 34 1
45.877766 397.106750 131.656310 23 1
-107.225870 145.768620 -86.327660 19 1
45.747143 133.774570 -120.088170 4 1
78.477615 138.368360 51.535259 14 1
-163.394550 411.904480 67.496094 29 1
-86.652664 165.858350 -67.009476 19 1
-77.415466 328.782260 88.188393 36 1
-99.109131 156.512130 39.504154 35 1
3.197307 140.946990 -15.333887 0 0
87.205360 184.843190 -52.277161 17 1
67.112419 141.447880 -16.074871 2 1
-19.476372 198.480150 117.165530 44 1
-42.620762 163.330430 -148.689500 41 1
-71.386963 316.615630 64.308571 22 1
-89.855682 447.507510 -3.553313 27 1
12.584636 115.041440 -32.076099 0 0
-2.494205 327.053440 96.247673 20 1
71.494827 190.710210 -26.698772 16 1
100.845580 160.884480 -1.481682 18 1
-89.220421 156.369060 -100.537220 19 1
-30.257000 195.465060 -30.266708 0 0
-72.816864 230.838420 -41.962074 10 1
-107.202950 439.942350 30.314501 25 1
30.621027 99.296021 8.196016 0 0
5.529156 127.052550 -29.474079 0 0
-98.797043 298.992980 118.301830 36 1
-114.438870 173.582870 72.635994 43 1
-120.583890 433.517760 70.289375 25 1
-32.240120 176.056180 -87.034019 19 1
18.418526 134.773590 -33.064640 0 0
-6.459744 183.078670 -1.341012 0 0
71.582283 147.012600 3.854992 2 1
9.066673 256.291960 -30.731615 7 1
-10.251829 108.268530 -24.050871 0 0
-40.493153 365.895900 -97.822861 34 1
-89.189659 186.590790 91.226227 43 1
-54.918720 406.789640 68.930466 38 1
-145.752840 426.104740 46.314983 29 1
-65.032112 325.033540 120.002980 36 1
-56.753082 230.313510 -42.581249 10 1
20.501677 164.612520 -102.930310 6 1
-37.598949 171.782550 -116.930050 41 1
-20.287245 162.233260 -1.340969 0 0
18.730387 181.177260 -90.173607 6 1
-59.188713 386.078830 -98.166397 28 1
-49.020569 192.707980 129.085740 42 1
-91.055595 310.005460 42.127312 22 1
42.235840 210.182530 26.600616 30 1
-81.439484 153.983080 4.359334 11 1
5.351944 262.115540 -181.535200 33 1
-170.645110 410.601200 64.302467 29 1
-5.726732 294.519290 27.548584 0 0
2.554783 192.274490 68.432152 46 1
-4.021612 338.072020 53.169975 0 0
-111.971310 356.989470 -47.648350 32 1
-21.835461 63.035316 -6.067406 0 0
-45.704723 272.152010 -77.448135 21 1
-58.916676 331.409330 94.941841 36 1
-12.253691 150.707600 1.217318 0 0
-14.869816 234.063630 9.739532 0 0
-85.426613 235.656750 -90.459541 21 1
-197.465000 390.042940 35.983746 29 1
11.444795 162.536010 -108.054500 6 1
55.278427 422.036530 -11.462553 39 1
14.051852 206.454670 28.268246 15 1
-39.251888 148.500110 -25.959639 0 0
-90.149269 409.458220 75.583595 38 1
112.035200 163.082960 7.510623 18 1
91.157181 393.815670 -54.174595 24 1
-47.472698 322.739960 79.648216 20 1
70.003044 164.148940 23.508793 18 1
-17.568571 204.894820 111.520750 44 1
-45.349693 193.604370 102.676380 43 1
-64.504753 242.324160 -114.307830 21 1
-51.419449 161.859800 -133.688350 41 1
-65.256577 409.009160 65.141335 38 1
71.693192 413.046140 -8.681271 39 1
24.777365 150.691500 -126.238820 6 1
51.223717 405.256620 -53.742466 40 1
-81.219887 377.191770 -65.241318 32 1
-3.913935 376.899290 82.059517 0 0
-52.859489 195.376940 121.984520 42 1
-15.273396 378.050600 -2.200378 0 0
-70.095245 378.975680 -53.379345 32 1
-14.995915 37.156590 8.177421 0 0
28.092567 130.197110 -115.370870 4 1
-19.067965 152.897350 -35.117748 0 0
-18.235912 129.311430 34.496029 0 0
-67.299187 223.317080 -62.916447 10 1
11.334823 194.446580 35.959126 0 0
-36.990173 133.975390 15.162163 45 1
92.211975 189.363450 -43.835632 17 1
-88.983620 185.601320 104.219740 43 1
3.594018 68.632912 -1.359366 0 0
-103.242080 444.149200 60.287914 25 1
-129.683140 439.873540 -29.968967 27 1
-22.876547 332.670200 80.098053 20 1
1.894691 327.151640 79.525749 20 1
-39.480114 229.649380 -35.359348 10 1
-64.842789 388.480560 -91.437370 28 1
47.454041 405.114990 91.432846 23 1
-22.780210 255.977480 33.442974 0 0
-38.288853 452.520570 10.566387 26 1
-10.962646 366.258060 75.533745 0 0
-8.858531 337.799800 85.240059 20 1
-2.359242 27.815199 -5.045633 0 0
4.758335 161.953690 -9.662816 0 0
-50.714890 174.892040 -113.355030 41 1
-24.774115 173.405650 -114.400900 41 1
26.604416 114.150340 -129.111970 4 1
-28.925907 193.446230 27.447262 15 1
-16.812941 426.154510 -6.814913 26 1
73.664856 419.757690 2.517297 39 1
-8.010003 150.318650 30.781500 12 1
-192.155430 402.306950 15.631457 29 1
-20.286680 241.486370 -9.401869 0 0
-19.357525 425.457340 10.110235 26 1
24.947517 153.300130 -38.793911 1 1
7.979136 94.603775 8.326593 0 0
3.807905 149.734860 49.230499 12 1
1.068422 112.767610 -21.864170 0 0
-11.547725 74.356781 -8.834763 0 0
-39.981068 409.152590 67.686501 38 1
-6.806880 224.427860 3.983177 0 0
25.848139 134.350390 -104.842880 4 1
-89.113968 301.019230 131.088500 36 1
-156.918080 412.040770 54.509758 29 1
14.672691 369.728880 -119.763950 34 1
14.313665 370.832610 -100.576790 34 1
-24.429743 426.172150 -1.375672 26 1
-91.447830 370.772890 -115.383440 28 1
-14.081655 321.309720 50.588531 20 1
-26.581341 327.372470 11.659384 0 0
-27.283728 330.437870 65.419830 20 1
-15.066790 400.521210 171.674870 37 1
-17.525267 245.780000 -57.375156 8 1
-9.045945 404.544980 6.530574 0 0
-69.444893 409.888790 91.591667 38 1
-61.184944 389.939850 20.372570 0 0
-5.961679 366.913020 -112.408180 34 1
-75.910721 377.945160 -123.769880 28 1
-86.237823 385.093260 -18.968615 32 1
-41.759693 167.817120 -93.741524 19 1
42.694340 266.834380 -111.079980 31 1
-90.615929 178.807530 100.163810 43 1
4.983284 158.177490 -121.730350 6 1
-85.985512 166.705800 183.456910 42 1
45.859455 204.837970 45.394077 30 1
37.682941 161.809050 -23.170158 1 1
-39.713215 326.064540 72.765038 20 1
-5.714561 230.723280 -72.750877 0 0
-35.231518 159.699660 -2.375237 0 0
-24.082903 159.561680 66.671097 0 0
-20.278048 195.343510 144.395600 44 1
-1.626539 176.030040 -36.494030 0 0
21.263535 116.941540 -135.850010 4 1
-17.674517 269.875030 -95.271477 21 1
-48.714111 176.878850 26.468847 48 1
-108.858280 435.323300 86.985695 25 1
-162.545840 419.367650 32.136196 29 1
58.834724 196.598570 -20.983913 16 1
63.537457 418.104220 -23.930630 40 1
-68.606194 386.065250 -38.527225 32 1
-24.637978 258.022220 -185.395190 33 1
-78.456337 238.278730 -113.256480 21 1
36.503704 246.420330 -121.758210 31 1
-9.843724 239.057240 3.573219 0 0
-55.465145 392.973600 160.757720 37 1
-60.255825 192.504240 135.043620 42 1
-4.008672 349.987430 53.225834 0 0
2.092686 149.753220 -2.866659 0 0
-4.481302 257.533330 -178.203480 33 1
-22.448734 162.901670 74.820663 0 0
-21.254982 413.496730 6.902541 26 1
-157.456570 410.930760 39.599743 29 1
-24.442375 166.392210 -23.735382 0 0
-61.692867 324.627720 37.752060 22 1
36.599735 143.392680 -87.421837 5 1
-66.636131 381.601590 -123.344160 28 1
-25.600449 170.760210 -135.158450 41 1
16.609411 121.203640 -125.676540 4 1
6.406142 183.833080 -94.258110 6 1
-10.420461 245.921340 -28.031414 7 1
-84.127716 318.344360 82.632744 36 1
-58.480053 179.406220 -75.713684 19 1
-34.661510 247.754700 -123.623020 21 1
33.784698 177.880260 -100.097480 6 1
-121.037160 432.994690 5.712878 27 1
-84.232620 194.939470 131.261260 42 1
-71.883629 386.034270 -95.170944 28 1
57.795731 421.129730 11.400844 39 1
-19.127718 143.301250 -25.226797 0 0
-58.840656 192.074220 165.859920 42 1
49.520893 116.873390 10.176626 0 0
80.477051 412.553740 -50.175060 24 1
-15.776757 187.810290 46.551643 15 1
-59.659653 254.300130 -99.269241 21 1
-52.427139 198.602430 158.902660 42 1
-12.878295 161.490970 -108.156710 6 1
38.556427 415.033480 -47.880447 40 1
101.138650 177.263440 27.728003 18 1
-45.586452 366.096890 9.550368 0 0
9.269098 370.374880 -114.233960 34 1
-28.475716 394.896730 172.256730 37 1
33.809994 399.112340 131.961330 23 1
3.636825 168.198000 -1.406406 0 0
-69.168770 328.690860 80.536804 36 1
-13.193649 130.219160 15.518388 0 0
-98.215767 309.897220 36.631828 22 1
-65.680099 130.201310 13.728063 45 1
-99.907494 154.719670 -85.779015 19 1
-58.128632 410.438390 57.248802 38 1
104.443660 186.599290 -44.235241 17 1
-13.466161 25.737204 33.139587 50 1
-72.926888 403.695310 110.561740 38 1
-40.572006 362.493620 -57.049503 0 0
-44.940887 157.180250 -14.128904 0 0
11.449387 323.680790 87.375488 20 1
-10.236199 253.028030 -192.277860 33 1
6.393917 400.628600 98.646805 23 1
-84.963737 152.412260 -6.654640 11 1
-43.787220 196.007640 115.618550 44 1
-4.525158 17.729382 -4.193950 0 0
59.652756 212.060350 46.580406 30 1
-4.185118 21.726744 4.576916 0 0
-64.494522 162.272130 -136.093310 41 1
-173.154620 403.944490 68.039062 29 1
-9.194781 173.863530 -99.606064 6 1
-6.096392 50.801926 3.465289 0 0
-61.676308 375.400300 -118.183300 28 1
39.627602 190.293760 -38.906109 9 1
-42.526535 398.927700 138.135130 37 1
-107.959890 442.142610 122.782650 25 1
-67.290733 313.589690 127.826240 36 1
-28.300772 104.752460 -19.748270 0 0
-74.392540 182.116850 157.065480 42 1
-5.100177 179.911870 -88.621300 6 1
-3.790786 254.511860 -64.237854 8 1
-109.812390 440.865230 51.700611 25 1
-26.850250 185.969240 50.579178 15 1
44.811810 185.764680 -62.036522 9 1
28.344772 151.317150 -18.402792 1 1
4.417567 382.566590 -4.724469 0 0
-54.265503 203.134370 90.818024 43 1
112.124190 167.818480 21.429888 18 1
-19.156315 261.176360 -103.396160 8 1
58.174427 145.739060 40.886612 14 1
-39.931030 286.525820 46.857883 0 0
-55.439693 322.964480 46.035992 20 1
-71.081863 322.939820 96.178596 36 1
-5.153898 270.589110 -152.951610 33 1
-30.108971 328.428620 79.807396 20 1
-45.763622 133.279510 51.824078 13 1
-83.953995 248.803530 -84.463394 21 1
-29.643808 203.637800 106.600620 44 1
-22.855204 163.944230 -8.901885 0 0
-43.227379 265.602080 -92.830757 21 1
-96.048294 142.996570 -93.117958 19 1
23.461279 401.743960 108.888210 23 1
48.359516 178.793840 -74.702171 9 1
-120.418010 435.815580 54.118179 25 1
9.109919 253.055790 -88.451355 8 1
-39.114471 341.367460 7.986868 0 0
-17.751070 379.399320 -78.288414 34 1
-31.272903 370.697390 -80.428047 34 1
-41.044605 445.602230 -12.400077 26 1
23.656584 204.046400 41.169250 30 1
-67.574280 265.259000 -91.553215 21 1
54.410210 151.255260 26.687286 14 1
-5.927471 368.722170 -99.537735 34 1
-21.660635 450.788730 15.283487 26 1
-6.271821 109.109500 14.906755 0 0
-60.311378 399.497340 117.835470 38 1
-74.714478 155.719960 -17.851421 11 1
-10.874827 29.445524 -14.012001 0 0
-17.424316 406.609650 130.145810 37 1
-3.807306 321.083370 34.491005 0 0
-93.307892 308.078030 60.606949 22 1
29.324823 408.938390 -58.130852 40 1
7.199847 139.877060 -73.804726 3 1
-0.341708 147.998060 -77.512741 3 1
62.548798 137.134810 52.519089 14 1
-39.905529 407.095790 97.993515 38 1
-42.018135 121.838900 71.938828 13 1
-181.962050 402.027560 47.626091 29 1
-6.476358 86.430420 0.839900 0 0
-46.463505 261.851990 -105.893810 21 1
-21.417540 164.830220 -150.230410 41 1
-101.022080 311.451320 112.182800 36 1
2.268767 199.241970 34.808910 15 1
-0.709574 97.914253 2.198040 0 0
-28.058435 27.070772 11.286462 50 1
-20.305264 338.469180 4.243248 0 0
-3.857087 189.829450 7.122364 0 0
16.409004 256.426940 -112.291750 31 1
60.277756 412.259120 -0.055102 39 1
88.433472 409.000850 -29.878952 24 1
3.652255 381.769350 -60.744732 34 1
-14.405461 371.517090 5.166412 0 0
-50.443169 413.683070 67.941101 38 1
55.656990 190.927470 -24.947935 9 1
-10.597591 64.158394 -1.839658 0 0
-69.122215 256.352720 -90.896912 21 1
-94.262955 306.938870 95.456978 36 1
-52.259533 129.733730 46.903610 13 1
16.860403 183.139400 99.846603 46 1
66.107086 150.926540 30.585964 14 1
-48.623055 359.368960 13.317024 0 0
-32.434769 327.135960 90.847504 20 1
-69.881287 161.736940 -2.294683 11 1
-7.652440 124.036870 25.213694 0 0
-147.460690 415.763520 46.169300 29 1
-61.118271 313.701290 54.279831 22 1
-17.374170 242.911180 -28.738638 7 1
-26.004269 132.948580 34.843796 12 1
-94.797127 368.932070 -64.650139 32 1
-3.314191 252.310030 -96.484711 8 1
1.285167 255.043900 -76.930214 8 1
-3.117613 191.311770 45.468262 15 1
-53.189491 257.318050 -106.551930 21 1
-2.285271 307.541560 30.419428 0 0
-19.105045 149.566590 -12.273824 0 0
-14.742716 252.615690 -62.399837 8 1
33.588844 207.362370 36.646721 30 1
102.065430 182.547670 -53.543568 17 1
-23.846636 79.429329 -8.058277 0 0
-36.704792 169.924270 -87.134636 19 1
-42.686245 185.202760 97.701530 0 0
-36.932747 397.669530 104.432690 38 1
-3.977060 153.227110 -33.292881 0 0
23.244900 149.375850 -81.796700 0 0
0.943364 205.340790 139.103730 44 1
-41.515572 401.908080 84.502762 38 1
36.996567 203.153470 22.803812 30 1
-25.359997 398.102140 93.471268 38 1
-20.644524 257.856260 -79.004433 8 1
-30.869892 170.932970 -25.888939 49 1
-16.174318 213.353710 106.968650 44 1
-26.582287 401.985690 104.941650 38 1
72.289505 144.017210 -10.073853 2 1
-170.391570 403.053710 56.826508 29 1
-39.352108 414.821720 56.794250 38 1
-39.788437 188.932210 106.708740 0 0
-18.619926 171.048360 -141.025800 41 1
-13.258629 143.116350 -66.150459 0 0
-53.118771 170.642200 -33.057148 49 1
-76.632301 174.015620 189.716640 42 1
14.836201 198.645840 143.470030 44 1
-5.761414 168.138660 -0.696594 0 0
-87.748604 164.889910 192.451290 42 1
-73.977180 461.384950 64.298996 25 1
-85.888527 168.458370 -82.131065 19 1
18.226042 283.591740 -84.363419 31 1
67.562584 143.010180 -1.423186 2 1
-5.949286 244.314970 -198.219510 33 1
-85.455963 302.255620 139.650650 36 1
16.885073 137.205980 -109.332020 4 1
-19.638632 280.722170 5.850031 0 0
16.888599 155.664860 -114.868450 6 1
-7.163847 323.428410 91.448418 20 1
18.033531 103.456310 -0.065243 0 0
92.684967 176.412290 30.597525 18 1
-4.653298 327.628420 66.099251 20 1
22.996469 195.446290 83.801186 46 1
-92.483475 183.045930 146.636700 42 1
-63.273319 191.855270 123.558740 42 1
-32.902454 376.374570 -69.907608 34 1
-8.852951 143.263610 15.804723 0 0
-93.560959 429.280670 23.110117 0 0
-97.598785 148.385850 -98.158745 19 1
38.767483 254.520140 -118.761310 31 1
-8.052156 184.984190 81.585129 46 1
16.788168 132.528310 -117.263320 4 1
3.747365 166.670670 -22.221231 0 0
0.621155 319.398040 89.927269 20 1
-5.264358 241.722460 -76.719650 0 0
4.949436 198.031220 46.807888 15 1
11.097487 262.909450 -111.878910 31 1
-176.298780 414.082000 23.556952 29 1
-81.432442 381.767090 -49.087563 32 1
14.162901 407.581940 90.016968 23 1
8.663135 250.293200 -120.103610 31 1
-91.398117 371.783660 -141.511030 28 1
2.119943 138.063960 -23.238104 0 0
41.103901 144.547680 -12.061767 2 1
-33.029644 273.951630 -92.303017 21 1
-20.657223 258.765010 -113.240260 21 1
5.086940 133.304870 -60.778442 3 1
-76.024544 380.961880 -106.914800 28 1
47.658981 148.368120 -0.365886 2 1
-17.582304 243.346710 -16.259930 47 1
3.057084 196.520680 59.976246 46 1
-30.464046 96.584427 -4.698173 0 0
-74.579269 309.702390 63.943947 22 1
5.245476 371.648040 -98.414856 34 1
-103.507770 182.639790 65.685211 43 1
-43.867870 131.835780 12.680078 45 1
1.454812 167.704100 -98.876114 6 1
-134.344860 433.821230 -8.370838 27 1
-16.211622 393.994720 100.529970 0 0
1.749267 33.454731 -1.931000 0 0
-75.402603 158.256240 -95.133827 19 1
16.086506 269.130190 -99.238823 31 1
72.584747 201.265200 -21.499701 16 1
-94.657471 293.530980 142.974960 36 1
8.386299 115.252830 -20.414370 0 0
-196.679760 394.840000 22.032421 29 1
3.252439 397.794310 104.910870 23 1
17.642225 396.646730 -10.864380 0 0
-94.974701 305.249110 102.795230 36 1
-18.242659 247.101440 -187.943540 33 1
-57.000587 170.702770 -91.767014 19 1
-76.915527 326.789550 115.654370 36 1
-6.896025 207.028690 -48.495770 0 0
-25.396343 124.885190 -26.208578 0 0
-84.669662 455.137180 106.626640 25 1
-9.817858 17.466671 1.587825 0 0
-56.015572 161.797670 -140.106670 41 1
5.477538 362.228910 -118.297280 34 1
-66.914024 381.170720 -32.083801 32 1
-27.018072 57.671207 -6.521214 0 0
-15.386262 136.807050 -4.385035 0 0
-32.126450 232.080900 -34.804787 0 0
10.539269 144.943630 -83.398163 3 1
13.494864 144.005630 -22.289490 0 0
-62.812210 246.885890 -108.401190 21 1
-91.076912 371.568760 -127.523330 28 1
-41.096069 172.702180 -131.983640 41 1
-101.334210 181.455290 147.535550 42 1
-77.241440 377.029270 -147.646160 28 1
-178.074460 402.541500 29.066330 29 1
59.639160 426.214970 1.164022 39 1
-81.356140 202.532960 62.837292 43 1
-8.121359 269.198940 -162.752030 33 1
32.481304 149.365540 -36.604156 1 1
-83.751534 454.063630 66.050766 25 1
-45.217644 129.345020 -1.535404 0 0
-75.955109 458.796420 55.406212 25 1
-30.495127 360.646970 -106.156410 34 1
-47.395168 401.840120 95.445297 38 1
93.692162 166.194020 9.142408 18 1
3.852675 258.431610 -93.641205 8 1
-36.448154 268.964510 -85.039925 21 1
-65.037834 158.340360 23.726336 48 1
-88.309196 159.820180 -78.959694 19 1
67.583847 153.859630 18.497774 2 1
-43.560516 321.108950 85.835419 20 1
7.152509 254.975360 -72.356667 8 1
-81.228844 190.486420 94.791878 43 1
-73.660324 166.382420 -82.879776 19 1
-20.241577 72.749168 -9.507465 0 0
-106.809490 366.280980 -46.133636 32 1
-1.474966 397.352720 116.583500 23 1
-19.703890 143.503300 30.389380 12 1
-113.999710 432.978970 43.214787 25 1
-70.389748 404.763550 86.130806 38 1
-77.801514 233.561370 -103.329960 21 1
-157.972090 419.465240 53.115456 29 1
-94.912964 311.936190 17.246624 22 1
33.751598 157.405030 -116.683700 6 1
-15.959281 418.696470 -0.146976 26 1
46.426975 410.538850 -17.993015 0 0
1.011830 164.404830 -113.264840 6 1
-81.587288 311.126130 44.104736 22 1
27.345398 201.424120 71.522766 46 1
-93.911530 373.081940 -41.790401 32 1
-21.515730 271.238070 -85.260139 21 1
-22.752514 147.472150 -67.142677 0 0
-63.899574 375.752810 -67.147552 32 1
-31.219471 247.169420 -60.341614 8 1
49.388546 145.454470 -92.521652 5 1
-29.391830 150.238010 -30.371845 0 0
-0.639589 49.544724 -8.478278 0 0
-8.559560 381.367890 -0.051356 0 0
-45.584557 170.355410 22.679529 48 1
-22.386181 270.076050 -135.771650 33 1
-9.429151 158.717680 -36.207638 0 0
-52.511677 174.155840 -18.606903 49 1
79.766724 184.199830 -49.029064 17 1
-163.703140 423.793580 20.487978 29 1
-98.397957 379.878850 -38.036335 32 1
-107.076720 439.348050 37.799862 25 1
-36.058159 253.343540 -112.653560 21 1
-60.845726 158.542940 16.110186 0 0
-12.458353 162.493180 -115.600610 6 1
-59.484558 411.422000 83.025551 38 1
60.510983 209.079210 1.533098 16 1
-84.251656 147.909410 -99.041870 19 1
-60.287197 386.889130 -24.342049 32 1
-64.443069 315.231600 37.687271 22 1
-7.585889 393.942780 103.133380 0 0
-4.103928 214.736650 -61.352283 0 0
-29.607792 411.047910 81.840805 38 1
54.955471 202.572710 -7.065684 16 1
-37.561901 163.730820 -139.524080 41 1
26.672157 201.242320 29.506598 30 1
-99.199425 444.879730 49.251335 25 1
46.953514 196.907490 -36.675846 9 1
-81.100243 158.880400 25.270866 35 1
-51.487442 386.498290 -39.725914 32 1
-32.418705 175.759190 -20.211334 49 1
-92.200592 154.070800 26.500278 35 1
-104.179050 176.772320 155.531910 42 1
-18.056681 101.380110 -16.774799 0 0
-25.503065 178.231110 -28.675364 0 0
-10.002194 139.176790 -49.499435 0 0
92.398941 170.147860 20.028776 18 1
-27.097519 265.265660 -89.209274 21 1
2.223754 272.413940 -98.976845 31 1
42.253761 168.275820 -23.250765 1 1
-29.357115 126.918570 7.718858 0 0
-70.085693 230.469130 -59.170078 10 1
5.896482 272.738860 -148.159500 33 1
-6.433280 283.124910 18.058783 0 0
-27.344133 302.248630 6.881134 0 0
58.243023 404.179200 108.242940 23 1
44.823799 408.016020 99.610924 23 1
-127.297740 439.172090 2.462948 27 1
52.538242 139.108180 14.807120 0 0
8.637907 255.823200 -16.098555 7 1
0.572339 93.892387 -4.442834 0 0
-48.521858 176.869610 -83.451385 19 1
-67.388733 395.949710 23.253153 0 0
-26.243813 151.475650 -76.066650 0 0
26.787783 381.201810 -74.774200 40 1
-28.950647 277.577820 43.985107 0 0
71.232170 211.737350 8.922221 16 1
-79.160736 419.008420 27.906532 0 0
-89.182076 320.441470 120.744490 36 1
-6.428653 147.734250 -39.090473 0 0
-96.343864 313.173580 119.262190 36 1
-27.813057 218.483540 -34.616951 0 0
64.316803 147.722310 11.461246 2 1
-128.294240 433.017330 46.132866 29 1
13.489044 255.481320 -24.931345 7 1
-10.836441 397.648410 1.560357 0 0
70.631683 206.627270 -3.082585 16 1
103.611680 391.167180 -60.515896 24 1
-90.628120 450.207920 -13.372430 27 1
-103.246830 448.685760 1.371536 27 1
-92.368263 160.625340 -71.218994 19 1
-32.425575 133.312090 59.281235 13 1
51.313515 426.710050 -6.968194 39 1
77.237656 418.430180 -30.913837 24 1
96.153618 394.438110 -39.913387 24 1
-91.032135 177.375410 156.363920 42 1
9.598804 405.354580 104.179440 23 1
-185.310440 396.024900 36.754055 29 1
-73.322662 415.082240 54.424362 38 1
-106.185420 154.459300 -73.207649 19 1
-6.433617 50.419586 -3.839983 0 0
-76.787605 190.245590 110.908690 43 1
-1.869053 159.916990 -20.641281 0 0
35.003056 409.292720 -13.299364 0 0
31.586487 422.180360 -34.799446 40 1
11.872568 196.243260 58.312191 46 1
-50.674915 201.932560 171.868900 42 1
-33.970402 326.977450 62.866573 20 1
-60.193787 325.156740 69.172928 20 1
8.932645 155.300580 -127.193990 6 1
20.445393 143.533910 -20.003557 0 0
-111.047520 145.550870 -77.954643 19 1
-66.552902 200.636250 85.016853 43 1
41.804588 147.978870 -89.705017 5 1
-2.938198 43.876659 2.463963 0 0
-70.130234 224.246720 -53.053101 10 1
-92.885559 150.271010 -88.573494 19 1
-30.598757 397.729370 145.984880 37 1
50.229557 184.082430 -48.193443 9 1
8.476131 173.911360 -105.428090 6 1
-116.514930 167.848910 87.437393 43 1
-18.820076 324.536130 84.164131 20 1
-9.860881 362.356660 -106.577890 34 1
-52.350765 168.517430 -140.239940 41 1
-115.163050 434.024690 -1.161100 27 1
-79.981766 240.713790 -93.293152 21 1
-52.451618 414.482270 60.614697 38 1
-49.093689 113.761090 70.361107 13 1
-86.352531 320.476290 15.134715 22 1
-7.958987 198.237300 -1.267542 0 0
-86.551399 167.194240 -90.080963 19 1
-20.213934 147.279310 60.137207 0 0
-85.482819 151.107970 -15.373199 11 1
-1.482698 400.978790 123.867390 23 1
45.947330 143.649990 -76.614716 5 1
-51.336544 383.390560 -48.395870 32 1
11.122631 66.932373 0.860386 0 0
-99.846123 316.420560 32.170200 22 1
-23.971167 146.207320 47.260387 0 0
63.995342 414.089720 -8.035838 39 1
-85.980644 425.105160 29.428551 0 0
-83.170464 379.138890 -98.388214 28 1
-15.003321 245.306920 -70.761154 8 1
-170.125560 407.407780 26.118614 29 1
-31.819595 129.559430 68.882530 13 1
-3.383445 401.281860 104.325530 23 1
-28.116816 449.395570 2.594010 26 1
-74.764130 377.470490 -42.500282 32 1
-110.117260 435.803620 12.929079 27 1
24.770908 128.217820 -7.689218 0 0
-0.369132 254.387470 -7.704032 7 1
-12.062729 202.179320 19.160192 0 0
-34.454365 322.663240 77.080284 20 1
26.077995 146.611340 -41.383850 1 1
-103.681770 310.634190 48.357288 22 1
82.288048 401.257390 -47.708885 24 1
-27.571430 25.174263 18.816162 50 1
41.108360 392.469150 -60.105419 40 1
-13.571624 247.830340 -49.612629 8 1
-65.274361 224.388820 -34.484177 10 1
-55.513969 169.232790 -124.738530 41 1
-34.875515 432.465240 -5.708729 26 1
4.633223 188.326170 -87.948868 6 1
-55.268841 326.736150 116.482700 36 1
-28.614758 27.949251 33.172337 50 1
-61.065025 378.309690 -45.332649 32 1
11.519382 84.704147 4.544757 0 0
-96.484825 315.391880 44.233242 22 1
58.869843 144.276170 -86.541222 5 1
-22.897924 190.845000 24.417185 15 1
40.978966 183.188630 -75.193275 9 1
87.196381 396.338590 -71.790039 24 1
-111.065740 433.728970 61.653767 25 1
-40.724945 277.433170 -86.406761 21 1
30.701456 140.685230 -28.606117 1 1
-97.736511 148.827510 27.712736 35 1
-6.950898 36.546471 27.237875 50 1
45.580082 417.632930 -30.027679 40 1
-16.651720 326.274050 73.602783 20 1
-28.027946 129.134310 -20.982262 0 0
52.548248 398.419190 -62.500851 40 1
-30.783169 275.934110 -81.247879 21 1
-185.554760 402.834690 18.702482 29 1
-44.073559 396.074340 161.665300 37 1
-57.062878 379.379640 -57.899288 32 1
-26.129107 165.384810 -113.439660 6 1
56.172832 411.916630 -38.341347 40 1
-1.206247 361.484440 -112.360330 34 1
-16.577808 256.744930 -90.139183 8 1
-1.814222 105.613100 -19.652147 0 0
-72.546715 410.968900 78.087097 38 1
-68.809814 205.880860 69.381035 43 1
-21.108944 257.965670 -170.617080 33 1
-8.202744 96.358070 21.004511 0 0
-47.094654 140.758070 7.044611 0 0
-107.886280 449.052550 -19.627275 27 1
37.601898 398.057800 -63.824825 40 1
-85.585236 370.059230 -72.408302 32 1
-53.473885 189.655930 111.985920 43 1
-27.533556 412.078610 97.690475 38 1
-63.167587 404.821010 74.972870 38 1
-24.319529 119.354320 28.886667 12 1
-106.444560 443.671300 16.510979 27 1
51.832752 201.436340 43.228806 30 1
-64.443718 189.998630 157.773880 42 1
-61.664165 371.139620 -72.537163 32 1
-34.598103 165.332350 -153.557330 41 1
-1.342769 128.354510 1.819964 0 0
-77.569511 318.783810 22.097757 22 1
15.392377 145.940920 -33.841385 1 1
-0.972211 118.848330 2.689621 0 0
2.979558 253.438350 -116.887380 31 1
-46.115803 159.536330 -0.650253 0 0
-2.463307 141.183650 8.209066 0 0
-75.632416 160.005510 194.019470 42 1
44.779583 405.943910 -44.278164 40 1
-34.734436 137.831970 47.988747 13 1
-54.616112 373.709080 -117.521910 28 1
-58.590267 246.804720 -122.465900 21 1
49.970325 188.801710 -40.062038 9 1
38.408939 148.070540 -100.389920 4 1
47.733433 137.491960 52.989006 14 1
-121.038720 428.130430 40.968533 25 1
-26.240549 143.731800 53.637493 12 1
-43.734375 174.042160 -89.685234 19 1
-89.187798 313.138950 84.141174 36 1
-46.715870 131.084030 19.537838 45 1
-26.703398 394.648930 187.782970 37 1
-20.260746 23.502853 36.179554 50 1
1.441417 55.519714 -3.740417 0 0
-114.563330 433.548430 20.324030 27 1
-96.071579 171.478700 175.362730 42 1
-44.679794 171.314670 -118.167570 41 1
-94.922523 451.414150 117.435180 25 1
-69.944656 383.424260 -101.667970 28 1
73.663506 147.993450 40.796841 14 1
71.977348 135.707350 -21.160900 2 1
6.166970 374.824220 -90.227066 34 1
18.732164 138.850750 -97.652931 4 1
99.904625 179.397020 -63.609650 17 1
-7.221175 375.401180 74.969414 0 0
17.058828 197.456910 47.201015 15 1
-0.145901 199.140720 26.023582 15 1
-134.075030 427.030760 25.746988 29 1
19.454086 240.781020 -123.362140 31 1
-46.301208 415.672420 55.302799 38 1
10.789995 186.867070 79.883743 46 1
-40.543716 55.531532 -11.555213 0 0
-16.902802 336.552250 79.003769 20 1
-24.551065 385.102630 -61.549915 34 1
-45.081623 374.878450 -113.979390 28 1
55.675232 151.946410 19.504225 0 0
-57.382626 133.276840 26.386925 45 1
-142.477010 417.929930 37.371086 29 1
-20.769253 292.119900 10.058529 0 0
60.555923 137.656460 -27.311296 2 1
-43.865196 164.952240 -131.955140 41 1
66.381943 192.210770 -32.723282 9 1
13.156038 178.988080 106.486360 46 1
-58.023514 380.701750 -87.291481 28 1
-0.515338 336.222230 65.084671 20 1
-8.330839 399.682190 98.948700 0 0
-0.026735 144.519850 -96.820526 4 1
-2.637339 4.831019 -5.075256 0 0
-37.860565 398.350040 111.499860 38 1
-39.245052 280.887940 -79.456528 21 1
-74.610779 257.658390 -82.256157 21 1
0.336086 266.183530 -175.051210 33 1
-89.746033 312.673770 32.882641 22 1
-52.575294 231.588960 -36.806561 10 1
-56.552345 403.420170 87.171921 38 1
-0.744222 371.374360 -109.270400 34 1
2.497238 190.355910 153.697170 44 1
-51.641212 182.788300 -75.807419 19 1
-97.244576 183.982740 111.186040 43 1
8.153441 264.970000 -156.807540 33 1
-2.021550 128.770490 13.226469 0 0
-79.146515 177.043990 169.304600 42 1
-51.444588 391.142270 171.840770 37 1
-9.178872 208.488800 6.328500 0 0
-59.917091 195.523450 103.342100 43 1
-33.118420 172.344300 -123.859250 41 1
-67.586342 193.671460 118.183390 43 1
-5.944064 143.501880 41.037918 12 1
-98.265839 446.156830 -11.883824 27 1
60.200859 139.743500 -16.369883 2 1
-69.255142 408.932430 23.334249 0 0
13.821341 410.067600 81.587585 23 1
58.308136 148.241580 -79.804970 5 1
-74.337883 179.082750 180.340680 42 1
-92.545479 383.054900 -32.452522 32 1
61.592922 425.164090 -12.708396 39 1
22.530432 86.270638 7.240324 0 0
65.360451 144.616200 35.204037 14 1
-115.743320 444.823330 -4.804795 27 1
-75.825310 371.165530 -127.258580 28 1
-13.759094 268.341610 -118.557770 33 1
-85.362206 195.875490 68.775658 43 1
-32.212360 263.928160 -168.082610 33 1
42.935265 204.448930 36.064617 30 1
-110.031320 171.957570 97.392242 43 1
34.217422 263.092860 -108.692120 31 1
-20.688244 241.992800 -22.520515 7 1
-13.870625 196.899920 27.656872 15 1
107.793410 178.160840 -55.875042 17 1
-97.161720 409.459720 95.342659 38 1
75.749123 409.960820 -39.321636 24 1
-53.550632 116.040360 62.696831 13 1
27.431381 160.594860 -28.934965 1 1
22.668554 176.110960 -93.213745 6 1
-9.104831 194.808640 46.995827 15 1
-109.152990 313.976320 34.929436 22 1
-21.720146 371.203860 -75.269615 34 1
-106.119090 306.999480 28.617636 22 1
51.286991 142.684520 -22.398291 2 1
31.298864 401.212400 100.631430 23 1
-1.303517 6.671868 5.312253 0 0
-92.991432 446.794040 71.158676 25 1
2.790865 150.260540 -123.814290 6 1
75.401283 160.209290 20.165161 18 1
-28.391762 334.162990 10.697927 0 0
-50.015068 166.211210 -28.081299 49 1
-88.913292 181.072460 169.953700 42 1
-71.600822 374.137570 -116.877730 28 1
52.195507 421.885990 6.776248 39 1
9.253799 109.185050 16.842939 0 0
-82.239655 174.940950 184.044570 42 1
-10.178185 259.363680 -187.743640 33 1
-16.973099 233.668950 -2.505028 0 0
-105.300950 306.480650 42.281742 22 1
-115.126110 433.136080 33.932129 25 1
-89.886185 306.789980 107.467990 36 1
-3.430573 256.024660 -37.022690 7 1
-15.157521 263.955960 13.885548 0 0
-47.455173 239.167470 -50.760643 10 1
-82.041611 188.524410 102.782100 43 1
-100.295230 169.882680 166.528870 42 1
80.231865 180.080200 -59.978035 17 1
-100.039360 373.837010 -53.984047 32 1
-39.197155 168.714450 -109.080930 19 1
54.623806 199.544740 -16.126234 16 1
39.198200 203.841980 47.546371 30 1
-36.829391 388.150210 197.139850 37 1
14.321848 106.751940 4.970320 0 0
-95.528725 449.428650 83.356117 25 1
-34.861130 166.880400 -96.316727 0 0
-42.143860 23.777033 21.316477 50 1
46.536800 148.024030 -115.981950 6 1
-3.635126 249.359130 -115.811240 31 1
-11.513673 132.817030 32.732262 12 1
33.995628 402.771670 -52.895035 40 1
-68.111732 184.144380 169.849530 42 1
-44.396477 409.995940 73.660637 38 1
-52.556129 381.342900 -108.281140 28 1
-93.521027 159.907850 30.715504 35 1
-53.830494 167.655850 15.657904 48 1
-33.416458 23.179121 14.887192 50 1
-63.282787 375.251460 -125.391560 28 1
-84.504120 192.308320 137.801610 42 1
-27.145792 251.746630 -121.468920 21 1
-184.254210 399.166560 28.628344 29 1
-16.434187 359.575320 -112.026980 34 1
-11.419477 216.968400 0.526744 0 0
70.414581 422.561830 8.699568 39 1
10.011049 142.188670 -62.595776 3 1
-11.313706 263.364410 -160.159320 33 1
-33.152870 320.230680 58.276665 20 1
0.801177 136.979830 -68.904091 3 1
-18.941837 435.640050 17.161514 26 1
-31.884005 192.301010 147.194090 44 1
2.057641 249.885120 -188.568740 33 1
-4.843844 254.393980 -73.317482 8 1
-55.687168 253.344670 -112.908940 21 1
49.521248 420.584660 -24.138340 40 1
6.584516 207.889220 126.571970 44 1
-65.440491 402.339600 108.655720 38 1
-27.765934 211.045850 103.648050 44 1
-169.185240 412.343200 46.626198 29 1
59.296329 207.016340 38.286667 30 1
-93.792969 450.285640 8.502562 27 1
-9.495204 171.793320 -92.390831 6 1
10.055207 193.055470 150.805890 44 1
77.321861 214.913560 3.501961 16 1
-124.949300 430.866580 82.682449 25 1
-3.737487 381.149990 -5.170589 0 0
-35.547466 334.400600 8.879422 0 0
-73.889420 380.246120 -91.430359 28 1
-44.904560 234.635420 -36.702793 10 1
-19.038033 84.448875 -7.015166 0 0
65.200424 132.114840 -27.993399 2 1
-14.879746 193.287870 14.949301 0 0
-188.610610 391.973910 47.299545 29 1
-20.558718 272.368040 12.610679 0 0
37.054245 166.267120 -98.695816 6 1
-41.065620 238.830140 -44.433098 10 1
-19.197777 366.840820 -107.192370 34 1
-99.679199 176.541520 89.297180 43 1
-117.799500 437.017700 47.527302 25 1
-99.744026 302.860350 124.077450 36 1
56.439251 176.107010 -60.264893 9 1
-70.903770 186.182800 161.585770 42 1
37.052177 162.820740 -109.165370 6 1
-51.142227 392.941380 181.107130 37 1
-13.914251 395.234590 110.336160 0 0
-59.056206 324.262730 102.387150 36 1
-54.123215 149.446490 7.639106 0 0
-94.049446 188.255510 139.162140 42 1
-75.162216 315.750550 135.587550 36 1
-84.845238 172.625730 -61.557934 19 1
-21.017509 267.841610 -163.232270 33 1
-74.689484 151.790310 3.213505 11 1
-74.086235 386.138820 -24.117201 32 1
-1.967212 171.367970 4.222810 0 0
-12.305645 157.023130 -120.221430 6 1
-88.793198 232.020550 -97.680466 21 1
-16.618729 267.244600 -144.358670 33 1
-44.089809 378.241640 -56.904499 0 0
-93.523811 373.704190 -69.599998 32 1
-92.269913 320.600190 94.571869 36 1
-0.186293 383.342830 -81.743271 34 1
-51.023571 170.888640 33.924011 48 1
-131.208880 429.300510 58.887268 25 1
-23.396410 412.322880 77.755203 38 1
-8.377081 165.597020 -8.115475 0 0
-6.619374 105.353610 -3.685514 0 0
-30.569042 172.582530 -93.751358 0 0
-51.140053 372.449920 -64.153923 32 1
-142.953740 428.119840 32.021156 29 1
52.899933 403.746220 -42.803860 40 1
-55.572807 123.778540 51.854282 13 1
-17.254013 418.813140 -7.417602 26 1
-74.730171 184.763140 149.536350 42 1
-28.380640 369.828890 -73.428680 34 1
-84.413445 312.075740 109.391930 36 1
-7.753535 260.059720 -111.339420 31 1
-30.042976 165.246780 -81.747452 0 0
-79.434311 408.396120 88.206306 38 1
86.221947 398.930760 -36.782036 24 1
-78.731239 380.388430 -29.219822 32 1
11.648233 365.257750 -108.563060 34 1
-124.143460 433.961000 -8.588663 27 1
92.497574 162.214280 3.561507 18 1
-27.335373 209.526320 -35.021915 0 0
-10.161231 384.871950 6.739199 0 0
-35.357647 446.145900 10.087898 26 1
23.020458 396.289830 -61.097473 40 1
-75.638870 195.810640 128.960950 42 1
-61.247784 379.979740 -100.922130 28 1
12.691234 404.902620 112.296520 23 1
-139.773150 425.183140 49.741058 29 1
16.924070 146.165920 -132.222950 6 1
-63.408531 169.972730 -132.667920 41 1
-10.552812 245.590410 13.595932 0 0
53.989491 408.059750 99.004486 23 1
36.300728 415.608370 -35.130589 40 1
28.067701 156.891880 -108.586200 6 1
-54.066471 276.444430 -76.548027 21 1
4.752981 388.930630 -7.873366 0 0
-124.750810 440.831020 -13.058046 27 1
25.191839 277.582120 -90.045708 31 1
-21.152332 177.778430 -129.353740 41 1
-42.166527 406.761870 104.619960 38 1
27.872166 206.106410 49.943588 30 1
70.122986 132.252580 63.038834 14 1
25.271223 152.065780 -11.438092 0 0
-15.205093 157.499270 -1.626797 0 0
-104.411440 444.500820 77.986542 25 1
-85.108719 369.529850 -118.779570 28 1
-134.304440 439.112850 -14.425959 27 1
26.736368 251.761350 -120.267840 31 1
-27.113098 320.673250 54.739494 20 1
-7.398797 147.614120 54.881535 0 0
-53.646713 410.293980 96.187050 38 1
-10.326411 267.176910 -107.481880 31 1
-93.529350 303.642240 116.715390 36 1
-45.205639 49.207783 -11.978338 0 0
-52.439411 182.286910 -11.247903 49 1
-74.737427 315.032010 30.603960 22 1
-97.865738 441.567230 14.738024 27 1
-18.028603 404.029480 166.363080 37 1
9.880681 399.496060 115.963290 23 1
3.141487 142.916630 -35.523540 0 0
-25.555683 265.734710 36.596851 0 0
10.320102 165.356800 -17.311697 0 0
-147.113450 422.897340 23.070395 29 1
-4.066877 248.594270 -78.689888 8 1
85.519569 412.548550 -35.075127 24 1
-8.947221 198.798140 140.923320 44 1
27.810938 270.653560 -107.957300 31 1
-81.753738 377.960850 -113.304380 28 1
-5.122325 146.487200 -72.759857 3 1
79.333382 196.356520 -33.154613 17 1
-57.372459 208.086290 77.692268 43 1
76.207611 164.256270 13.885660 18 1
-3.821372 35.351757 -9.704182 0 0
-107.161540 442.021240 87.766075 25 1
20.350372 124.328580 0.533733 0 0
8.017688 386.914490 -63.618324 34 1
-7.712730 103.882410 -15.381410 0 0
-63.331829 377.189670 -109.787610 28 1
-21.973034 318.076260 11.367958 0 0
-85.202568 375.141390 -125.644690 28 1
-11.528336 121.763980 -49.505070 0 0
-0.195570 105.686010 0.274041 0 0
-94.590652 317.945560 26.689152 22 1
-89.369728 381.813750 -46.612926 32 1
-64.257019 165.237410 -0.380005 11 1
-80.469360 318.063350 97.289703 36 1
-24.479219 380.696990 -68.508385 34 1
80.339890 189.785130 -39.257668 17 1
-9.426985 190.934010 152.095670 44 1
-61.425037 228.696520 -62.514072 10 1
13.203623 380.314880 -74.150475 34 1
-66.528946 324.273590 27.758949 22 1
100.664710 396.297940 -34.694191 24 1
-176.269320 407.934420 37.072292 29 1
-32.786564 412.545230 62.515732 38 1
5.529417 159.468950 -3.148850 0 0
-1.254202 269.547610 -162.387570 33 1
51.644787 212.072770 50.803581 30 1
-12.110142 144.144000 -37.594589 0 0
-94.723442 163.340880 -61.220066 19 1
92.132065 178.981350 -53.283821 17 1
-148.604340 423.711000 57.506569 29 1
34.396175 159.257740 -29.160643 1 1
30.975920 139.027680 -104.184560 4 1
20.690195 163.256580 -114.121350 6 1
-62.615135 230.531850 -46.627384 10 1
96.683960 404.762420 -36.984833 24 1
-9.526572 253.574070 -68.354820 8 1
9.414967 180.275190 100.291090 46 1
68.870178 196.952260 -25.347799 16 1
-10.548662 187.655730 1.973021 0 0
-44.510418 406.985750 60.560223 38 1
-29.227743 365.068210 -92.905174 34 1
13.897265 401.361690 135.841190 23 1
-22.786516 168.198300 -103.130520 6 1
35.021061 204.999130 16.124437 30 1
102.690030 397.390500 -47.490753 24 1
-39.034100 134.350480 37.141930 45 1
-98.029778 449.723140 66.614189 25 1
21.835016 266.562650 -103.638590 31 1
-10.225666 409.595580 147.990510 37 1
46.944927 411.465610 88.232460 23 1
12.376528 275.830960 -92.094162 31 1
-71.547195 380.266480 -145.470700 28 1
-9.246538 112.885640 -37.007500 0 0
-29.838120 203.342540 116.341520 44 1
13.272435 178.732440 35.889893 0 0
-5.662416 82.142616 13.403483 0 0
60.077515 426.657200 15.248190 39 1
-177.272110 405.466430 54.275997 29 1
-7.649379 147.946590 -27.383545 0 0
-56.211300 330.925600 81.184998 36 1
-79.095215 241.567080 -102.383410 21 1
-8.110171 209.697450 132.030880 44 1
-29.724422 139.433810 20.811905 45 1
-69.475746 245.215550 -104.958580 21 1
-13.931870 122.959110 -39.322502 0 0
18.114828 411.533020 -50.456310 40 1
20.364628 76.750702 1.014423 0 0
-43.804653 179.973690 -13.934772 49 1
55.132523 178.295030 -76.483521 9 1
-102.617030 179.221510 105.151140 43 1
-43.217464 367.629300 -68.577011 0 0
37.870964 406.623900 104.756390 23 1
-68.780769 329.733090 96.458244 36 1
51.310833 240.980190 -123.868200 31 1
52.985764 146.675460 31.658442 14 1
-15.378679 264.446380 -154.595250 33 1
-8.608690 225.485810 -69.125832 0 0
-23.427814 309.579930 11.207749 0 0
-102.165820 158.751650 -63.232117 19 1
-35.728176 125.661350 -23.997372 0 0
-115.658780 436.097960 82.576080 25 1
-67.855270 165.281340 -13.418004 11 1
4.097615 396.793950 112.458590 23 1
-47.212196 206.203110 154.929260 42 1
-0.459196 82.649818 0.992091 0 0
12.746614 137.625260 -35.692436 0 0
-1.544607 158.073700 -113.334780 6 1
-69.115372 159.789140 10.626371 11 1
-50.347527 133.181200 32.232559 45 1
69.140175 143.969330 -78.625877 5 1
8.320293 152.433490 -119.481670 6 1
-99.499138 374.051360 -60.781418 32 1
-49.494450 230.881560 -48.688698 10 1
26.132774 397.798310 -9.829644 0 0
-34.865452 132.969770 28.016905 12 1
5.762749 144.020610 44.626492 12 1
-69.635185 250.419110 -96.434502 21 1
-50.139217 400.359620 104.385590 38 1
-52.115154 407.982850 62.644310 38 1
-50.717796 199.406590 144.409870 42 1
-14.759537 142.738710 -73.002342 3 1
-59.014374 37.902966 -13.241784 0 0
-57.491531 268.756620 -86.064316 21 1
-32.918163 265.102720 -153.627120 33 1
-70.192123 193.243470 99.679192 43 1
49.656853 250.300990 -115.739930 31 1
-49.144875 314.431520 52.511707 20 1
-24.033098 439.244420 -4.038669 26 1
-72.945480 241.779100 -115.268720 21 1
-84.212990 369.602170 -145.546660 28 1
36.655457 405.754060 86.329880 23 1
100.466110 388.872470 -50.513519 24 1
-16.973404 145.211550 -2.625669 0 0
-75.812248 183.015760 170.339070 42 1
-15.937140 368.444060 -94.568153 34 1
-69.715057 175.292310 -74.741806 19 1
5.404785 74.555763 9.140066 0 0
-103.949230 175.170610 84.184006 43 1
-8.895504 176.369750 1.129521 0 0
0.005249 146.781100 -17.087465 0 0
58.762615 131.337160 69.662666 14 1
46.653271 189.562560 -50.542953 9 1
-91.961433 445.438450 56.415733 25 1
-155.037340 427.011470 22.042747 29 1
-105.612630 437.209720 18.429962 27 1
-149.813740 415.611600 31.849289 29 1
0.844739 254.354720 -21.287230 7 1
-38.176121 194.126480 124.988730 44 1
14.573697 200.772980 37.104111 15 1
-44.669685 127.482260 57.928833 13 1
3.072745 367.178130 -103.038320 34 1
62.759914 413.104190 -37.216312 40 1
-113.563860 308.927700 33.046207 22 1
34.734417 129.170180 -114.444910 4 1
-165.716920 407.352330 36.631706 29 1
-16.465805 446.125790 14.845037 26 1
-3.084920 197.068240 -47.388176 0 0
-95.304886 378.328580 -51.606777 32 1
-64.559029 315.859860 121.650600 36 1
-25.766323 330.951230 74.210205 20 1
2.219532 403.504850 84.955574 23 1
80.585526 405.682070 -52.555416 24 1
-26.508560 192.867780 42.627396 15 1
7.263368 267.158020 -108.247270 31 1
-75.452812 463.910490 79.888748 25 1
-21.025354 404.084810 141.757460 37 1
-10.400676 269.825320 18.008524 0 0
-87.015076 318.143220 36.390137 22 1
89.264236 404.209690 -54.303497 24 1
-65.658379 159.011370 -107.301420 19 1
-64.122330 174.793170 -88.289436 19 1
49.167858 181.113400 -22.719860 1 1
-19.090197 238.255430 -34.018185 7 1
38.754353 209.373290 32.410767 30 1
65.854256 424.476320 21.992828 39 1
-50.561813 264.197270 -101.042110 21 1
-69.857170 372.422360 -64.375023 32 1
-85.686691 381.883820 -25.882215 32 1
-1.958948 183.671600 10.205307 0 0
-40.440693 258.966890 -102.873280 21 1
-55.394650 387.904080 -30.620705 32 1
-166.179810 420.812770 26.303398 29 1
21.331978 275.985810 -102.978280 31 1
-22.474920 318.261200 4.626233 0 0
-4.486910 172.795240 -23.537142 0 0
-52.869644 235.559510 -59.665630 10 1
-68.961601 405.314510 79.026230 38 1
2.211737 166.152040 -14.549852 0 0
42.402222 398.466980 -50.223064 40 1
-77.443146 460.525180 95.177498 25 1
45.311077 413.539220 -36.852203 40 1
-92.588821 365.269200 -140.181140 28 1
-134.134170 436.658110 4.334447 27 1
-52.100212 378.314510 -121.899220 28 1
-64.882835 317.394780 62.254715 22 1
-6.805714 75.007835 2.543207 0 0
-39.541714 318.573210 60.859062 20 1
-1.235954 140.911420 -76.594582 3 1
36.858124 124.744670 -124.324450 4 1
-185.296360 398.135100 58.493355 29 1
-23.416542 206.305590 116.376980 44 1
-74.913483 248.338040 -90.362122 21 1
