137.423740 478.798580 125.904400 12 1
-20.701191 112.820800 15.339889 0 0
108.025910 482.670810 -42.804825 16 1
8.682065 375.510310 -177.163010 46 1
-80.588196 331.857790 87.796410 36 1
174.924320 249.527150 61.592693 30 1
54.334038 267.916690 127.163760 69 1
60.122131 277.417020 33.615860 70 1
77.995743 514.234190 7.733763 16 1
40.562412 467.253510 39.481644 0 0
-50.921883 193.270200 107.298290 66 1
-15.943035 548.186830 -33.929165 76 1
-253.329650 404.534120 124.757880 6 1
-118.511340 218.098820 -6.384738 63 1
-86.510712 130.893840 -61.093102 11 1
47.310219 492.100040 -92.269714 16 1
25.784435 136.922550 -119.629310 24 1
28.324995 422.320920 80.453293 18 1
61.126179 524.221500 146.369670 17 1
46.518585 239.725310 52.629910 0 0
19.485058 439.878510 121.121510 10 1
146.571460 191.432800 -32.647026 41 1
8.172905 243.849760 -24.008947 0 0
81.275764 275.768040 59.983658 69 1
-131.534470 119.730650 -96.575195 14 1
-294.125270 382.617370 145.054150 6 1
63.336033 381.770110 -189.309040 2 1
46.457436 154.826430 47.753357 1 1
81.526711 409.223300 -72.999878 43 1
-70.852676 219.122680 -14.840473 65 1
-13.470330 54.624783 -15.551276 0 0
89.100624 290.441890 80.144135 30 1
-35.316223 552.641240 -51.766659 76 1
36.660500 231.871370 -181.207930 38 1
81.496292 336.912020 157.716890 19 1
14.738781 249.750340 63.474960 0 0
22.843948 384.872130 -124.638300 46 1
-51.309959 99.000076 17.919333 0 0
-82.885139 229.729550 93.917984 0 0
-43.281151 165.400130 71.950287 0 0
91.369438 507.289030 151.197300 17 1
-103.417490 223.468870 -112.674580 20 1
-37.547050 88.595032 -110.746400 37 1
71.762222 334.016270 68.255196 49 1
-241.215210 417.479250 166.873080 7 1
-14.921752 404.179720 84.503357 18 1
48.930779 464.083920 -114.915870 16 1
-10.907760 262.449860 -117.622420 57 1
-122.646100 141.428240 -34.607979 13 1
-18.154959 257.699130 -4.054498 0 0
13.540103 421.798580 145.102160 10 1
-84.354652 253.951070 -100.142790 20 1
43.653896 121.028420 -80.517151 61 1
-76.274445 144.666290 7.836947 28 1
1.398369 185.987090 -1.966323 0 0
36.321960 157.544850 8.341614 1 1
-108.098880 143.829770 1.620044 28 1
-12.448039 172.921860 59.880207 0 0
-153.125400 190.490390 -108.012120 20 1
72.788925 537.238280 -133.804310 75 1
-84.095146 199.806430 126.763970 25 1
-54.029236 459.964690 -62.887817 5 1
32.536335 525.386050 -59.991768 16 1
60.441437 513.850890 47.574883 0 0
-155.234950 438.307740 -21.221457 3 1
50.060543 506.935330 114.688160 23 1
-119.097370 335.554530 105.671170 0 0
117.500620 485.446470 15.412879 16 1
-66.757164 229.327580 15.301635 65 1
-209.846560 431.642640 110.077740 8 1
-1.985144 84.991570 -135.951520 22 1
116.067840 428.499360 -69.520264 43 1
-123.470430 139.003510 -68.356033 14 1
11.940487 54.628887 -11.480076 0 0
45.641632 262.096310 -116.107690 38 1
41.578743 445.080990 -28.202423 0 0
17.389318 360.908810 -4.717633 0 0
131.124920 383.476530 9.919057 42 1
115.061900 535.360720 6.873881 34 1
-31.536036 406.664950 -6.010752 74 1
-35.694702 81.446205 -155.946140 21 1
47.585682 267.718750 -12.579483 70 1
-37.616592 320.569980 -155.899230 35 1
207.571260 248.866550 -46.127285 29 1
-14.199615 220.133190 -95.523499 0 0
105.294090 361.472750 -112.089190 44 1
-184.002210 416.276920 -53.873203 3 1
-65.970818 458.430360 -105.445040 5 1
44.006607 513.473880 -22.319223 16 1
-1.429349 280.345950 92.722557 71 1
-102.612500 137.539120 44.055920 27 1
9.864894 196.265490 -48.775658 0 0
-238.297790 378.262150 177.821080 7 1
17.867792 262.430180 -66.889244 0 0
11.525070 271.352080 42.890404 71 1
41.997879 182.574520 -81.640182 55 1
-224.759090 400.617460 119.520030 8 1
48.792023 130.063570 -48.646465 0 0
110.821290 405.635040 -5.661573 42 1
54.352936 400.450530 -145.434920 44 1
90.808105 510.186980 -78.535461 67 1
4.520083 318.668550 -158.522840 35 1
39.144669 268.657840 17.061455 70 1
113.468390 193.656660 -49.505398 41 1
91.763229 504.211760 -9.043838 16 1
17.554342 364.249150 19.440641 0 0
-4.302660 157.645610 -43.346165 0 0
-16.768499 343.304290 27.609997 0 0
61.827751 274.813320 73.623123 69 1
82.251549 98.918068 -62.904858 61 1
146.343580 193.124370 12.310928 39 1
-9.517461 116.033470 -37.224472 0 0
-3.352369 394.942810 28.627132 0 0
188.468550 272.502560 -57.159981 29 1
-1.665159 463.249970 143.902010 10 1
31.548882 268.148410 54.895687 71 1
-76.590645 327.219090 -172.479350 15 1
-65.329529 450.567540 4.548991 4 1
-154.779720 192.417910 3.092992 63 1
15.025665 525.070980 93.070915 45 1
23.314526 481.887390 45.732864 0 0
-71.967415 201.231280 30.200731 68 1
50.933613 388.072420 -105.237920 44 1
-54.206730 285.176300 46.335819 71 1
-9.819107 152.576570 31.242020 0 0
77.546478 394.746150 -115.227490 44 1
-212.445710 419.688690 89.260307 8 1
83.814148 502.208560 -47.483562 16 1
-0.321563 330.473420 -130.801390 35 1
14.694300 326.033050 -33.470325 0 0
26.545633 411.376340 34.225872 0 0
-116.450260 203.014310 -54.384525 63 1
89.870239 398.368100 -95.226944 43 1
-4.852155 204.263490 -15.472087 0 0
22.722265 512.049320 -82.851158 16 1
113.674260 288.369540 77.480301 30 1
20.162117 403.193390 -25.714245 0 0
121.923480 403.384700 -81.925400 43 1
-274.263210 409.642490 134.950490 6 1
-58.417820 208.603820 83.759407 0 0
173.046430 409.710540 -67.042679 56 1
57.894947 177.820500 -54.584049 54 1
-241.138020 426.629640 145.412000 8 1
77.331390 379.502660 147.164490 18 1
67.078987 380.497130 -40.242687 0 0
8.844926 427.598630 102.150410 18 1
41.051502 403.205660 -164.796080 2 1
-83.778893 129.364010 28.939760 0 0
-214.487200 371.576200 186.527620 7 1
61.389538 52.896603 -23.509678 59 1
-29.672268 258.448210 17.550278 71 1
124.007970 506.872830 -45.787552 67 1
38.083141 104.942190 -178.195360 24 1
93.089233 429.096830 -69.390030 43 1
24.617496 385.149170 -163.737110 46 1
-22.507093 399.735930 225.520920 9 1
94.014778 532.067080 49.193733 34 1
138.855180 376.613740 -10.281473 42 1
76.957336 371.783230 -204.927060 2 1
-117.434520 252.549160 110.688530 0 0
-57.189091 387.956760 207.574540 9 1
141.012560 287.526120 -4.845145 32 1
2.271485 507.923770 115.120750 45 1
28.725092 418.301060 128.642590 18 1
-281.402220 398.080690 155.658910 6 1
-19.980150 377.759340 81.902054 48 1
87.498840 259.773590 45.252506 70 1
-76.692703 311.985380 -153.512120 33 1
68.846703 239.454670 137.643800 69 1
128.772280 302.029660 -55.651752 31 1
19.335136 271.735900 92.571205 71 1
-66.210693 458.113130 -20.970118 4 1
69.006737 254.835850 97.079033 69 1
13.118232 95.788956 -38.124893 0 0
-26.722742 223.024870 -58.721470 72 1
6.086059 351.678990 -36.976547 0 0
58.051098 533.608220 76.198692 34 1
-30.033142 282.141780 55.730747 71 1
-24.959290 172.141310 122.260780 66 1
38.438900 282.922670 98.859474 69 1
32.544735 57.142216 -24.971062 0 0
-32.003162 259.456480 -107.726580 0 0
47.444511 116.232640 -31.268150 0 0
13.457068 118.079590 46.520348 0 0
34.788342 531.187320 39.944294 34 1
-41.301392 213.599000 -102.392860 72 1
-38.969566 197.548600 -129.860760 72 1
188.847230 378.324430 -61.496475 56 1
-29.687923 465.796020 -90.981033 5 1
87.176384 233.845840 117.984070 69 1
119.984700 291.404210 -94.066246 31 1
-2.473101 206.196230 62.769924 66 1
65.396484 255.786700 -5.599947 70 1
-152.865800 312.383000 126.010790 0 0
37.633224 567.543760 -78.167168 75 1
-234.844860 383.664520 155.619370 7 1
-119.285140 241.108340 -103.604740 20 1
-8.640078 13.360885 -5.700776 0 0
-212.970630 416.781800 172.345930 7 1
-47.746838 123.072310 -101.576920 62 1
122.053840 188.118330 73.592041 52 1
37.464191 482.321530 -109.630750 16 1
97.882759 177.843980 131.756070 51 1
-52.126762 224.968900 -30.247528 65 1
-12.270603 368.167110 -163.016950 46 1
108.528300 160.808750 -88.494972 53 1
-93.513725 314.974910 79.449814 36 1
139.833510 285.362880 47.659401 30 1
-99.155266 143.697280 -73.566536 13 1
-63.884491 428.744750 -136.253520 5 1
133.683460 197.303450 -15.273129 41 1
-12.831865 80.102600 22.429480 0 0
-85.495346 163.612380 169.049900 25 1
54.359074 495.807310 -54.872421 16 1
76.745628 548.450990 15.067381 34 1
27.781258 75.240364 -43.740742 60 1
-95.399826 122.146610 -85.143929 11 1
56.489807 404.439790 144.197390 18 1
6.715589 377.041960 -109.732150 46 1
84.965660 186.338070 -66.908440 53 1
139.189130 475.539580 -89.234406 67 1
-37.882877 421.699800 -49.639267 0 0
-182.634260 387.711430 168.139970 7 1
78.118462 510.348970 -25.565229 16 1
-4.238085 357.166870 60.659069 0 0
-96.284157 390.673860 203.541230 9 1
119.527890 527.834290 26.842831 34 1
-38.214737 202.019060 78.949898 66 1
107.690330 292.814700 36.404591 30 1
16.502115 311.274600 -187.555830 35 1
-22.523726 394.140900 66.930687 48 1
-67.173370 398.990480 175.322460 9 1
127.094960 289.612760 94.421455 30 1
-18.267759 95.697380 -117.383090 0 0
199.968630 181.587840 -22.359678 40 1
16.338173 165.295880 10.632463 0 0
91.057007 179.320330 96.426926 52 1
-3.015044 77.750839 -14.523270 0 0
-262.288300 396.172360 173.341630 6 1
0.690863 429.758540 3.061875 0 0
95.706802 435.911130 -30.691298 42 1
-71.647194 190.121120 48.516048 68 1
-106.035820 212.543610 12.072483 63 1
-2.750215 226.629090 -78.641479 64 1
-30.587141 356.922090 -176.321520 46 1
3.978370 172.249500 -18.319946 0 0
-4.708849 46.546993 6.879484 0 0
17.587387 270.384430 21.882328 71 1
13.954906 299.472350 75.264725 71 1
16.974648 263.332120 -7.009228 0 0
52.589207 319.117310 81.527000 0 0
79.241440 478.370420 -81.680939 16 1
-162.312880 112.453190 29.396107 26 1
8.815683 392.072480 -138.973980 46 1
126.534140 284.714200 -43.353764 0 0
159.559840 295.483310 -66.254578 29 1
-42.314922 403.788670 209.939320 9 1
-187.439130 397.363100 137.879870 7 1
-26.466499 147.484710 -3.419605 0 0
18.381020 111.033310 -185.386810 24 1
116.107910 406.056790 -29.847139 42 1
-210.075030 387.091430 146.729600 7 1
-73.105888 301.492190 -132.011890 33 1
49.887318 412.693180 104.026170 18 1
-135.785870 202.604930 -109.952600 20 1
77.788719 242.787700 -23.863092 70 1
3.985565 468.259980 -13.927156 0 0
-149.468890 220.013760 -73.626732 20 1
22.533840 111.144120 4.482523 0 0
30.871876 247.932630 -144.095670 38 1
104.659360 316.452060 78.490654 49 1
34.144562 149.367800 -11.054213 0 0
148.841920 290.926480 -31.378113 32 1
-0.873875 41.585144 -28.931028 0 0
172.438390 198.769610 -21.363558 40 1
-30.579491 82.658936 -29.499660 0 0
83.474876 532.873290 114.389960 17 1
58.837128 482.505310 -77.210503 16 1
1.139556 348.597230 108.764950 50 1
31.390305 146.146420 -46.674747 0 0
84.596390 246.945680 63.611362 69 1
153.367110 276.980350 62.686218 30 1
-28.286985 291.038180 28.235580 71 1
16.636580 444.271360 141.380690 10 1
-93.440567 198.664870 96.882355 68 1
-82.049500 458.429750 -48.363503 4 1
-9.292378 271.668120 53.415852 71 1
-3.988916 419.506010 55.798313 47 1
81.952896 511.965030 79.213783 23 1
-206.331220 399.259340 89.498108 8 1
-6.951538 263.601440 27.010511 0 0
20.008076 151.220810 52.330582 1 1
-30.705929 231.489400 -88.914246 72 1
-139.653150 340.232910 129.417650 0 0
0.415646 379.462680 92.972244 48 1
32.025440 110.551960 -65.725601 0 0
120.685290 510.331570 95.386520 12 1
5.897475 437.473330 41.406010 0 0
-18.647575 320.554230 -167.194580 35 1
146.398900 275.341060 84.802422 30 1
15.791512 241.067250 44.642353 0 0
-46.855328 318.385470 -209.751630 15 1
103.320680 509.060210 129.121120 12 1
-12.182758 197.141720 83.136711 66 1
-40.210808 65.716454 -168.568920 21 1
-62.752800 113.009960 -89.887802 62 1
-68.913681 229.312870 -77.745918 73 1
-4.341043 170.474140 93.604889 66 1
9.015507 509.630460 -18.512865 0 0
25.219456 534.264280 77.676270 45 1
-117.453500 178.374500 48.496780 68 1
164.166340 247.816090 85.680908 30 1
-62.714195 214.437990 -100.035840 72 1
3.948992 379.259460 15.177798 0 0
82.078842 389.403170 -169.627500 2 1
-21.189711 297.174870 67.040161 71 1
-75.175697 311.489410 88.031677 36 1
40.750889 511.024780 -47.811996 16 1
-40.650303 232.516330 -70.974281 72 1
-213.065250 431.328000 134.700230 8 1
-59.952740 302.483670 68.624741 36 1
133.163390 280.284670 -66.463516 31 1
142.134690 483.870060 -66.864220 67 1
-277.065800 374.824550 153.598430 6 1
118.309880 471.226530 -0.675696 16 1
121.946400 292.821690 54.798145 30 1
-11.364173 324.278260 33.169769 0 0
-127.033000 304.784970 128.475800 0 0
-226.899430 396.951690 90.582520 8 1
108.699200 500.439910 -79.991142 67 1
-17.854422 423.247440 77.844215 18 1
-10.497532 381.505130 205.016020 9 1
84.267464 176.697310 -84.996147 53 1
-151.406690 185.430730 -28.635305 63 1
61.060608 64.903534 -7.041561 59 1
87.818008 377.805150 -95.762520 44 1
-5.845059 296.080260 -30.975328 0 0
20.827038 258.534120 -101.745180 57 1
12.515750 274.962220 113.471530 71 1
-23.713358 141.826780 43.462269 0 0
-35.148155 363.443360 78.689957 48 1
32.792011 126.463160 -147.193470 24 1
7.038290 552.332460 -19.385609 76 1
-125.620190 458.807100 -61.462002 3 1
100.430160 172.098910 79.940948 52 1
-70.873550 190.157520 85.694229 68 1
-3.504882 307.622040 5.694352 0 0
-65.837265 206.992660 122.049640 25 1
12.568645 393.487920 78.792427 48 1
-4.888306 334.416780 -31.351183 0 0
-258.481320 400.914920 149.906720 6 1
61.215034 495.660130 126.987040 23 1
-0.621192 247.134030 -6.061357 0 0
-19.272858 224.039320 1.720998 0 0
146.733180 432.870760 -48.963924 56 1
-17.356613 159.170970 12.892290 0 0
-166.937990 368.523130 127.931720 0 0
-64.855072 287.626680 -227.518310 15 1
7.930305 23.114103 -28.342817 0 0
90.801735 255.354610 12.645502 70 1
120.329380 383.670840 -13.026555 42 1
2.471802 348.169370 29.480547 0 0
-102.280300 173.446380 152.851590 25 1
-11.494955 151.602020 115.662280 66 1
-20.979015 379.983490 173.502900 9 1
-64.236885 213.479320 -51.733772 73 1
56.285526 260.483700 23.918598 70 1
14.517851 83.686119 -6.812533 0 0
-22.995531 414.208010 27.429350 74 1
64.236511 548.093380 -100.608750 75 1
-29.444082 103.591890 -27.473269 0 0
-114.862240 127.887480 76.011925 27 1
43.847713 266.978210 38.676193 71 1
95.685738 243.809100 81.315231 69 1
189.624590 383.832210 -41.932140 56 1
17.475155 175.499760 -33.557148 0 0
38.854992 65.170250 -8.039136 0 0
-26.582785 191.855300 -8.234554 0 0
-47.981503 395.743590 -6.112423 74 1
18.952099 30.508598 -9.287426 0 0
-20.118479 27.112354 -13.953620 0 0
-59.070118 469.172210 2.664930 4 1
-30.382832 230.307890 -40.379921 65 1
-93.453903 293.014070 -140.046620 33 1
-50.736969 445.113830 -109.242070 5 1
-147.184390 120.671130 -4.666505 26 1
-12.978741 86.098495 0.979389 0 0
45.141918 388.351500 -192.943330 2 1
-243.022860 415.549930 111.923400 8 1
13.457925 410.888180 111.459010 18 1
105.969690 419.481840 -40.035633 42 1
79.003738 346.027710 96.516533 19 1
-32.420654 135.276890 -80.204185 62 1
-100.712770 138.912900 63.564056 27 1
-1.553762 162.794110 -63.567612 0 0
108.181730 403.218960 -100.237330 43 1
-243.942670 397.251250 166.555880 7 1
-99.326012 192.472400 114.510250 25 1
31.255596 560.863710 -39.860954 0 0
33.030533 279.908360 -36.261433 0 0
-76.878624 446.786250 -94.089645 5 1
-99.584236 221.881290 -21.009659 63 1
-46.398197 269.620510 37.179333 71 1
24.963369 342.344150 76.727303 50 1
86.008682 371.900240 -120.099910 44 1
-71.458366 402.707090 200.710420 9 1
-63.345940 308.709810 -205.677460 15 1
32.997120 532.802430 -23.171169 16 1
137.549790 515.453490 76.182724 12 1
-63.588867 235.420520 -42.023243 65 1
-10.487792 432.178440 111.951480 18 1
-24.021116 182.822080 142.867770 66 1
15.719560 401.509430 11.856466 0 0
20.001465 432.741850 159.823030 10 1
60.172623 522.130070 -2.877057 16 1
74.108078 103.627410 -95.760956 61 1
-210.002210 389.434880 179.691180 7 1
-18.485044 398.501620 16.942429 0 0
15.342319 93.504745 -132.001210 22 1
-90.014603 182.907640 27.250381 68 1
144.401750 490.162480 104.220610 12 1
82.936295 443.910520 -62.078041 43 1
-261.925540 419.940860 115.529410 6 1
-5.203087 272.975490 -8.097459 0 0
13.484466 324.089750 -8.882810 0 0
9.981058 16.682543 0.975368 0 0
48.526081 352.703310 -34.767124 0 0
9.216665 290.447970 40.939560 71 1
-103.569510 145.381680 -33.512081 13 1
-4.994822 415.173160 96.960022 18 1
-6.818002 297.778410 99.036003 71 1
20.354921 347.730620 110.280040 50 1
109.708510 187.889920 89.036842 52 1
24.122648 206.937840 35.694286 0 0
53.931431 259.826020 -98.548111 58 1
105.594280 383.019530 -129.592330 44 1
-17.367199 122.490070 -113.175890 62 1
-52.646797 69.807312 -106.667880 37 1
-3.119684 128.693710 -90.344009 62 1
37.906994 161.368770 27.388517 1 1
73.521461 187.398650 -48.777588 54 1
31.580442 317.096620 -153.965240 35 1
151.986010 208.606700 -25.673918 40 1
-43.417061 186.833330 90.872826 66 1
-12.064542 62.989964 40.355732 0 0
45.623795 267.469940 108.200130 69 1
-120.925620 240.684570 -67.315933 20 1
32.286747 121.470590 -97.567940 61 1
-5.641032 379.233430 -7.362344 0 0
-68.879051 192.896000 155.816330 25 1
-98.316559 478.141240 -59.951641 3 1
46.272659 285.676120 22.039137 70 1
15.007511 285.674220 10.726859 71 1
-18.241270 98.034653 -46.961491 0 0
67.440147 385.620240 -144.401340 44 1
54.666073 149.758380 31.347210 1 1
104.456170 183.334230 64.985413 52 1
-8.998597 97.611641 49.543571 0 0
179.874280 398.871150 -34.256332 56 1
-145.161510 436.145630 -62.537079 3 1
121.524540 499.594730 -63.146492 67 1
-38.638924 384.552250 205.088040 9 1
-134.456240 345.472410 110.667880 0 0
49.455498 267.499180 61.281391 69 1
-1.523880 245.564530 23.775986 0 0
35.516640 121.514580 -15.966053 0 0
-37.975506 158.702740 50.314442 0 0
-196.714360 421.770900 152.240860 7 1
-158.565550 427.600130 -47.926319 3 1
74.005005 345.467620 122.524900 19 1
21.620298 411.035520 94.052574 18 1
161.447280 426.206390 -34.009884 56 1
-96.503380 246.535480 -87.737473 20 1
-137.498470 139.171340 40.454052 26 1
-28.462624 552.383790 -13.406261 76 1
-56.110668 103.071020 -43.118065 0 0
-43.209660 473.044250 -54.257195 5 1
37.969120 39.095798 -25.645912 0 0
19.808817 539.420410 -45.222580 0 0
-46.852890 314.741360 -125.407490 33 1
43.043564 426.052890 91.558853 18 1
200.594590 258.123900 -61.086128 29 1
95.129013 237.288960 -16.179607 70 1
-123.973720 205.398560 -19.119728 63 1
128.124760 191.830510 -36.170780 41 1
20.887762 135.530360 36.419380 1 1
55.363827 124.283870 -66.114639 61 1
8.412466 58.977665 12.081009 0 0
163.946750 186.999770 10.248549 39 1
93.214043 167.060900 -98.450523 53 1
-58.692871 239.104160 112.100820 0 0
-24.674183 191.079850 115.742740 66 1
13.968957 412.091430 71.155258 18 1
7.402463 126.709150 -159.711400 24 1
-67.575478 454.490390 23.535355 4 1
55.578728 339.232820 60.546486 49 1
1.245894 437.806610 133.028370 10 1
36.003445 518.645690 118.372340 23 1
23.860067 128.676610 -81.687622 61 1
44.209179 287.861420 75.698692 71 1
-90.725899 138.130040 -2.005368 28 1
62.028091 353.831240 92.622833 19 1
41.507954 387.414120 -132.665530 44 1
-20.241989 82.055939 -141.474690 22 1
-16.365438 257.492950 -97.550385 57 1
-1.787422 544.913700 -45.560856 76 1
43.004013 524.522400 82.298462 23 1
-143.086730 217.892910 -99.976074 20 1
-18.944668 216.196910 18.560173 0 0
106.102210 401.094150 -72.357300 43 1
18.470379 279.564970 -24.636305 0 0
46.071922 141.560880 60.725769 1 1
74.321815 485.764400 -45.891571 16 1
106.614740 484.056790 -24.020550 16 1
-36.529503 475.022830 -22.237671 4 1
-110.855290 465.979000 -52.184196 3 1
-56.106663 271.232030 128.716320 0 0
101.285930 528.037170 32.542416 34 1
-78.825043 143.023910 -72.661041 11 1
-71.559731 466.048490 -61.472866 5 1
83.457977 244.720840 102.953130 69 1
-59.939659 319.037570 -158.128660 33 1
-238.431490 407.887480 80.802040 8 1
68.595207 256.842710 70.800392 69 1
157.302520 420.175450 -68.389664 56 1
2.009925 410.598910 20.037724 0 0
-45.320080 99.074081 -97.822327 37 1
-39.278507 464.083340 5.173411 4 1
56.985619 500.230740 -73.000427 16 1
-191.232570 403.401000 121.013980 7 1
44.213951 132.294530 14.015971 1 1
-123.785770 217.017880 11.485411 63 1
-91.983017 298.397000 -122.626690 33 1
-137.631180 133.747670 14.977304 26 1
60.757656 66.177155 -36.170021 59 1
-161.816470 351.046780 136.313420 0 0
93.309235 515.526060 56.893311 34 1
128.023850 165.248430 -61.163395 41 1
-47.048168 286.603880 27.459038 71 1
19.397749 296.449340 -4.049819 0 0
-10.517982 135.950230 -137.145000 24 1
-51.533161 387.949460 183.479050 9 1
33.773106 260.779880 -130.699910 38 1
-65.015137 311.283140 -118.990650 33 1
-3.436301 101.883610 -6.177662 0 0
0.900116 265.295650 -40.040997 0 0
65.345512 232.902310 -32.563316 0 0
-52.986168 468.926730 -28.356602 4 1
6.884202 229.113750 -48.681118 0 0
-53.478161 190.333160 -40.379902 0 0
-10.005347 186.321030 -16.073332 0 0
-89.993423 191.220610 141.509860 25 1
-88.723885 237.271610 -65.996231 73 1
161.812010 261.805690 57.764038 30 1
-102.809560 217.000630 -45.705219 63 1
-0.117309 208.618320 1.829860 0 0
12.990172 393.787320 -111.968610 46 1
-269.230530 395.932560 122.199220 6 1
66.210472 413.297270 -81.529053 43 1
93.481407 529.528020 70.026512 34 1
47.648170 282.155700 -1.182687 70 1
-9.261986 228.432500 -61.831879 64 1
49.684269 558.698970 -101.022140 75 1
-50.001060 81.061256 -145.119080 21 1
-293.408290 373.876740 160.939930 6 1
77.774727 518.970830 150.933430 17 1
-42.847759 221.803360 -7.679228 65 1
49.409744 559.500490 -67.215431 75 1
-159.538470 111.377920 4.460464 26 1
-1.741015 166.339160 119.513560 66 1
3.526529 110.675850 17.477230 0 0
108.207910 522.967530 93.140060 12 1
102.746070 188.859760 106.060040 51 1
-52.970821 556.240600 -40.344826 76 1
-134.966480 450.527500 -31.864220 3 1
-66.995949 240.343930 -18.366129 65 1
170.097640 267.737270 -10.764979 32 1
78.061600 496.406220 -0.724497 16 1
-26.525618 168.277590 -36.484772 0 0
-26.997374 302.005460 83.686295 71 1
-201.072450 378.545320 161.847840 7 1
-215.778060 396.624790 104.658450 8 1
-11.045496 293.833500 32.422798 71 1
-109.446840 136.950790 18.297243 28 1
4.706103 157.493700 40.768612 1 1
156.487500 280.165100 1.320252 32 1
77.045425 509.065800 96.380783 23 1
36.246819 294.888150 45.911007 71 1
76.021675 263.378360 6.861543 70 1
-119.646100 143.805110 43.244663 27 1
-24.664585 384.264470 217.043300 9 1
114.047590 501.637480 117.053230 12 1
-126.147210 126.804280 -80.995056 14 1
-23.352291 71.322899 -168.776200 21 1
43.666519 541.482180 68.569710 34 1
-83.314537 324.336520 103.652300 36 1
175.267150 410.315030 -48.715603 56 1
-80.954971 476.169710 -44.799171 4 1
21.169424 346.923520 -106.801070 0 0
-25.293592 296.698670 45.278557 71 1
92.080536 150.529600 140.982760 51 1
53.323376 192.976060 -45.151497 54 1
-66.504181 199.079180 68.796440 68 1
-0.631738 182.427510 -44.650356 0 0
79.173424 319.296540 60.324345 49 1
164.234310 281.222600 -33.272755 32 1
-66.383568 327.213230 78.147926 36 1
-49.924255 282.842100 9.761585 71 1
-3.791838 115.310340 49.039253 0 0
6.141218 264.524050 -113.355320 57 1
-7.063833 384.459810 -137.839810 46 1
-20.655771 382.097930 -154.290310 46 1
4.619026 226.911900 43.558022 0 0
65.394859 265.435580 112.007430 69 1
-64.125900 62.584236 -117.945930 37 1
-177.501340 382.198520 133.678190 0 0
16.594336 106.298030 -58.392735 0 0
96.864594 182.124770 -29.251423 54 1
-138.456480 169.063870 57.828777 68 1
-77.053131 223.193980 -41.150494 63 1
-58.261780 190.482570 122.987630 66 1
-3.341588 513.114560 75.727318 45 1
116.670930 186.251910 119.840480 51 1
-126.864670 205.251130 -38.794472 63 1
-1.986807 28.323814 7.166212 0 0
-4.871110 260.730530 -20.625328 0 0
26.386944 428.654080 37.160027 0 0
28.426304 99.665337 -30.029409 0 0
-226.903720 394.173490 135.661760 7 1
8.892283 94.074783 41.028053 0 0
28.532692 350.103000 92.137383 50 1
96.285446 398.207090 0.608310 42 1
67.206276 184.448580 -91.518219 53 1
57.250801 233.429720 149.811490 69 1
119.508220 370.768490 4.482838 42 1
-45.495056 326.745330 -178.637540 15 1
-19.139366 394.420620 183.187970 9 1
-21.707632 129.608230 29.887560 0 0
-146.994840 177.077500 -118.211910 20 1
54.174454 518.197810 101.094010 23 1
175.415120 388.399480 -68.783104 56 1
76.375450 537.596740 50.649254 34 1
193.536530 359.081180 -61.419918 56 1
60.431545 518.973690 -20.945740 16 1
-24.636419 185.710590 -40.125721 0 0
73.374756 269.417820 41.477352 70 1
-9.780391 238.452240 6.092408 0 0
15.546145 247.091460 21.076900 0 0
41.242569 64.841164 -37.903698 59 1
88.428505 505.524720 168.194000 17 1
13.443734 215.111370 21.607685 0 0
163.265350 289.692870 -50.230869 29 1
-82.882622 456.153750 -25.949497 4 1
103.201980 412.276730 -19.736950 42 1
132.275300 401.604400 -34.201324 42 1
129.875870 290.836490 -79.797729 31 1
-17.751249 71.927048 -21.505964 0 0
-140.907810 452.150120 -56.817017 3 1
59.323658 251.232820 129.277010 69 1
-92.631836 143.737270 164.333720 25 1
-56.936333 228.541990 -65.313705 72 1
51.432327 257.745090 -81.579102 58 1
-50.152809 356.649630 178.290680 0 0
-224.094710 422.301480 107.417290 8 1
48.101357 140.636350 -6.054966 1 1
-107.751340 253.260640 -99.694855 20 1
-12.853897 185.639140 95.885689 66 1
52.573460 126.475200 -149.470050 24 1
171.132400 195.631520 -4.527838 40 1
-63.961491 154.667420 175.972690 25 1
-27.808157 224.393690 -105.084510 72 1
2.823256 296.866300 61.897942 71 1
-251.038220 413.998690 139.317780 8 1
44.207825 525.164550 -36.482094 16 1
4.753109 205.245760 -32.401520 0 0
-42.124107 323.238740 -139.557890 33 1
-82.464020 200.450710 56.965153 68 1
11.010987 403.354800 33.024006 0 0
-87.774109 286.848510 -219.853590 15 1
-85.782082 226.967530 -11.778070 63 1
-126.941670 268.907530 108.705090 0 0
68.003372 383.488950 -100.401020 44 1
-90.511032 148.789550 39.208569 27 1
123.129170 414.551180 -13.537851 42 1
15.568526 312.881040 -170.512130 35 1
-4.391644 391.043400 81.377876 48 1
-47.952999 111.162860 29.421379 0 0
-10.690104 5.543034 10.044918 0 0
7.901464 212.647930 -77.665413 0 0
-40.644928 379.557530 -4.715815 0 0
-28.392065 23.615383 0.558121 0 0
4.680586 72.676231 -145.681560 22 1
46.063927 525.104060 51.656315 34 1
10.969089 129.702680 -115.127780 24 1
-45.142864 88.702927 -126.410730 37 1
42.778770 137.951930 -118.923120 24 1
-102.443210 248.505840 -71.892479 20 1
9.180788 141.435500 -39.031914 0 0
-53.234421 456.893770 -45.256588 5 1
-196.383620 413.544010 169.833310 7 1
-25.561092 84.010696 -10.979541 0 0
33.047913 497.086000 -84.129028 16 1
-72.124664 180.799450 167.621410 25 1
184.685850 379.673860 -80.363190 56 1
-41.010815 307.204900 59.919838 71 1
55.363728 543.846980 106.988780 17 1
-46.796318 328.803440 162.358230 0 0
69.612793 195.329030 -20.935446 54 1
-9.860577 100.387990 11.594299 0 0
-29.343954 168.272750 61.259453 0 0
117.244490 491.546200 -92.762398 67 1
71.053978 532.745360 28.626455 34 1
18.637735 542.419800 -28.596533 0 0
49.096527 395.153900 -177.705640 2 1
88.496468 331.879090 68.156456 49 1
-121.362850 182.460460 133.816640 25 1
12.158166 420.306240 31.206678 0 0
-15.316409 136.318970 -81.178619 62 1
-31.356922 119.335890 -102.702960 62 1
59.156738 262.981990 85.303207 69 1
73.750648 543.582820 -118.241050 75 1
-18.858103 111.189580 32.380028 0 0
49.778980 261.709870 4.740605 70 1
62.238216 132.755430 -19.964025 0 0
16.220774 446.616520 30.481043 0 0
56.127583 399.007420 -117.440670 44 1
-13.571016 141.865600 -62.593105 62 1
-15.806919 292.274540 15.404285 71 1
-151.366790 332.527860 120.173000 0 0
118.416560 181.010510 -59.376083 41 1
-77.079025 118.298860 -96.835968 11 1
25.737225 179.435090 -84.612701 55 1
-6.043831 189.514540 63.984837 0 0
-101.738460 195.690140 77.192749 68 1
-90.496529 127.688510 -22.727272 28 1
72.612343 544.888790 110.158720 17 1
10.450820 181.610110 17.858280 0 0
-266.592710 420.840360 146.950120 6 1
140.754990 202.206070 -0.745729 39 1
81.165131 185.620420 -33.935745 54 1
180.123780 203.065380 -42.779854 40 1
-31.434252 273.724880 24.103083 71 1
7.285606 349.766820 13.523254 0 0
-52.505260 303.240910 84.581924 36 1
71.454102 215.798840 147.320680 69 1
12.480370 458.882690 134.420730 10 1
92.079689 521.757510 101.138340 12 1
-120.951550 191.167830 75.120392 68 1
76.277954 113.752960 -68.062836 61 1
3.212257 367.988010 27.474646 0 0
1.622916 315.316650 -29.327768 0 0
-10.411879 175.461440 3.521436 0 0
92.701202 259.028960 28.998726 70 1
-65.495445 242.844650 5.528548 65 1
10.678101 53.558716 -28.414684 0 0
47.453285 338.725070 90.706795 50 1
95.516983 162.990650 124.618190 51 1
12.805700 343.009830 -1.063890 0 0
120.054320 430.193790 -37.228287 42 1
-12.315633 58.218246 17.107504 0 0
-38.091576 285.816070 41.677837 71 1
187.337880 280.881130 -31.692320 29 1
-226.932690 423.285520 160.756900 7 1
-14.691590 95.833633 -133.570420 22 1
47.956776 540.620970 122.803830 17 1
37.101151 278.637880 -19.328337 0 0
89.919579 390.423400 -125.367440 44 1
-19.902292 116.483660 -23.308611 0 0
-8.616174 132.509570 51.665436 0 0
-112.127890 468.293790 -33.107292 3 1
69.560982 503.632690 -56.610023 16 1
89.515549 364.000980 -106.000510 44 1
74.893387 60.417110 -29.468119 59 1
60.841278 274.806950 51.787518 70 1
-237.529650 405.899780 129.387860 8 1
-244.775680 425.755340 128.634840 8 1
-99.786957 382.529170 217.453350 9 1
-16.682547 362.540440 -39.809891 0 0
47.374428 555.525390 97.508224 17 1
-53.397503 298.901090 149.814480 0 0
16.342909 395.192930 -153.671800 46 1
34.069801 372.584380 -125.385940 46 1
-25.856525 113.985780 -0.234912 0 0
-122.865310 234.351170 -88.689766 20 1
-61.080997 322.673430 -175.453170 15 1
89.126801 413.650210 -46.074604 0 0
-125.809520 464.110750 -24.630718 3 1
50.735283 504.043700 -33.923073 16 1
92.279099 334.886200 126.732250 19 1
-32.664238 390.376800 -46.669819 0 0
68.767792 525.010990 131.900740 17 1
63.313148 360.127410 127.045990 19 1
26.585638 518.873780 83.109993 45 1
-69.603310 222.206480 88.006554 0 0
68.979057 393.527010 145.998310 18 1
-12.884275 92.916428 33.729435 0 0
4.193536 319.132600 14.394337 0 0
34.208340 267.341890 -105.000330 38 1
-1.125379 64.343231 -56.608513 0 0
32.736195 146.990010 43.014984 1 1
92.459488 369.031130 -200.621750 2 1
130.629620 494.272860 126.158230 12 1
49.901821 186.913180 -66.988342 55 1
89.119843 508.195830 -62.435349 67 1
71.798264 524.843380 77.839371 23 1
87.630531 539.237180 36.021389 34 1
101.915930 258.612090 -40.208225 0 0
2.908734 407.520140 83.724930 18 1
-45.839409 177.830600 105.307560 66 1
-1.535192 426.437680 19.246374 0 0
147.687160 476.608150 112.825110 12 1
-122.110280 142.422450 9.697188 26 1
-135.170300 208.625240 -7.223226 63 1
74.178978 391.669310 -130.800980 44 1
-80.476959 214.769270 -55.231220 63 1
-53.193962 84.844597 -112.798930 37 1
78.205841 421.860990 -62.072971 43 1
-59.467838 184.709720 95.854561 66 1
13.801450 99.289574 57.277863 0 0
35.853519 294.574190 63.555584 71 1
30.666107 174.599980 -24.205353 0 0
-31.632067 167.331790 -20.506891 0 0
-80.711670 389.185760 199.377210 9 1
65.085068 116.801810 -98.402336 61 1
-38.277973 401.479610 189.989120 9 1
93.295876 509.078950 8.832020 16 1
22.838047 69.428497 -9.564472 0 0
-61.786575 461.782200 -77.199684 5 1
-15.787726 412.128390 -6.140595 74 1
-17.259098 141.341510 -17.108080 0 0
-216.043490 389.661100 75.327293 8 1
-2.189760 125.524490 -106.161960 62 1
-14.395696 258.460170 11.632444 71 1
31.451881 286.849000 13.740548 70 1
14.880972 426.574650 129.400670 18 1
34.343903 544.103270 -5.013560 16 1
34.220634 73.714767 -22.290466 0 0
7.583377 453.752350 153.533050 10 1
96.446007 243.355640 3.249461 70 1
-31.253115 385.507810 189.248470 9 1
13.625465 436.387600 11.054712 0 0
81.811951 341.105620 140.607530 19 1
181.459370 287.180450 -55.112843 29 1
69.089157 270.711300 21.771233 70 1
79.993782 236.865430 -39.322254 0 0
133.610380 279.341250 -90.502975 31 1
49.765671 153.661680 16.474012 1 1
112.053490 159.792800 118.910680 51 1
32.001556 294.447360 88.413071 71 1
43.090153 116.791920 -55.654312 61 1
-225.833270 431.373140 144.500820 8 1
-283.562230 397.384250 129.271000 6 1
143.986540 183.385790 24.830393 39 1
150.047930 466.722560 -97.777107 67 1
-79.058952 215.910870 0.477708 63 1
0.900587 72.647346 25.960932 0 0
-4.143365 239.567470 -33.299549 0 0
-19.239330 200.621920 22.522615 0 0
-121.600070 284.730190 120.105320 0 0
28.561361 271.967160 105.631990 71 1
-6.458656 154.523280 140.859310 66 1
46.712322 144.910510 -42.276344 0 0
44.838593 170.585630 -91.811234 55 1
115.625470 403.183170 -54.168156 0 0
-50.362583 397.759400 11.140610 74 1
70.505417 376.835970 -120.186580 44 1
-16.788336 279.971650 27.000004 71 1
76.482414 497.005620 -16.584173 16 1
18.651167 139.622730 -53.712086 0 0
-152.684950 191.096660 -12.990788 63 1
37.534821 388.778500 -113.837140 44 1
1.618686 386.399480 193.821700 9 1
133.014270 298.570190 -38.926117 32 1
65.499527 407.605320 122.657120 18 1
25.921597 143.049120 -25.966915 0 0
69.460648 503.937010 -40.700397 16 1
-231.680160 363.306980 168.336700 7 1
27.616880 460.879060 148.073300 10 1
-25.279943 345.043270 91.291664 48 1
-203.103090 419.098020 118.107600 8 1
11.022372 70.481880 1.441672 0 0
139.871090 447.705930 -65.101524 56 1
7.120336 302.383450 90.669220 71 1
-105.457240 188.573760 46.608875 68 1
-102.590000 478.734220 -25.942831 3 1
-108.830470 146.674360 32.019653 27 1
105.662540 491.842560 6.084268 16 1
79.643875 408.586940 -88.736206 43 1
78.879181 354.307100 -225.375980 2 1
11.606376 517.730590 106.926160 45 1
47.396412 286.339750 37.806637 70 1
50.206032 478.505130 -101.064630 16 1
37.000679 112.305790 -1.770142 1 1
146.970830 181.051060 -44.528637 41 1
155.163740 272.944310 97.701927 30 1
22.546692 269.763090 6.941324 0 0
-25.411154 287.211460 78.474174 71 1
51.460510 400.023620 -95.008064 44 1
49.551891 400.343720 157.716900 18 1
13.490914 225.654880 -70.800209 0 0
-86.911629 303.814880 -201.709760 15 1
7.162609 85.216293 -27.948595 0 0
-4.631983 452.699040 132.312150 10 1
21.059696 90.326645 -19.475170 0 0
-0.496473 413.309810 4.757212 0 0
-57.686863 207.829850 156.037260 25 1
142.855990 286.724850 32.321796 30 1
131.585310 193.139140 18.101311 39 1
-80.804031 453.246280 5.908791 4 1
57.221626 534.984250 135.669460 17 1
38.021549 152.643400 -28.958899 0 0
30.126902 124.276460 14.972787 1 1
-64.635864 391.503600 192.180940 9 1
-26.013399 322.925600 -138.575070 33 1
-18.908173 227.258620 -30.212872 64 1
101.912240 372.827030 -101.902860 44 1
53.759460 344.531710 103.855190 50 1
13.751494 278.062500 -2.928844 0 0
87.578300 152.889420 -16.524797 0 0
-0.029059 275.233220 76.919746 71 1
2.359471 64.326683 -20.356083 0 0
60.303387 526.528810 62.493988 34 1
7.754728 164.932680 25.789694 1 1
-39.159687 460.898960 -78.953033 5 1
11.118724 515.097530 81.775604 45 1
-194.453770 389.012700 179.087570 7 1
196.473890 184.775760 -44.019035 40 1
-84.994507 213.336040 -19.248257 63 1
-192.971120 380.051730 132.109770 0 0
-127.921460 201.183290 -123.603770 20 1
63.011826 537.166690 41.169807 34 1
191.531110 279.040100 -71.212204 29 1
17.243244 251.686080 -88.262383 0 0
-11.037665 109.509990 -119.472290 22 1
8.134162 171.412640 -1.059168 0 0
-40.255611 204.389980 -115.983150 72 1
45.816463 268.716400 92.726570 69 1
4.895096 325.701570 -144.689300 35 1
-8.453236 171.379270 -52.629459 0 0
58.254177 337.916440 77.719849 49 1
-56.555611 228.105270 -15.463063 65 1
-73.701508 126.270130 -68.491653 0 0
34.120605 354.264430 -41.428020 0 0
74.816116 517.879210 -7.405019 16 1
26.879629 523.767520 66.404320 45 1
100.985230 542.367370 7.108776 34 1
93.060081 490.133910 -44.604015 16 1
-10.487965 498.019440 100.449940 45 1
-145.635830 127.592030 26.789360 26 1
-103.568180 260.526580 111.414950 0 0
30.722000 134.283540 -134.036220 24 1
-92.360512 147.769550 -60.020176 13 1
31.590281 505.190580 58.658234 0 0
61.957352 370.821930 -208.903460 2 1
22.583624 268.707430 77.679535 71 1
-14.746132 181.458400 129.081090 66 1
-88.830605 136.069350 -82.103050 11 1
-43.142300 291.300450 56.125443 71 1
-12.617763 42.437756 -6.151592 0 0
1.129501 81.572510 7.750423 0 0
33.917782 444.513310 123.853840 10 1
-65.435394 442.910950 -104.764570 5 1
-115.634550 226.186460 -103.008100 20 1
49.688896 198.069120 -27.065231 0 0
-22.804743 408.697910 72.103928 47 1
28.718367 135.000580 -104.681270 24 1
-142.654160 302.566220 118.325360 0 0
97.183556 439.824680 -58.084190 43 1
131.887270 389.415620 -4.718207 42 1
-26.669279 191.928860 79.555923 66 1
156.584640 432.693080 -81.862862 56 1
-43.274487 180.138150 67.041634 0 0
97.395210 430.329620 -16.511400 42 1
-35.768135 103.794010 -111.457880 37 1
-280.937740 376.712830 138.684910 6 1
-147.628710 356.459810 138.151820 0 0
-119.379760 164.880370 32.847958 68 1
207.470170 254.302870 -74.826210 29 1
-29.210854 554.925290 -37.375675 76 1
41.713741 416.602750 137.129520 18 1
7.884564 137.170140 -128.553710 24 1
145.745470 289.147490 -67.685699 31 1
-18.249983 331.424800 -40.961201 0 0
-1.382134 39.035225 33.757484 0 0
-11.399311 150.530110 -31.890310 0 0
-254.442610 410.160250 170.382340 6 1
-75.585686 195.260100 138.637120 25 1
-224.133120 383.824010 178.819890 7 1
-237.792110 405.823760 99.335197 8 1
86.491005 262.035280 64.209740 69 1
4.749429 116.060650 -58.232628 0 0
-39.585720 187.211620 115.527270 66 1
22.003542 122.018470 -59.939919 0 0
8.062124 39.044456 3.125269 0 0
96.943268 181.517300 -14.060778 54 1
-108.245580 210.789220 -15.308294 63 1
88.108009 289.147090 65.056297 30 1
126.687870 419.030330 -27.719540 42 1
15.283095 268.875670 -35.896385 0 0
-183.790390 391.637050 151.444410 0 0
-4.061143 379.742830 -169.564420 46 1
106.292260 425.649050 -58.082485 43 1
-12.049338 81.878174 -80.382385 0 0
78.878593 105.221210 -80.354927 61 1
-67.160507 231.289690 -4.434227 65 1
-59.836079 186.747680 176.473300 25 1
-141.504150 115.105830 -86.039589 14 1
129.348910 476.318790 -101.549820 67 1
12.299512 302.510250 16.996075 0 0
-48.327278 113.921430 -114.280820 62 1
-3.978114 366.791690 85.059418 48 1
75.207771 329.644170 82.880936 49 1
112.775510 414.688720 -74.803864 43 1
119.462590 445.221280 -55.538517 42 1
-40.778294 457.902980 -97.540634 5 1
33.896717 235.648280 -166.816590 38 1
-46.722389 554.825010 -62.052731 76 1
11.079697 204.887020 -16.124939 0 0
38.221817 481.845640 42.464985 0 0
-172.446230 376.360690 146.620670 0 0
-151.230470 205.052030 -104.650020 20 1
-68.453079 208.413280 94.990540 0 0
60.549583 261.936890 38.303864 70 1
-202.078870 424.197080 99.201775 8 1
94.929337 183.421460 117.712000 51 1
133.865540 501.185090 95.995087 12 1
145.493350 490.032620 119.229530 12 1
-69.756577 319.349980 -187.263060 15 1
118.728260 293.296360 106.710130 30 1
85.168221 318.169370 46.593281 49 1
-20.474430 549.331360 -48.431549 76 1
-5.970681 337.170040 38.631065 0 0
-45.175297 133.567290 -72.493126 62 1
-126.913890 460.065250 -76.354355 3 1
-1.001732 551.316350 -32.002041 76 1
82.679436 177.299770 128.571230 51 1
-37.203888 406.264530 -52.685219 0 0
89.567711 489.775630 -12.446502 16 1
-71.916161 215.198880 -29.482632 63 1
-15.752344 245.731380 -13.023780 0 0
28.186317 186.814190 -71.768875 55 1
-16.987291 225.031140 -74.215515 64 1
-41.153088 323.600710 -192.750890 15 1
-169.427200 418.541840 -56.436710 3 1
73.223763 523.360470 47.298111 34 1
46.509094 518.747250 -8.548318 16 1
-63.158489 288.877620 34.952808 71 1
7.469764 89.013969 66.112045 0 0
10.141855 381.570530 -162.084110 46 1
-23.632231 282.358490 40.060944 71 1
24.263821 47.428211 -16.609722 0 0
-26.013685 293.944270 -130.121730 0 0
-225.500660 414.931980 83.796616 8 1
25.573683 270.568700 37.216141 71 1
107.221250 531.533140 18.972111 34 1
10.260849 250.983030 34.464718 0 0
172.954100 408.013060 -82.119469 56 1
-239.898880 395.952610 118.558550 8 1
-10.161666 281.883700 2.882899 0 0
-2.620110 349.966550 -21.280483 0 0
-81.899170 301.172850 -144.636990 33 1
7.551125 165.909420 -39.896458 0 0
-81.580505 151.470870 19.923820 28 1
-70.319183 459.056550 -6.737988 4 1
119.475360 196.283130 -19.439209 41 1
117.184430 470.643130 14.534108 16 1
45.269676 246.191240 -148.989090 38 1
70.417648 389.698850 -178.974870 2 1
-0.685732 388.218230 213.886690 9 1
9.484113 132.240660 -82.232635 62 1
6.232085 291.983700 105.663740 71 1
-65.342476 455.806430 -90.882622 5 1
51.247398 140.646150 46.352409 1 1
65.197006 162.609860 78.468224 0 0
55.694664 177.745120 -84.490311 55 1
-24.948282 93.095734 -103.859640 0 0
19.944042 332.135130 -20.788595 0 0
-47.674065 200.996310 91.185913 66 1
-205.570330 401.339780 114.837890 8 1
30.129141 306.015560 -185.048540 35 1
102.309940 295.681120 84.225449 30 1
-156.776640 436.631320 -35.828934 3 1
70.091957 181.827240 -62.072281 53 1
-131.210080 233.205900 -75.180054 20 1
0.276697 92.458450 -44.764202 0 0
-25.233791 266.587740 -118.933330 0 0
-51.592110 456.533570 1.311861 4 1
-51.891571 202.077800 71.057938 66 1
113.331720 179.256180 102.433300 51 1
99.242104 367.040890 -124.395230 44 1
39.525360 420.744570 118.381570 18 1
49.042957 509.281800 -61.069122 16 1
-13.635695 189.814540 -1.553918 0 0
-17.063536 234.840840 -93.278381 72 1
-19.205206 191.325450 -26.397255 0 0
59.851788 262.428340 -18.720495 70 1
114.872420 175.202270 73.107170 52 1
42.550198 509.290310 127.620980 23 1
36.386665 117.859410 -170.291700 24 1
-26.600309 407.495090 8.520188 74 1
-11.552107 138.366470 36.001492 0 0
14.918327 397.322880 -126.081380 46 1
106.566210 528.500120 77.339912 12 1
-94.732628 192.416090 56.616028 68 1
46.142487 277.576350 119.772600 69 1
-86.014709 199.174350 112.241370 25 1
141.035130 287.130620 -19.568104 32 1
-39.192566 332.323150 -164.508680 15 1
-189.713960 400.340120 170.378890 7 1
34.335884 515.639100 -74.142113 16 1
30.691908 532.344360 91.222122 45 1
-37.943298 128.567780 -91.996910 62 1
52.235287 280.290250 85.321747 69 1
-7.028611 54.867203 -28.973610 0 0
43.193184 390.276640 -147.097230 44 1
11.966284 257.602260 -20.771088 0 0
-11.918817 402.477450 4.495881 0 0
34.184868 161.462550 41.553448 1 1
-136.599910 132.679350 -63.653362 14 1
-56.266235 392.601930 221.392590 9 1
-122.837390 186.399840 60.316486 68 1
30.055622 268.584230 -11.422307 0 0
156.692690 260.658170 88.759842 30 1
175.300460 247.376070 76.263123 30 1
5.516294 416.507870 45.061386 47 1
204.045930 262.937440 -47.679317 29 1
20.962212 98.417206 -2.587567 0 0
-246.650390 414.310670 153.224980 7 1
70.341072 53.651516 -7.041898 59 1
82.704193 248.167270 88.632347 69 1
-15.759220 172.569730 -18.709574 0 0
67.310539 218.713900 -35.206299 0 0
11.332402 111.330490 33.773804 1 1
-54.056488 380.218990 195.548460 9 1
130.581630 463.210080 -0.758942 16 1
113.609910 398.205600 -17.849268 42 1
-97.329178 135.602810 30.600256 27 1
48.039272 262.163020 138.935490 69 1
-21.083454 127.001940 7.152960 0 0
43.442825 131.534270 -62.074993 61 1
-13.669889 403.852810 60.782188 48 1
158.173660 430.192020 -57.473236 56 1
63.238724 257.422030 10.256983 70 1
-40.447620 322.592220 -114.122790 33 1
-30.542063 216.503020 -44.782494 64 1
26.205050 56.208393 -4.708526 0 0
-26.918798 230.622860 -10.002774 64 1
-13.474077 383.593990 191.002940 9 1
-12.702248 269.767360 39.481342 71 1
-14.444372 255.301800 36.192860 0 0
64.846809 397.035520 -105.999660 44 1
-1.902175 0.759617 -7.890172 0 0
22.335022 496.217320 44.118904 0 0
-25.357359 556.250060 -61.598320 76 1
-15.728112 30.239819 3.143137 0 0
23.085699 483.665890 -109.276660 16 1
92.627266 406.349790 -81.782944 43 1
91.505974 492.644290 3.335121 16 1
-184.008610 369.613740 136.483220 0 0
-87.210480 225.466220 -28.799170 63 1
86.276077 334.492250 101.370320 19 1
196.292620 351.265010 -73.557663 56 1
-138.505070 197.006410 -33.007648 63 1
-208.001480 372.045290 173.027130 7 1
23.730682 157.923610 -17.641384 0 0
55.004978 121.814960 -89.411133 61 1
-15.288000 392.005250 -128.087520 46 1
24.130985 285.428800 108.200010 71 1
2.404015 149.510130 118.781250 66 1
62.527699 520.058110 160.270170 17 1
1.038138 126.953480 -36.617157 0 0
-38.744705 54.501171 -179.457350 21 1
185.812360 186.549590 -21.204582 40 1
64.492218 507.959930 103.302290 23 1
-3.251038 61.018059 -7.541341 0 0
44.328411 182.682530 -53.435341 55 1
-187.221920 389.766390 123.124000 0 0
91.057411 237.083850 -29.954588 0 0
49.338562 482.103060 -38.391418 0 0
11.299470 376.199980 84.222466 48 1
-181.744890 376.819340 158.858140 0 0
-9.297709 194.235810 -70.515610 0 0
160.123720 462.992430 -85.676834 67 1
-91.030075 147.040360 9.513855 28 1
-49.591747 244.663710 -14.649631 65 1
-86.501755 138.488330 65.345024 27 1
-204.299190 426.747830 165.917400 7 1
-10.125566 426.742220 89.381699 18 1
-69.139893 206.854810 43.309772 68 1
-15.721064 283.273380 88.656509 71 1
2.413620 321.829070 0.455225 0 0
-62.516052 296.665220 -215.047470 15 1
-66.462013 75.707024 -95.418510 37 1
117.887800 393.612120 -2.494858 42 1
-92.597374 257.185270 -111.370610 20 1
-267.844210 397.383090 160.140670 6 1
46.065521 491.891110 -76.942780 16 1
102.360180 308.546330 65.960876 49 1
-189.868000 411.428440 143.086880 7 1
38.144802 455.458680 -37.383347 0 0
-21.151386 93.612244 -33.412697 0 0
112.703920 196.058240 -34.876637 41 1
28.189350 421.775390 142.672240 18 1
-262.839170 401.114650 134.908890 6 1
107.535970 173.464220 -20.354357 0 0
33.065929 356.420230 104.071950 50 1
-153.598480 113.197690 -78.776245 14 1
47.114281 531.072810 -23.686245 16 1
2.300507 171.988830 106.097850 66 1
7.782456 288.396150 -29.729826 0 0
-64.792198 120.233150 -77.805435 62 1
15.199528 71.569290 -38.220085 0 0
-102.809130 209.169950 -33.526890 63 1
-228.786650 383.406620 86.382896 8 1
-283.001220 391.199920 142.956420 6 1
-92.280052 210.810810 8.991327 63 1
-53.926826 60.482697 -167.661710 21 1
75.502754 238.432530 124.637280 69 1
-274.274600 408.618590 149.107820 6 1
-8.693943 356.904910 28.798002 0 0
93.050980 288.129270 46.737404 30 1
20.057684 428.634950 112.481280 18 1
133.805470 284.209110 83.146065 30 1
14.360485 286.253300 25.244492 71 1
5.934569 393.191860 18.043051 0 0
137.591580 387.330050 -20.615499 42 1
21.952070 374.174130 -8.202333 0 0
-130.197660 225.412350 -96.880112 20 1
-38.620979 220.758130 -33.926899 65 1
-82.317070 136.798600 40.998890 27 1
-7.408961 418.249450 110.562910 18 1
94.694824 164.256840 138.785890 51 1
-110.082090 179.394520 142.245530 25 1
152.528840 457.750060 -108.464350 67 1
0.140835 129.906800 -145.261380 24 1
-132.502080 449.018220 -45.901081 3 1
-42.887680 79.564339 -15.263097 0 0
-15.184770 291.684630 108.647190 71 1
49.931221 532.521000 148.632680 17 1
-19.249899 386.852720 230.289470 9 1
52.087521 252.089230 56.627655 0 0
76.370903 376.833920 -191.401730 2 1
166.319430 402.801450 -56.593204 56 1
6.970769 446.313720 121.855060 10 1
33.951374 454.587800 38.146969 0 0
66.940865 333.881410 54.167755 49 1
-51.485298 175.513370 80.728340 0 0
10.363696 40.524479 -14.956244 0 0
16.563671 189.559720 -37.670109 0 0
134.280730 494.229310 -60.586765 67 1
14.129875 118.123370 -173.995100 24 1
-86.883896 124.332620 -74.177071 11 1
45.665451 401.062040 -107.771680 44 1
-19.312391 365.674530 -175.242610 46 1
-212.176360 403.433500 176.669720 7 1
-11.809664 213.628830 -4.125854 0 0
36.106388 135.272640 -13.207171 0 0
25.093876 162.565050 21.768555 1 1
97.692963 422.216030 -28.328903 42 1
29.542824 395.545930 -130.820560 44 1
114.516010 480.350740 -10.636417 16 1
8.986320 409.550480 57.548752 47 1
-226.709790 413.592680 170.886490 7 1
94.158730 437.971890 -44.472538 43 1
41.254532 109.371120 -19.969812 0 0
61.458412 270.013310 -6.217235 70 1
15.563934 252.742130 -155.060320 38 1
38.859081 271.299560 3.314079 70 1
6.213656 229.006300 -25.458143 0 0
26.003859 307.814880 69.370697 71 1
2.956478 125.965490 41.682949 1 1
2.715325 234.059650 -67.789719 64 1
-56.957367 221.995880 -43.038174 65 1
101.318330 287.084230 71.050079 30 1
-82.380981 242.469090 -17.927898 65 1
-215.826050 386.239140 132.506530 7 1
-32.947258 466.970490 -11.146384 4 1
-142.449390 196.611210 -1.991233 63 1
-38.579483 399.753880 3.892599 74 1
-161.401250 345.005950 122.717860 0 0
-58.356289 322.940610 89.336533 36 1
164.700580 255.520200 69.886086 30 1
9.433345 238.377840 57.370964 0 0
-87.907082 314.214140 93.031693 36 1
-121.802120 212.568480 -118.371610 20 1
-146.521410 449.546690 -24.150955 3 1
145.083630 446.300780 -44.474945 56 1
41.920460 54.505699 0.369088 0 0
-82.171135 307.635830 76.094475 36 1
-60.211281 438.221680 -126.712350 5 1
-118.711590 142.042770 -49.110737 13 1
-82.575920 323.248500 76.928596 36 1
-29.558189 291.176180 13.637714 71 1
18.528921 319.442540 -158.138030 35 1
22.790333 452.145050 127.186420 10 1
5.087715 270.359990 28.523634 71 1
-227.968460 391.107180 109.003740 8 1
4.456113 272.504550 55.161282 71 1
7.308674 274.201140 -14.991476 0 0
-110.837690 144.346530 -66.095840 13 1
