30.472185 161.201390 7.888444 57 1
53.675991 170.520260 94.117859 3 1
64.008484 149.372280 53.252609 16 1
26.722397 149.365920 -83.654404 21 1
-45.970413 119.774850 66.538483 38 1
21.704416 134.413760 86.021904 17 1
-95.179008 205.163620 -5.591062 71 1
-5.926757 46.146572 5.677512 0 0
-17.851391 265.305970 128.930020 12 1
49.328945 164.904420 -65.450851 37 1
-95.169449 143.902790 -82.404480 70 1
-42.767460 262.742710 64.966545 4 1
76.052299 118.505460 44.450706 30 1
-81.870872 286.472050 -5.712852 14 1
-28.563637 13.645820 -9.793445 19 1
53.308994 178.891140 -2.014234 36 1
39.699844 131.394440 74.273788 17 1
27.197807 184.416750 88.680649 3 1
-92.756653 152.899870 -109.310610 70 1
70.413773 118.952820 9.026217 31 1
75.028778 114.488140 -41.916260 27 1
-96.144844 274.512570 13.076942 14 1
97.503517 103.489200 57.096127 15 1
-12.089810 325.369690 -51.590229 45 1
-27.872065 320.571720 -51.637314 56 1
-62.902687 127.031150 52.413120 40 1
-114.146900 106.190880 -35.211132 44 1
6.280599 200.364490 45.996017 63 1
52.385277 266.336640 12.352209 8 1
-38.865414 204.482410 3.722086 35 1
3.703298 278.222720 -8.808992 7 1
-1.990281 162.734880 9.635576 0 0
54.597095 62.051208 -20.380484 64 1
-7.213078 90.785828 18.344444 0 0
-7.330243 77.926727 -61.901516 33 1
-5.809831 84.068306 -3.643507 0 0
-32.453312 159.218930 -20.353689 59 1
-72.636024 144.183360 -36.931473 44 1
45.416187 182.390460 78.940788 3 1
-22.883369 95.162308 -23.412489 0 0
-34.657883 106.004670 4.793086 0 0
70.306091 51.412342 -20.435453 64 1
-91.780151 142.107010 -33.256588 44 1
21.773203 22.302696 19.945265 65 1
95.196457 288.132780 -23.383463 23 1
23.415289 285.992370 -54.427113 2 1
56.406677 78.102303 -56.330765 29 1
69.660942 122.805740 27.045528 30 1
-126.881260 146.304440 -116.338180 70 1
81.943962 283.403140 -24.728809 23 1
11.414945 259.968630 86.001534 6 1
-82.973824 104.327130 -13.727854 0 0
3.914065 132.294890 14.773234 0 0
-25.949034 149.430220 -20.975819 59 1
-92.636032 103.771260 41.525425 40 1
-73.847893 205.163010 2.862730 71 1
-51.218220 127.534840 31.805918 54 1
-52.352470 255.672240 5.375772 0 0
-37.995056 193.007280 87.905830 5 1
-11.759217 256.581970 86.555496 4 1
-3.055906 33.230988 4.910865 0 0
56.821354 71.915161 -73.050606 26 1
-76.162491 289.252200 16.990412 14 1
26.636768 143.202060 69.634102 17 1
-85.222610 119.532370 -29.934355 42 1
-115.970390 108.539490 -15.068578 44 1
108.665340 104.608400 -64.179802 22 1
-10.698809 243.829540 70.193703 0 0
57.588737 180.230160 -35.130840 20 1
16.008612 187.676100 42.258389 68 1
9.038088 112.816380 115.801440 17 1
-22.024580 213.808180 0.387643 0 0
77.270340 134.327910 43.959343 16 1
-7.986295 266.704770 12.775999 9 1
-42.162922 149.283680 -28.223236 55 1
-89.787300 302.709930 -6.401154 14 1
31.474600 126.519180 99.833237 17 1
5.605601 63.086998 -21.210890 1 1
76.504929 156.291380 68.899017 16 1
58.845547 108.777740 119.651250 18 1
-94.740860 317.180820 37.220554 62 1
110.715030 279.465390 -27.507648 23 1
8.264377 176.437420 63.867779 0 0
97.445992 110.912930 -49.447132 22 1
11.514003 122.417140 -0.499648 0 0
77.058975 146.461120 95.295555 16 1
-40.161858 39.329624 -10.047768 28 1
-21.065573 110.528850 22.525513 54 1
54.145531 159.047610 50.892658 16 1
-3.519105 159.178760 -5.869287 69 1
4.465020 144.032070 15.711652 0 0
29.296957 144.961820 -93.179008 21 1
-55.499294 168.261600 58.886913 32 1
81.611076 66.224976 -69.742424 29 1
100.082710 110.179460 65.097763 15 1
106.467230 103.188370 104.755970 18 1
-40.671787 82.914436 1.870803 0 0
-86.224770 100.041090 68.610680 39 1
-65.921204 280.505250 54.135017 13 1
-7.050438 119.524330 104.725950 17 1
-38.770184 196.455310 76.773468 5 1
14.191805 154.448650 18.392624 0 0
68.368462 142.852040 77.274910 16 1
-94.900742 106.939640 83.311089 25 1
-1.357869 170.156890 -57.527355 49 1
-54.318295 42.086136 4.897148 28 1
121.540620 98.288834 136.745390 18 1
61.717022 113.619840 -45.794407 27 1
-33.243462 115.871030 79.946716 38 1
64.173637 60.464634 -28.391521 64 1
26.522480 265.960360 -15.387850 0 0
-106.566710 143.933350 -74.874962 70 1
-60.421749 291.494170 -19.096758 14 1
-14.085702 192.478730 36.254467 0 0
4.101663 190.239840 -56.268463 49 1
-55.297466 238.506360 99.068817 4 1
24.254677 195.470020 77.767868 3 1
-48.815037 102.992150 80.181320 38 1
-49.191967 161.324080 -18.207830 55 1
56.810593 135.772140 83.123428 16 1
97.032059 147.483540 90.354317 16 1
8.619463 51.987659 -5.039824 1 1
-12.262089 147.983320 -81.114319 51 1
93.585426 104.868700 113.415930 18 1
86.604828 170.851460 -50.901230 20 1
-10.287370 116.453930 12.145415 0 0
-128.186920 144.701750 -126.876590 70 1
-30.165522 255.719210 77.178947 4 1
-90.773010 113.440830 45.158981 40 1
78.829735 109.121430 110.525980 18 1
15.906199 279.827820 -7.796566 7 1
17.315567 185.338940 170.735990 34 1
5.512828 263.910250 66.850807 6 1
-27.557873 317.878390 -32.201935 56 1
-20.167196 141.800400 -95.011391 46 1
7.828095 75.289047 -16.262436 0 0
47.922142 286.063960 -48.135635 2 1
-73.378304 147.430630 -16.122618 44 1
-1.107333 255.672350 147.796660 12 1
6.187574 253.627230 165.275510 12 1
-7.525878 84.524323 -49.341904 33 1
39.646477 261.373990 84.591179 6 1
34.098713 73.681885 -67.568130 26 1
-46.247509 117.768420 4.884965 54 1
-33.764381 102.396640 -29.219898 0 0
4.139861 276.862000 22.820425 9 1
-22.168203 152.272320 -100.426360 46 1
-9.009801 258.562500 6.209163 7 1
-15.994495 94.404785 -33.704063 0 0
-34.941841 169.207410 6.942574 0 0
70.473579 289.668950 -39.057499 23 1
30.896633 285.507020 -0.408647 8 1
-10.581924 255.311690 48.560925 10 1
-64.487831 278.271700 34.172920 13 1
36.769619 134.627560 57.009430 0 0
72.522072 109.967690 29.121367 31 1
-12.605541 15.077284 -3.903435 19 1
38.733849 138.664860 -103.486870 21 1
52.706409 114.608150 -85.051498 24 1
-122.726390 144.180180 -68.125160 70 1
-26.704897 63.550816 18.701443 0 0
41.692795 157.133790 -83.088676 21 1
-87.262306 293.482030 23.631260 14 1
-29.101105 296.469330 27.514345 13 1
70.979446 103.773830 -29.025642 27 1
-144.933010 139.331360 -112.388760 70 1
-33.273602 98.789429 88.302025 38 1
-53.771011 140.081330 -125.030590 46 1
60.141308 121.085480 90.654121 18 1
105.466000 279.865720 -47.490944 23 1
48.866360 277.869870 -13.178825 8 1
99.376755 152.347310 67.160843 16 1
14.747029 137.263630 -0.472422 0 0
-90.494164 89.686111 57.228432 39 1
26.223600 266.216950 133.904140 12 1
27.469078 179.706040 109.393040 3 1
-12.980099 169.296370 -5.848132 69 1
-11.703923 322.371950 -71.098953 45 1
-98.248215 138.340240 -62.926300 44 1
63.414452 80.204529 -44.671715 29 1
-47.245541 246.962750 3.173622 0 0
-88.383797 105.282330 -51.868042 42 1
99.150139 164.065540 -40.072182 20 1
-31.335436 146.612010 -83.532089 46 1
18.121578 248.684540 -8.185365 0 0
26.582901 259.828430 153.109620 12 1
-3.297082 6.881973 4.758924 0 0
1.008203 327.399690 -22.969458 67 1
3.557363 195.961490 74.186867 63 1
6.572152 121.747670 -9.818172 0 0
97.907608 81.705193 145.397830 18 1
74.515335 108.830150 9.444038 31 1
34.661728 290.673860 -8.491825 8 1
49.233559 122.513440 -71.411835 24 1
100.066700 144.414780 59.394295 16 1
59.135342 278.502040 10.538094 8 1
12.164988 90.003952 -12.394692 0 0
10.081623 130.045780 103.287320 17 1
-33.206779 69.195549 11.893373 61 1
-79.089333 114.096760 33.220741 40 1
-52.524544 106.312390 47.948803 39 1
26.777327 189.224980 11.235489 68 1
30.176420 274.821500 62.385391 6 1
50.898239 138.770000 65.910934 16 1
-2.201363 171.445240 -7.626794 69 1
20.003616 177.243610 9.630240 69 1
-3.972176 141.212040 -35.350750 0 0
-62.823566 294.761290 50.679043 13 1
-45.804443 282.993740 45.218353 13 1
-24.103437 153.528430 -40.791252 60 1
-110.495570 116.686680 -26.030102 44 1
-37.323784 138.281910 -123.295540 46 1
-12.943863 140.685940 18.774147 0 0
43.975960 256.167390 20.810198 8 1
-2.864903 138.082780 9.925841 0 0
101.434200 138.931350 81.165749 16 1
-14.131542 228.247040 10.549793 10 1
-41.884815 18.223278 -20.903149 19 1
-8.965982 161.820890 18.997297 0 0
-70.880524 174.456020 36.229565 32 1
-80.548859 311.711240 32.526890 62 1
-7.600376 197.003390 60.890018 63 1
-72.713638 297.826170 37.136391 13 1
-3.812978 22.607410 5.999202 0 0
-33.443012 87.524216 -16.365290 0 0
-121.606000 100.432410 -29.892485 44 1
-4.303175 200.480620 43.736454 68 1
-103.694830 282.929200 13.730123 14 1
-72.302711 297.978730 -14.671627 14 1
49.002350 283.869810 13.495655 8 1
-20.414354 185.891920 10.009745 0 0
49.410206 185.022350 17.793943 68 1
-1.212353 85.961067 -25.240294 58 1
18.374840 167.523940 -48.824848 37 1
48.023422 164.938420 -39.294315 37 1
-30.325857 92.983955 -32.464851 0 0
-36.011559 231.640620 3.138638 0 0
39.312672 161.462460 -64.090561 37 1
-32.637447 69.079063 -12.917504 0 0
23.534307 63.456978 -80.238907 26 1
-87.161133 108.811940 54.517845 40 1
-54.194767 150.368520 -84.649467 46 1
-12.975841 190.811810 -53.812523 49 1
-46.836590 190.571470 91.960136 5 1
11.456554 205.604540 65.558830 63 1
-42.288494 131.188430 17.017532 54 1
86.638016 153.763180 50.262207 16 1
-90.681290 290.834750 -10.612699 14 1
71.671539 115.273010 105.255550 18 1
58.463352 175.660520 5.925121 36 1
-53.630169 285.740660 65.907394 13 1
-55.809677 132.843410 43.164742 40 1
33.627396 176.372390 -38.801392 37 1
52.659065 284.613280 -6.217784 8 1
-52.786068 145.051700 -95.249367 46 1
-27.108469 115.821160 -19.903603 0 0
-38.766685 42.593739 -0.360784 28 1
-42.452148 37.581795 13.657678 28 1
43.908272 155.237140 47.460979 53 1
-0.105473 63.270515 -5.977317 1 1
-29.636093 133.458360 -132.238780 46 1
-4.712429 254.301330 78.689369 6 1
-20.954742 198.826200 87.397881 5 1
79.008835 99.735291 -12.093966 27 1
21.022648 274.578280 25.503073 9 1
47.771851 141.714510 -106.343970 21 1
68.646988 102.675010 119.804550 18 1
54.878746 69.591347 -38.351498 64 1
-66.043968 142.024810 -84.660431 46 1
-6.718964 259.445650 155.741230 12 1
37.051033 61.484184 -90.358711 26 1
-42.103458 63.811508 15.783394 61 1
-42.837723 252.423250 90.152153 4 1
-50.385841 124.080930 -47.862202 0 0
12.114052 195.937030 89.237808 5 1
-23.596827 168.278530 5.593040 0 0
118.966650 93.817848 51.390526 15 1
-108.312250 148.833190 -121.759070 70 1
71.826485 175.698530 -41.683952 20 1
7.866876 258.746120 144.758560 12 1
-6.296090 61.812477 2.077471 0 0
-17.248894 141.032230 -128.462510 46 1
-42.209686 326.867800 1.490179 11 1
-19.871273 108.603820 111.243280 17 1
72.435249 127.894340 49.675999 30 1
-102.352440 320.681790 42.436871 62 1
82.507286 146.091080 87.074829 16 1
66.273369 125.969030 37.345787 30 1
-131.086320 96.556206 -39.463932 44 1
-1.056031 147.963260 30.709089 0 0
43.038055 288.726410 -17.104467 2 1
19.784809 49.699978 -20.835638 0 0
20.975616 199.554350 60.913853 63 1
-10.953012 150.038800 2.377648 0 0
-6.029783 129.091610 -20.589270 0 0
-91.906944 141.364440 -44.805656 44 1
-2.311079 107.031490 118.776340 17 1
-12.011453 181.935300 -62.270634 49 1
-20.874264 203.001910 69.151726 63 1
-53.186939 84.733582 -13.464817 0 0
-59.626770 299.902950 -10.148004 14 1
79.106911 106.851070 22.133202 31 1
-34.036640 79.304703 12.758527 61 1
89.114342 113.418500 109.183230 18 1
21.392496 43.498955 -6.133536 0 0
79.952827 114.123420 -50.398666 22 1
26.420555 135.835950 42.659111 0 0
3.435827 73.540405 14.195505 0 0
26.915508 162.062970 -1.246501 0 0
48.359375 139.835910 45.529812 30 1
58.341827 108.038690 36.715256 0 0
12.965939 255.813740 157.956680 12 1
-38.351357 154.686770 -85.776764 46 1
68.287407 120.043110 -61.140514 24 1
65.685036 118.533800 -74.716194 24 1
46.485195 268.920560 69.050468 6 1
-86.752075 310.153810 18.824280 62 1
-46.877132 86.899574 42.260525 0 0
-9.168086 212.400530 56.642788 0 0
14.627345 158.498780 -65.235291 37 1
90.525932 106.247060 50.849590 15 1
-58.911213 150.809200 -71.487106 46 1
12.514357 161.766330 -12.521427 0 0
-5.161000 101.299960 8.521620 0 0
-79.675117 148.015270 -83.987045 70 1
42.915127 195.568880 34.523273 68 1
0.938357 175.426530 24.983452 68 1
-13.670624 331.602840 -87.407356 45 1
-20.420137 242.391110 2.176424 0 0
45.759007 148.024050 -92.392876 21 1
14.927007 171.107850 15.844665 69 1
43.119942 140.372590 72.702957 16 1
-11.529482 174.874250 6.815366 0 0
-23.568504 100.104160 124.796140 17 1
-91.133408 151.264160 -99.857430 70 1
-52.965538 94.757980 45.988224 0 0
-22.392679 178.300420 -26.817614 66 1
92.365067 115.844110 -60.353542 22 1
-8.008121 140.948140 73.395111 17 1
-26.707378 286.893650 -6.313287 11 1
-46.633133 110.718100 -34.685337 0 0
33.029404 289.588130 -38.938976 2 1
45.126945 288.638730 -37.004364 2 1
-95.595734 106.037630 -33.407272 42 1
-17.260918 253.629390 57.821972 10 1
76.129089 170.337680 -34.127888 20 1
-42.446426 240.317520 109.467530 4 1
-17.466137 146.602570 -39.403870 60 1
-24.322231 197.154530 3.550177 0 0
73.769394 175.365130 -17.356354 20 1
6.671196 107.295290 8.541970 0 0
102.315670 100.612790 123.100210 18 1
96.598221 282.962070 -39.505127 23 1
-117.834210 101.429240 -8.663958 41 1
85.114609 172.558900 -17.512810 20 1
30.882936 163.152560 -45.388470 37 1
-39.319572 186.596450 39.870770 32 1
-88.175079 288.912140 36.047199 13 1
76.771507 106.049160 40.092007 15 1
-81.567619 117.477790 41.916355 40 1
16.960350 282.824860 31.423063 9 1
-64.299477 119.635720 58.508099 38 1
100.932080 110.269720 95.426018 18 1
44.815308 283.030880 -59.693424 2 1
-6.471507 131.230730 88.203903 17 1
-66.442780 109.559810 47.681488 39 1
8.522036 40.960701 0.881419 0 0
118.359210 101.135010 35.820217 15 1
-39.592682 112.854320 72.475220 38 1
112.886380 101.984170 -55.369797 22 1
-63.513027 109.665080 77.855438 38 1
0.732605 274.422910 13.214981 9 1
-83.055229 145.230030 -30.429520 44 1
28.271120 187.662810 41.271606 68 1
-57.376232 184.873600 21.339516 32 1
101.660210 94.218277 134.559800 18 1
-69.959587 125.017460 25.121822 40 1
31.323563 161.093190 18.263838 57 1
-107.377780 107.069170 7.426386 41 1
-121.171690 146.647230 -133.117170 70 1
95.008881 286.820860 -58.566826 23 1
76.177803 117.264980 95.595253 18 1
-37.076027 283.305510 50.960178 13 1
-26.275383 229.059860 -1.693144 0 0
55.213348 154.350800 64.509445 16 1
-23.368557 80.126740 -22.022839 58 1
6.176436 194.171110 34.179539 68 1
-63.911671 244.227950 84.896805 4 1
-21.629526 318.693630 -42.829105 56 1
12.181668 149.102010 -10.909713 0 0
110.452610 138.810790 64.880806 16 1
32.474010 157.873230 -69.724457 37 1
-33.739906 153.258710 -45.654888 55 1
26.014256 188.410000 150.927260 34 1
85.175797 85.153343 141.813750 18 1
31.736115 95.482727 -25.508760 0 0
15.874652 285.717190 -15.642631 7 1
-86.339149 311.878110 -2.926606 14 1
-37.633633 116.966080 -7.903275 54 1
36.824001 274.519170 8.160348 8 1
19.792116 283.087130 -66.646416 2 1
-8.570709 48.203484 -8.052884 0 0
-10.859836 114.095690 113.797790 17 1
-91.604401 324.173280 30.221443 62 1
18.101583 197.469850 30.079212 68 1
3.147750 325.696170 -40.425995 67 1
113.577810 92.278275 141.809490 18 1
-30.863621 189.926850 101.299450 5 1
16.541876 191.728420 163.465470 34 1
-4.681585 156.982510 -65.426765 51 1
-83.256470 289.869480 4.695688 14 1
4.817214 180.667130 -60.096848 49 1
60.538921 123.269070 22.777586 30 1
22.615528 119.240460 27.891647 0 0
31.125671 190.543700 82.575859 3 1
48.098778 164.366030 98.728973 3 1
15.262267 291.804290 -51.197102 2 1
27.593077 136.871370 52.306007 0 0
0.307473 159.120120 -56.251095 51 1
36.174934 176.735380 102.320020 3 1
-117.599850 105.739170 0.201838 41 1
-64.633255 283.483430 -16.270340 14 1
-84.107910 279.618100 10.448928 14 1
-8.229236 146.564970 24.525894 0 0
-0.648487 186.788850 -68.763794 49 1
5.858652 270.742920 5.604280 7 1
-48.203049 187.442540 -36.404034 35 1
29.115499 281.196290 28.643824 9 1
24.871105 164.442600 -72.452980 21 1
-68.924706 289.252080 -4.822066 14 1
-83.356895 319.867610 26.904335 62 1
-104.995540 188.034180 33.164459 71 1
97.899696 57.370861 -70.483292 29 1
-15.311084 256.822390 70.962006 6 1
-65.178543 23.596958 0.303899 28 1
-57.550335 287.797640 19.303253 13 1
-10.826939 205.101680 75.373672 5 1
-12.311303 316.356780 -41.679535 67 1
-56.833603 186.582050 5.536831 35 1
-78.657158 282.900390 50.757061 13 1
-12.547320 58.334583 -6.874741 0 0
-13.100837 98.259483 19.934076 0 0
-32.567314 303.931920 -2.681581 11 1
82.014084 78.183884 -40.005424 29 1
-20.558790 196.854190 98.619308 5 1
-136.809750 141.743100 -129.862050 70 1
-30.502071 151.606170 -75.570305 46 1
-143.983020 137.332470 -121.653590 70 1
80.643097 93.866776 136.809630 18 1
-49.961830 297.612300 18.115868 13 1
2.415576 177.831280 -74.576302 49 1
36.795490 273.868130 -21.227854 2 1
-88.287827 114.205490 98.347992 25 1
-40.371574 197.623080 -14.689461 35 1
-42.621777 11.579290 -3.812860 19 1
105.646860 109.524280 111.966380 18 1
29.392893 17.534548 34.808147 65 1
-51.344078 145.546250 -111.560620 46 1
-45.367413 79.046875 -5.309013 0 0
-71.299080 278.866300 -6.100832 14 1
19.071266 186.627350 92.980316 3 1
-60.223545 147.908860 -44.064373 47 1
63.701946 110.827190 -15.380126 27 1
-39.071110 318.548280 -7.591447 11 1
7.407691 165.143650 -62.859997 51 1
66.670860 116.555840 17.757271 31 1
-57.573730 181.515990 42.136860 32 1
78.175171 282.116210 -33.577053 23 1
-26.997055 37.553455 -0.165724 0 0
-39.641026 163.554290 -14.717950 55 1
-102.188780 102.810300 93.940605 25 1
6.501247 282.233370 -23.133734 7 1
-21.044870 176.813280 -102.216170 48 1
-47.387543 186.316650 30.310698 32 1
-29.385370 180.688750 -78.969566 48 1
41.992268 180.329040 37.581375 68 1
33.853214 76.703896 -52.239639 26 1
3.876998 144.763060 -39.023067 0 0
22.422804 179.360640 27.227695 68 1
85.720917 165.157040 -26.150730 20 1
-110.447250 189.248200 25.201963 71 1
84.114647 289.414760 -32.808399 23 1
70.202164 119.403730 87.805016 18 1
-3.538950 213.275830 0.389487 0 0
88.114830 103.790280 41.943275 15 1
-37.687511 130.720280 8.890907 54 1
-19.626947 279.014860 59.407276 13 1
32.796764 198.172900 17.952682 68 1
87.649590 100.229680 133.451110 18 1
-81.481827 110.803340 -44.210499 42 1
100.026790 114.075540 -72.711227 22 1
-88.341675 145.790700 -75.155586 44 1
-10.328190 315.993590 -29.829607 67 1
2.478288 136.347090 -0.041111 0 0
-14.818203 178.136250 32.258713 0 0
-75.026192 308.428220 7.971218 14 1
47.438061 126.818580 37.233410 30 1
-35.560760 45.754379 30.926790 28 1
-61.437206 193.535060 -26.898891 35 1
-73.748047 305.068760 21.148413 62 1
33.026958 271.543700 -65.203827 2 1
37.543949 133.097750 87.071365 17 1
32.686943 64.458412 -72.666550 26 1
-53.318268 120.384100 10.623392 54 1
-63.807045 170.437120 47.770840 32 1
-80.560478 294.718440 32.692211 13 1
-99.640854 135.839690 -48.222607 44 1
56.810661 119.290840 -78.137009 24 1
2.156926 19.501070 19.765545 65 1
40.147217 184.085590 10.473448 68 1
18.847336 172.548320 0.433013 69 1
4.965514 204.661420 54.443390 63 1
105.184420 109.355100 -44.433456 22 1
12.379190 157.614610 3.861897 69 1
36.102222 293.100460 5.999820 8 1
73.499001 141.420150 56.292114 16 1
-36.111034 115.090810 3.556746 54 1
-10.492060 23.236977 -9.071691 0 0
64.663216 289.061740 12.952873 8 1
94.776474 52.883282 -56.733898 29 1
3.635870 175.973500 -1.795218 69 1
104.925150 162.384570 -48.980030 20 1
10.991822 142.517850 74.798477 17 1
-40.506321 146.655240 -97.705101 46 1
-49.904747 137.487960 17.408777 43 1
-34.155365 150.477890 -16.775644 59 1
22.657867 200.106580 41.923733 63 1
0.447969 55.367058 9.351135 1 1
102.505680 140.941160 71.210922 16 1
79.966820 283.284640 -52.091915 23 1
-73.309250 113.702500 67.343063 39 1
-14.024799 112.020610 -20.488813 0 0
62.526627 114.006610 106.085850 18 1
18.449362 177.370100 -51.160500 37 1
-10.539014 224.775450 67.734047 0 0
-111.881890 107.354360 -23.362524 41 1
-22.604105 286.736050 43.555443 13 1
-26.626524 133.324980 27.452545 50 1
-27.047464 150.770200 -91.225365 46 1
-69.607376 260.006840 32.116440 13 1
-57.470242 39.660492 -3.760698 28 1
87.546417 280.256440 -45.973351 23 1
43.679871 74.411507 -66.037796 26 1
45.571884 117.843430 95.940254 18 1
-4.191560 270.846770 -0.155294 7 1
26.151104 285.137240 37.421421 9 1
-58.538723 151.745480 -57.699860 46 1
-112.470990 328.137760 49.179379 62 1
-90.358147 281.664150 17.598871 13 1
-35.692886 246.974700 93.234352 4 1
-9.451901 259.782840 119.762250 12 1
-78.357567 276.224120 -14.165434 14 1
-23.517279 93.268852 -38.776966 33 1
-12.406672 131.672790 15.637625 0 0
-41.073505 203.213910 -5.247371 35 1
-15.886217 319.949010 -58.642906 45 1
58.309509 175.537750 -12.161634 36 1
-58.335541 292.798680 1.968662 14 1
-22.916433 315.782650 7.339540 11 1
-47.055054 123.250930 -38.103691 0 0
-12.427165 146.602170 -47.186497 60 1
43.141758 171.836380 106.244440 3 1
22.940329 268.194920 62.333080 6 1
-23.174324 158.987810 -33.535919 59 1
-72.326546 140.051380 -51.913536 44 1
-2.561405 119.198430 2.588741 0 0
7.767457 184.797880 76.238914 0 0
-56.277058 131.552610 -53.727638 0 0
-11.301708 67.025429 13.631575 0 0
29.543524 23.372770 24.545113 65 1
-23.723320 179.995330 -62.979149 48 1
6.082852 118.239620 109.029450 17 1
3.632508 105.284280 -0.758923 0 0
-16.882383 97.433167 -14.300530 0 0
1.063622 258.375490 128.092000 12 1
67.301025 157.187560 65.564400 16 1
-52.781563 136.045520 29.095755 54 1
33.621998 170.186830 -57.643085 37 1
67.512718 171.681870 -9.492265 36 1
-39.529037 182.249280 -59.969395 48 1
-30.896738 214.997300 2.632690 0 0
-52.326271 139.559100 -60.918301 47 1
26.325058 177.069170 -45.025192 37 1
45.927238 171.493410 -47.980450 37 1
-5.455761 193.904650 89.452545 5 1
-19.856134 156.051570 -84.160721 46 1
-85.443367 112.212620 -35.221470 42 1
9.378567 130.885530 3.880492 0 0
-10.446346 139.141880 -29.396196 0 0
-11.279958 255.800950 27.015560 10 1
-64.961914 192.476880 13.727077 32 1
9.423274 255.573820 78.121918 6 1
21.768227 13.003136 37.364155 65 1
-39.547184 126.298480 37.082729 52 1
-55.809261 254.938920 76.009323 4 1
-21.561619 184.913480 -52.015385 48 1
-38.661205 178.579210 -40.229744 66 1
37.159122 53.299435 -94.101974 26 1
20.755245 153.283070 12.088437 57 1
61.183338 119.823310 -29.138102 27 1
17.037434 261.066530 125.146850 12 1
75.654991 114.182370 36.452198 30 1
-11.174961 144.508560 -110.760990 46 1
62.177700 176.819030 -25.689781 20 1
14.801763 178.456330 -64.331161 49 1
-10.509533 115.996390 -0.529673 0 0
84.270401 106.931800 127.467080 18 1
-98.386917 135.374310 -15.881121 44 1
-82.168190 144.353910 -61.136181 44 1
-16.669243 178.491010 -16.717686 66 1
85.768883 144.002670 75.781616 16 1
25.475992 152.318540 -74.051651 21 1
-62.831444 196.592390 -3.705045 35 1
52.580448 103.183590 116.561470 18 1
84.762131 278.888460 -63.821453 23 1
105.854650 113.099780 -64.115799 22 1
39.277023 90.584297 31.411238 0 0
-10.119010 185.833390 -4.351891 69 1
-100.708130 77.915871 49.686623 39 1
-43.623062 10.547709 -12.636814 19 1
-100.587690 112.021580 10.460995 41 1
-35.051556 246.195590 102.164270 4 1
-67.403801 135.665820 -64.079643 47 1
-76.301170 294.287200 -4.895964 14 1
-2.130265 268.290650 68.315483 6 1
32.265511 281.029390 -27.182087 2 1
-66.110870 150.751010 -25.759762 44 1
9.046186 157.851940 -57.634247 51 1
-94.470169 276.076080 4.232784 14 1
-18.534472 145.675290 12.656068 0 0
0.972775 14.977230 -1.602108 0 0
45.003139 178.327260 89.632042 3 1
-33.659458 316.508420 -0.597379 11 1
-46.159847 146.007630 -84.412949 46 1
6.705742 192.873630 150.020940 34 1
-20.305550 83.300171 -48.845417 33 1
65.631966 288.625180 -31.661379 23 1
-70.944603 268.660060 38.654156 13 1
2.982373 5.792599 -1.449123 0 0
-5.338161 31.318775 -6.461717 0 0
-16.066294 55.418968 7.348930 0 0
-40.733150 141.740430 -110.557840 46 1
-98.071014 120.802570 1.997412 41 1
-105.777240 120.393520 -13.469904 44 1
14.482997 179.940540 32.447632 68 1
-18.907248 127.984300 -1.510820 0 0
41.889072 280.034300 3.385616 8 1
-32.272026 290.945560 48.490387 13 1
-22.013088 105.432430 -16.872658 0 0
12.109274 204.595210 74.617668 63 1
-41.147076 320.569370 -38.647766 56 1
-34.499672 91.267441 1.110962 0 0
-16.150469 69.420319 -9.344434 0 0
-40.834076 11.612886 -27.109814 19 1
-53.435173 277.161500 47.593292 13 1
-6.620748 69.903168 -1.978867 0 0
-71.926262 89.614471 -9.085188 0 0
12.851641 16.666637 27.498184 65 1
54.894768 279.473540 -22.236406 8 1
109.208470 144.886730 77.953842 16 1
55.401272 262.195400 19.579233 8 1
-61.513035 299.884340 9.092562 14 1
21.755465 200.802610 52.180515 63 1
-13.645442 144.775010 -89.813072 46 1
48.636208 171.846560 -33.614422 37 1
70.096855 172.522750 -24.992098 20 1
-113.806340 145.387700 -89.531929 70 1
34.718391 266.395260 17.934523 8 1
-22.573097 134.464970 3.484446 0 0
8.296607 159.898410 41.597111 57 1
-28.189154 310.264770 -8.595878 11 1
48.195580 70.580063 -76.683434 26 1
38.188789 282.299770 -43.281937 2 1
44.543571 270.234310 10.648034 8 1
-53.553429 110.581670 81.178482 38 1
-10.207653 83.367584 14.583885 0 0
-16.986116 308.145480 -28.118130 0 0
53.332607 292.210360 -0.254896 8 1
50.604568 77.018959 -49.754898 26 1
-4.977147 154.394030 7.207686 0 0
-106.520510 286.940120 6.321335 14 1
-25.604994 247.371430 -3.592836 0 0
-100.875430 100.817210 79.794029 25 1
37.448704 142.071730 -95.019775 21 1
-12.510546 196.327070 84.251930 5 1
-28.819958 91.068939 -8.829083 0 0
-24.969707 205.147230 76.663002 5 1
64.020882 290.349640 1.603372 8 1
46.541630 125.151640 -53.128220 24 1
-40.982113 19.537928 -0.430830 19 1
-44.324535 196.909300 -23.903435 35 1
5.350641 115.619420 14.672331 0 0
28.922007 184.496800 30.958279 68 1
-4.052553 150.830170 -78.518616 51 1
-24.382004 146.416050 -11.106488 59 1
-50.054325 18.433359 -14.932201 19 1
-79.811111 136.137920 -70.499985 44 1
60.836544 53.351395 -13.378648 64 1
-0.469876 107.718190 -10.749850 0 0
-18.002565 126.098210 90.864761 17 1
-66.837349 143.407640 -112.113020 46 1
-5.913270 21.202019 15.080978 65 1
-7.692179 90.186081 -37.660252 58 1
-30.877848 272.695740 85.998322 13 1
-44.618462 149.415130 -67.844780 46 1
113.366130 102.107800 61.349613 15 1
-38.188416 140.257550 18.314861 50 1
48.803497 112.823950 112.050310 18 1
-19.794155 172.713730 -1.344261 69 1
-43.402222 131.918590 31.130503 54 1
-45.098312 186.243010 -25.935411 66 1
-42.302017 278.566010 75.617073 13 1
45.215530 133.385760 80.788246 17 1
55.960457 282.657620 -36.358883 2 1
-21.488525 177.681560 -81.496063 48 1
-46.483753 122.620610 16.200535 54 1
34.730263 178.104950 93.584938 3 1
18.276108 124.266630 103.951000 17 1
89.808533 168.149870 -43.237091 20 1
-0.999556 149.146790 20.368576 0 0
-5.478988 129.770230 6.997121 0 0
-109.760560 127.560340 -19.358557 44 1
-53.988392 181.323880 33.792007 32 1
-121.680360 147.209950 -98.056816 70 1
-18.021666 251.236970 11.555140 10 1
19.080408 192.452000 139.358510 34 1
-70.076180 295.725520 45.171181 13 1
-22.274836 139.691150 20.493370 50 1
14.242941 190.833440 112.410250 34 1
10.059302 136.069290 90.804405 17 1
14.781546 81.030098 22.787052 0 0
-82.756279 108.519970 27.629250 40 1
57.685486 145.720350 48.511345 30 1
45.092274 154.200290 4.601738 57 1
-45.104797 195.202260 -6.493196 35 1
23.576614 149.246930 -7.913345 0 0
46.694630 175.436190 -19.776127 36 1
91.059280 113.115940 100.342030 18 1
-72.304573 140.456300 -78.235977 46 1
-15.141669 140.140780 80.465141 17 1
-66.733040 304.563750 -3.868507 14 1
-39.287094 55.659237 16.826635 61 1
-99.970100 195.955730 17.212660 71 1
-20.019127 16.423130 -16.200274 19 1
64.096619 274.848720 19.768465 8 1
-65.544914 176.552090 28.271570 32 1
28.924980 154.405030 2.665995 57 1
-47.170662 156.166580 -44.161243 47 1
34.024811 165.002200 -74.407112 37 1
-9.266994 125.413970 -29.133907 0 0
82.117737 107.948000 13.585889 31 1
-30.840082 124.749480 0.644567 0 0
-36.245834 328.785890 7.465315 11 1
8.397478 186.570650 19.797928 68 1
-60.783146 140.788540 -75.022598 46 1
8.000341 23.061031 12.217310 65 1
45.637653 132.024550 67.208000 17 1
40.232391 293.814880 -2.665980 8 1
64.560066 142.243190 92.436264 16 1
-43.628696 317.790410 1.750061 11 1
59.066853 283.686250 -12.094528 8 1
-51.225620 141.834300 -70.121834 46 1
-125.432640 144.328020 -81.482300 70 1
34.513046 193.658000 43.274841 68 1
16.828884 114.856720 23.238310 0 0
-66.582092 142.698350 -96.139015 46 1
53.779930 122.540700 -62.423969 24 1
-36.967087 139.455640 29.578075 50 1
-31.537643 108.779910 33.230186 52 1
0.224036 134.761140 84.103813 17 1
10.911862 77.842873 13.651894 0 0
-19.461906 142.434890 4.354702 0 0
55.412678 124.690510 43.340996 30 1
-58.817139 273.138060 9.282061 0 0
7.806213 262.492490 114.257650 12 1
-12.660537 199.538270 0.170808 0 0
-94.980919 325.343020 40.872349 62 1
25.297892 160.723420 -51.638668 37 1
-13.358438 43.113567 -2.722374 0 0
-37.020283 182.244450 -25.935841 66 1
15.882081 276.770750 18.390856 9 1
-39.633472 70.704742 6.392083 61 1
-18.225204 76.380836 -61.985088 33 1
-34.998333 256.950930 0.196058 0 0
97.750916 64.618324 -45.218987 29 1
68.995132 132.345280 42.629528 30 1
86.220856 62.277786 -56.894196 29 1
-63.516029 183.555790 33.279835 32 1
67.433601 75.560989 -71.772049 29 1
-30.639057 103.454730 -37.151577 0 0
-29.130007 199.816020 91.926407 5 1
-12.597647 90.110184 1.412188 0 0
91.404968 156.575590 63.900986 16 1
-130.991350 316.482760 44.349068 62 1
49.850956 95.127991 31.762907 0 0
8.003444 270.613010 15.549685 9 1
-5.589617 150.337490 -38.195557 0 0
63.049255 72.566635 -40.845142 64 1
-81.001091 124.170550 78.875259 25 1
83.512840 111.399350 39.064590 15 1
-36.765274 176.945110 -84.618309 48 1
-48.656368 246.367950 91.635185 4 1
-54.530476 192.497040 86.555511 5 1
38.675022 187.736390 79.810257 3 1
24.837759 129.336990 94.726318 17 1
106.939360 100.558000 45.527782 15 1
84.826164 119.253940 95.944511 18 1
94.278244 162.729610 -27.900734 20 1
25.907993 159.195420 -15.489384 0 0
-30.180937 87.859222 -24.501184 0 0
-20.643932 298.605740 -21.320404 0 0
-83.450577 302.912170 21.953716 14 1
42.913853 173.624760 -40.263813 37 1
21.290546 258.632290 141.676150 12 1
-18.156105 149.767500 -27.143267 59 1
0.277957 76.898079 -10.571629 0 0
74.688995 68.673805 -59.869915 29 1
-56.551895 249.365510 82.367210 4 1
-66.593575 117.756660 41.759811 40 1
-119.402240 126.756070 -54.229668 44 1
-37.659031 178.124330 -68.326584 48 1
-123.297800 97.034477 -47.515656 44 1
-55.204426 116.022170 1.616056 54 1
-64.205109 141.933790 -50.387314 47 1
-22.248199 137.039170 -41.009983 60 1
-9.019917 252.515260 12.142379 10 1
-16.034447 260.831180 19.342896 10 1
35.178894 267.437320 68.416710 6 1
-66.179237 272.325620 56.295086 13 1
24.912443 22.372347 12.085374 65 1
-26.120615 178.448640 -95.486954 48 1
-106.490520 140.174390 -63.482105 44 1
-50.237419 192.987110 6.633304 35 1
-5.115154 181.163560 20.202257 68 1
-56.745136 117.316800 61.518105 38 1
-47.043758 17.332655 -27.567196 19 1
43.983047 134.487760 40.663471 30 1
-51.824520 102.040720 88.697609 38 1
-39.736858 122.507260 11.123284 54 1
-102.507420 108.761270 -5.724277 41 1
-9.481686 330.283230 -61.777729 45 1
-12.950768 197.731230 50.621571 0 0
96.028358 104.990620 38.209953 15 1
65.077744 139.204040 56.960842 16 1
-79.923935 312.158870 14.294832 62 1
-48.723698 147.292420 -60.545895 47 1
-11.671580 161.222170 -7.900348 69 1
0.748667 46.951149 -6.280530 0 0
-23.175562 188.439650 1.778630 0 0
74.993050 115.799150 -58.320183 22 1
-85.053467 104.229840 34.938290 40 1
-30.234402 137.809340 -47.436142 60 1
56.526554 151.961980 56.544621 16 1
4.582555 93.304214 -14.213070 0 0
-52.238518 125.785340 23.597553 54 1
-1.878819 127.946780 94.792809 17 1
-58.124214 122.971500 33.307217 54 1
-53.334629 148.862750 10.147760 43 1
15.486827 274.531130 31.829491 9 1
-109.610130 194.949770 3.004697 71 1
-8.147015 188.715180 30.871763 68 1
-16.713045 118.883000 7.027513 0 0
-35.535137 113.551260 38.867226 52 1
62.373852 121.295210 -49.334274 24 1
-0.250750 263.459720 13.086568 9 1
-9.973233 38.039360 3.665298 0 0
20.969625 57.763798 -28.865189 0 0
11.485931 269.262700 69.324753 6 1
-32.773964 145.543870 -31.190987 60 1
50.838249 61.559532 -12.895441 64 1
22.877209 180.632610 -35.689262 37 1
94.743530 96.768890 130.427800 18 1
-49.288986 194.431870 28.966396 32 1
-51.616577 145.942060 -26.084801 55 1
89.741646 159.754270 55.235031 16 1
-70.080940 116.473630 51.891727 40 1
-46.163410 294.948460 28.847681 13 1
3.477296 26.257561 3.798604 0 0
92.529099 150.131850 77.352028 16 1
-29.093943 70.209007 -5.417472 0 0
50.496471 147.951460 61.886860 16 1
9.872073 154.754410 -16.728100 0 0
64.008743 78.436012 -52.848270 29 1
-14.114092 95.097847 -25.152489 0 0
61.147923 134.944690 44.479229 30 1
-18.338665 158.813130 1.170207 0 0
-17.186012 122.948820 100.026320 17 1
-44.560867 186.141400 46.427311 32 1
48.810829 177.611720 21.717518 68 1
-9.357069 96.717667 -10.496470 0 0
42.719776 160.607450 -56.511753 37 1
96.769836 86.294434 138.515870 18 1
-27.003212 141.808350 -114.235450 46 1
-88.026947 143.532260 -14.082105 44 1
-77.189766 123.535320 53.699963 40 1
7.943971 259.001650 132.769910 12 1
-26.097963 114.228310 111.363020 17 1
18.022181 193.608310 126.152310 34 1
9.758179 197.738310 56.207256 63 1
-49.845032 286.641420 28.477623 13 1
85.337830 162.729370 41.070019 16 1
5.708216 116.226660 2.870314 0 0
-4.486991 325.527590 -67.968552 45 1
-25.761721 197.417830 80.281898 5 1
3.981158 96.373322 -2.674480 0 0
-69.521515 147.320620 -55.284935 47 1
70.969131 283.468080 -27.744658 23 1
16.620937 116.571090 114.181300 17 1
45.859138 280.574520 -30.928860 2 1
65.154793 160.177170 49.484673 16 1
51.739189 283.502380 3.222493 8 1
-6.973451 133.953750 -0.998695 0 0
-10.225300 39.451328 -10.302711 0 0
-16.621096 258.862180 143.399770 12 1
-36.925423 133.795610 23.372454 50 1
-3.086030 67.204216 12.081701 0 0
-67.224213 118.560130 20.708321 40 1
39.814495 183.740630 27.328669 68 1
15.771636 145.343660 1.029408 0 0
92.679977 108.556210 125.078970 18 1
-70.946747 112.150360 33.189243 40 1
-60.804916 130.710710 24.787777 54 1
-41.339317 200.557010 83.662994 5 1
-52.962811 119.204510 70.916756 38 1
-3.996302 206.774440 68.744743 63 1
51.041660 64.490311 -88.980171 26 1
73.461800 159.532030 60.031010 16 1
82.956360 102.951080 120.293070 18 1
-35.867214 172.287830 -2.255922 0 0
34.206917 190.699100 14.520473 68 1
-18.079788 38.323330 -15.262321 0 0
9.771439 272.254490 -9.470718 7 1
-38.207733 137.051420 -134.201080 46 1
114.830110 141.459140 72.907623 16 1
26.938179 136.887570 79.165321 17 1
52.065411 269.699950 20.374624 8 1
-66.317253 264.661440 46.695435 13 1
-65.220222 286.489470 4.613416 14 1
35.107349 153.507930 8.656591 57 1
31.339647 182.747020 147.281050 34 1
96.057327 107.934660 -57.001766 22 1
13.093668 194.920970 104.652880 34 1
67.450226 86.283630 137.526500 18 1
7.340499 158.848970 19.625156 0 0
43.384296 180.452800 -11.304599 36 1
-27.310177 243.637080 103.283800 4 1
-111.134770 115.335780 -8.946179 44 1
7.456367 129.404920 94.981499 17 1
55.510666 119.061710 83.207314 18 1
58.950665 115.954000 -19.977118 27 1
63.293522 95.404106 128.205220 18 1
57.039730 163.774950 -37.312897 37 1
-18.375303 261.453700 42.926239 10 1
79.015656 73.840057 -53.695286 29 1
-144.968510 140.343950 -102.725740 70 1
11.360943 173.673580 -3.759710 69 1
25.413338 151.943100 -91.330750 21 1
-48.289474 242.391310 103.141590 4 1
-13.766665 73.097878 1.816371 0 0
-48.043747 127.168210 63.077969 38 1
41.211353 275.149410 -14.248387 0 0
-8.004360 192.149410 97.067711 5 1
-37.192791 162.528030 -30.868792 55 1
64.644577 143.366460 68.688316 16 1
20.962667 126.822370 111.254930 17 1
-27.379189 116.606050 -10.571715 0 0
-97.323662 104.567880 -41.443306 42 1
53.793312 130.685180 48.916328 30 1
-37.060371 156.237560 -77.159653 46 1
-0.245912 273.693570 -14.365313 7 1
15.485167 162.536060 -43.019470 37 1
47.141548 67.716232 -40.226059 0 0
21.544739 158.467770 -8.611574 0 0
89.377464 65.686089 -66.779175 29 1
-77.926689 128.749940 85.215813 25 1
-10.865875 333.501530 -78.047707 45 1
-107.651030 326.905550 42.653606 62 1
-74.658272 201.276090 26.376009 71 1
-72.981934 280.846010 30.943800 13 1
89.868042 116.136730 -49.792980 22 1
29.556126 292.599880 -31.406921 2 1
-82.345993 196.240400 29.073303 71 1
3.113894 70.079994 21.577314 0 0
-98.212700 301.634060 -5.751269 14 1
-3.987819 204.833130 53.117348 63 1
62.875160 119.287980 5.934674 31 1
-33.959476 78.875862 34.107529 0 0
87.005562 113.313940 53.159256 15 1
-68.860771 276.520970 -16.040148 14 1
-38.412029 101.219940 -0.629051 0 0
-79.049599 309.623690 -0.071261 14 1
-18.789263 232.078430 2.041754 0 0
57.309132 287.314880 -49.610382 2 1
77.010284 140.658100 63.785263 16 1
7.557915 197.510600 130.279170 34 1
9.799561 192.946460 140.052830 34 1
-86.640121 143.792940 -83.312843 70 1
42.775963 136.814560 51.985294 0 0
-41.118916 100.106800 -26.619944 0 0
82.158661 115.100040 -35.676353 27 1
-11.669248 159.054380 26.144125 0 0
-95.544472 287.124730 2.207584 14 1
24.175919 201.697430 33.411335 63 1
62.298687 147.653270 79.718636 16 1
51.007202 141.822510 88.651405 16 1
-95.780838 192.298480 30.310780 71 1
39.309494 134.831740 94.807213 17 1
9.101108 171.319580 -50.824982 49 1
-14.424671 75.538368 -15.188458 0 0
-102.665520 129.823200 -10.108739 44 1
-18.499130 322.300660 10.251227 11 1
73.766670 168.867780 2.343990 36 1
-62.788860 133.334820 57.500057 40 1
-4.397949 76.352806 12.749438 0 0
-118.198680 119.645100 -25.472919 44 1
51.193195 69.326180 -23.628027 64 1
-62.363831 29.115124 5.519176 28 1
-46.180225 286.412750 69.002464 13 1
-86.135902 201.651090 2.655437 71 1
-85.142014 155.467900 -112.213830 70 1
35.169231 189.517970 6.453616 68 1
52.188099 287.700900 -41.430679 2 1
65.576752 118.703190 33.026897 30 1
5.953983 271.641050 28.812635 9 1
-25.089645 311.641390 -37.884239 56 1
-5.110303 262.130430 138.516560 12 1
-24.227671 156.776320 -76.954796 51 1
-21.730534 192.732760 38.858406 0 0
-130.855060 145.370150 -109.346180 70 1
18.480148 170.186290 -56.626007 37 1
-41.253521 255.522920 82.864685 4 1
-46.780788 191.799060 14.349077 35 1
-90.452583 203.841810 10.201238 71 1
-3.764377 256.681340 87.655136 4 1
-51.683796 188.713590 37.772560 32 1
-17.166767 189.471360 44.719276 0 0
-32.755497 161.265690 -45.529144 55 1
-34.508125 19.288748 -23.988420 19 1
-13.069120 198.209000 42.293369 0 0
-24.355104 157.783860 -18.523798 59 1
-7.207893 181.545200 -71.047081 49 1
101.272450 102.686520 112.378590 18 1
-19.775555 102.038410 117.955280 17 1
-25.252243 294.455570 -9.501644 11 1
-98.401161 111.335580 -22.394459 41 1
-92.305450 316.718050 18.678146 62 1
22.891769 155.794560 19.431765 57 1
-75.674637 142.167190 -44.906857 44 1
-40.444023 190.250350 28.663628 32 1
-74.781204 124.122140 70.987556 25 1
-46.328766 39.432747 4.479654 28 1
-97.563179 97.429436 41.109543 40 1
-119.925150 326.540190 46.631950 62 1
18.260443 274.928990 -13.802897 7 1
8.996990 166.515270 48.643982 57 1
-94.262833 87.326508 42.247555 39 1
-28.152966 16.800041 -2.186283 19 1
104.444790 104.078850 29.845598 15 1
-93.559166 110.940290 106.269200 25 1
-97.821510 297.441190 24.082827 14 1
71.206520 65.429459 -29.725134 64 1
-117.528690 190.224410 10.073327 71 1
26.887415 159.508670 -59.478836 37 1
32.328083 155.142490 -85.444588 21 1
-20.380630 243.122500 11.512159 10 1
19.725319 267.957340 72.381966 6 1
-28.370039 253.023960 3.255871 0 0
-56.513508 187.619630 -33.869045 35 1
-106.083230 131.058500 -47.575691 44 1
-41.660179 180.729830 -74.745979 48 1
-29.872242 281.627530 54.902519 13 1
-10.117774 239.693210 77.015625 0 0
-83.180862 114.584700 66.696732 40 1
53.443363 178.818080 13.132111 36 1
107.938270 145.191310 60.560818 16 1
-38.200413 287.448730 39.972912 13 1
29.199045 277.735690 8.587236 8 1
-68.733818 298.417300 21.463858 13 1
-58.560249 285.910430 9.711838 0 0
28.122019 258.226200 -13.309578 0 0
-31.678984 182.403520 -40.928860 66 1
25.582443 166.858180 11.246943 69 1
-82.105293 275.009490 48.865025 13 1
28.630222 174.952180 -32.739643 37 1
-2.085173 159.030750 -13.878219 69 1
36.578320 181.117750 -26.757063 37 1
8.265026 178.684860 11.116132 69 1
-28.416075 276.777800 79.180313 13 1
-95.675407 80.450584 55.416969 39 1
32.119534 160.830750 30.505945 53 1
14.465075 56.802490 -14.812890 1 1
-49.353241 172.299940 54.687607 32 1
-78.776299 107.007230 39.464390 40 1
37.383392 62.618515 -32.227886 0 0
-7.301847 264.732420 113.679280 12 1
-58.563820 148.796390 -23.438871 55 1
72.849205 104.994550 -11.405775 27 1
-15.893258 169.723830 13.799998 0 0
25.722857 186.087270 0.624450 68 1
-16.506899 34.762924 -7.054641 0 0
1.681435 184.750920 38.521996 68 1
-88.231956 313.552730 33.831829 62 1
10.719790 197.101430 70.687691 63 1
84.080513 170.316710 -36.470959 20 1
4.793248 258.359500 90.571678 6 1
73.575233 133.550740 55.193184 16 1
-87.353333 141.522960 -5.448086 44 1
-7.125569 78.278534 1.635970 0 0
-1.174098 161.339600 20.586330 0 0
-80.753838 302.813900 -6.108210 14 1
24.332424 287.449860 -25.904085 2 1
72.086426 152.313450 74.309807 16 1
-6.530640 167.160280 28.759583 0 0
-2.021019 86.746941 -33.097530 58 1
-77.014595 203.063930 15.200291 71 1
2.823336 114.957060 -11.494672 0 0
-17.975824 85.925804 -35.870907 33 1
-92.451164 110.185280 70.411171 25 1
-94.404129 153.386520 -124.540740 70 1
-85.117836 138.830550 -55.336651 44 1
-30.274256 252.420820 90.708412 4 1
-101.878310 286.769230 22.401821 14 1
23.681017 258.440860 85.082596 6 1
-53.550591 149.501790 -49.405033 47 1
-97.498207 321.967590 25.404924 62 1
-132.877690 86.612061 -48.229809 44 1
-1.393614 331.602720 -82.114037 45 1
-29.845346 176.881740 -71.836731 48 1
-62.469662 189.917220 0.721729 35 1
69.064529 107.280310 -21.495928 27 1
13.358184 259.880190 94.715385 4 1
41.768215 260.304750 77.037804 6 1
66.001114 113.693560 -65.427834 24 1
15.065540 262.479610 79.440681 6 1
-15.431399 101.739210 124.609790 17 1
-62.579063 145.121480 12.228813 43 1
25.582403 183.091380 157.075410 34 1
9.865343 184.687580 38.138638 68 1
93.787918 147.735080 54.927368 16 1
-24.275833 274.958830 -10.163242 0 0
-49.512508 177.538930 47.143360 32 1
-95.894714 113.434460 -0.062135 42 1
-69.277100 115.723340 74.052803 38 1
-43.536270 179.095690 8.682129 0 0
30.947632 264.981930 76.050453 6 1
-43.356064 44.928940 16.433210 28 1
62.132881 66.708488 -34.832153 64 1
5.682554 49.652115 -11.971776 0 0
-38.527966 146.879440 -86.844650 46 1
68.135521 119.394910 -44.305008 24 1
-121.640910 105.552240 6.963027 41 1
-29.066198 242.466520 2.651364 0 0
-29.683693 177.742970 -6.282821 0 0
91.106262 110.617410 -44.253857 22 1
-85.285698 202.409360 16.558691 71 1
32.325508 148.209370 -99.808868 21 1
-73.960686 263.844760 49.693043 13 1
-37.118870 105.522860 86.945419 38 1
-50.213100 165.745570 65.252800 32 1
-31.410900 117.341530 25.022427 54 1
-36.913734 319.114840 -45.382973 56 1
54.325645 173.833190 -18.749550 37 1
-38.580254 152.247070 -51.796711 47 1
-43.651978 115.963270 -2.852040 54 1
-23.370960 263.186250 -0.869694 0 0
69.872406 48.774998 -11.726801 64 1
-88.134033 197.319690 22.513182 71 1
-108.976110 121.123570 2.006721 44 1
29.504662 83.973625 27.568508 0 0
-31.908987 187.249570 109.558310 5 1
-73.889992 195.613690 16.957726 71 1
49.676502 72.372635 -56.112030 29 1
14.151730 46.503525 -6.578722 0 0
-50.957150 38.252537 10.887389 28 1
-66.522171 303.300840 4.105082 14 1
-61.564167 148.596910 -81.752281 46 1
-1.677778 192.892440 45.929695 0 0
73.032288 173.739500 11.076067 36 1
-13.442594 236.399440 10.916242 10 1
-13.678265 106.996730 -2.687884 0 0
-89.559547 99.237877 -64.627670 42 1
80.317924 290.962130 -23.426266 23 1
-95.817825 109.012090 90.816139 25 1
-93.335014 287.642490 22.408264 14 1
-24.421043 179.589810 -18.334753 66 1
-44.843159 153.603710 -81.060242 46 1
-44.956573 159.557330 -28.129583 55 1
-89.504990 304.802000 6.389733 14 1
-9.926706 106.608000 5.292564 0 0
-110.789380 149.347020 -105.817050 70 1
-43.831577 154.817290 -62.236076 46 1
-44.338600 326.434230 -47.734627 56 1
-30.179644 194.394930 85.990242 5 1
-52.024212 27.485765 -11.410065 28 1
124.447510 94.682869 45.813778 15 1
-47.414192 150.086930 -99.138924 46 1
-103.261310 145.985200 -67.958710 70 1
-27.266420 185.807190 -58.657295 48 1
-122.886920 109.842930 -11.407066 44 1
64.051498 175.364140 -40.886398 20 1
-134.741790 92.310539 -33.955887 44 1
-23.525801 181.702560 -39.638714 66 1
73.770584 114.854520 -23.620947 27 1
-84.651649 114.448850 81.322952 25 1
-12.005445 133.508770 83.139549 17 1
-33.721443 167.328600 -22.295826 59 1
-26.878769 221.532440 0.737039 0 0
-18.188072 152.654970 -34.529655 0 0
87.744499 288.610750 -25.646280 23 1
-29.994537 94.526672 -19.932959 0 0
-0.008187 93.463898 -23.487810 58 1
-30.365702 12.142799 -22.761688 19 1
-60.494572 294.425260 32.321136 13 1
-121.789830 183.398450 29.695042 71 1
-22.306913 205.674290 0.800431 0 0
85.168541 110.296910 25.583715 31 1
80.342804 174.912870 -53.091274 20 1
-46.730694 254.575970 75.387939 4 1
-3.797487 177.718190 13.191700 69 1
-2.022808 156.248430 -73.032516 51 1
51.141953 73.094193 -31.196583 64 1
30.304907 58.416573 -83.111671 26 1
86.034760 280.363070 -38.014420 23 1
36.596027 157.475520 -77.028549 21 1
14.671889 191.594150 19.007114 68 1
-122.552580 320.625340 42.289135 62 1
41.352428 139.569580 84.552483 16 1
64.740234 140.002810 85.004784 16 1
37.180832 283.595370 -54.103577 2 1
-138.369110 143.498290 -94.100578 70 1
11.933443 138.371630 -9.038507 0 0
46.171410 181.391560 0.005349 36 1
27.156797 124.446730 107.241630 17 1
68.111031 73.803818 -61.288231 29 1
-22.359325 82.580338 1.488759 0 0
-71.114044 283.200500 -20.504042 14 1
-7.556230 93.979797 11.242237 0 0
3.995418 140.941220 22.840567 0 0
-2.959401 204.719920 76.136070 63 1
-0.981267 261.839390 104.587650 12 1
47.351177 188.562330 10.128529 68 1
-35.909863 290.678130 21.771503 13 1
-73.613930 145.878280 -62.366714 44 1
10.537230 234.053730 -3.741918 0 0
13.545777 274.718720 58.460629 6 1
-52.297554 122.957120 3.408547 54 1
-23.857126 119.116260 102.617470 17 1
-65.582520 194.151460 -11.875919 35 1
46.590744 155.909150 16.846123 57 1
-70.168877 128.789120 85.071709 25 1
47.674217 290.438170 -5.199801 8 1
38.904922 161.767850 34.066624 53 1
-99.222084 145.828750 -88.870323 70 1
-19.959766 148.769960 -106.941060 46 1
-98.610802 108.357210 43.976528 40 1
18.180830 187.178920 178.179760 34 1
65.576286 177.454770 -53.197731 20 1
85.737831 117.708950 -63.834435 22 1
-25.160271 140.850230 -131.508010 46 1
97.734871 111.326050 111.126130 18 1
18.452049 86.605591 -21.183704 0 0
48.402706 164.651320 -51.611908 37 1
-95.787216 198.701350 24.132689 71 1
-20.760784 249.055790 95.890968 4 1
81.073158 153.154360 56.212883 16 1
14.368918 13.841460 35.038338 65 1
-1.536904 100.096690 -10.325597 0 0
-85.357101 117.260770 58.519875 40 1
-113.120550 118.151710 -51.701614 44 1
-4.520296 153.445760 34.990231 0 0
-119.267510 114.330130 -19.506218 44 1
75.371979 77.217155 -47.807739 29 1
59.614567 283.049440 16.907326 8 1
15.665042 193.155430 154.266630 34 1
60.055344 284.818790 -19.696320 8 1
-9.037251 142.272800 8.024733 0 0
16.488041 187.857360 148.514080 34 1
-12.479840 260.184940 126.823400 12 1
53.356216 76.133789 -42.625282 64 1
-37.434441 96.429108 -32.398422 0 0
27.461794 187.005920 138.385530 34 1
13.699093 197.341490 63.036377 63 1
111.584090 99.349182 38.965443 15 1
71.479431 98.042511 126.198260 18 1
-25.789219 235.422380 2.944895 0 0
16.899885 179.591830 16.483442 68 1
-9.568435 19.839157 1.472390 0 0
-20.857805 193.615650 9.481934 0 0
7.124701 151.882610 31.511099 53 1
65.386360 173.930980 11.719135 36 1
39.649559 286.067410 -0.874130 8 1
-66.180817 127.851550 31.235119 40 1
4.373238 274.151460 -2.196229 7 1
69.523262 122.528570 44.714218 30 1
-11.269056 123.696210 9.764854 0 0
10.863221 110.292880 123.258570 17 1
40.107838 279.246150 -25.838764 2 1
-2.665537 162.530960 1.982468 69 1
65.503769 111.138280 -72.714531 24 1
-20.959690 276.946500 66.829659 13 1
61.306782 65.157471 -22.379807 64 1
-36.402573 249.820340 6.530728 0 0
-36.135212 307.433650 -8.708858 11 1
-67.362984 198.385120 6.388859 71 1
-73.907448 306.974090 -7.967590 14 1
39.659145 154.076340 41.200893 53 1
35.902462 72.613968 -60.092472 26 1
-54.628414 192.528780 23.828356 32 1
4.444345 155.890430 -4.439880 69 1
-89.997070 104.183450 49.129452 40 1
-19.912901 186.773910 -67.994934 48 1
-30.685627 178.698010 -13.977338 66 1
43.948975 72.088280 -24.207691 64 1
29.629852 132.976670 86.548447 17 1
96.613724 281.582700 -27.283134 23 1
26.447941 169.692290 -60.231888 37 1
-84.905083 311.145050 26.274773 62 1
