-101.078640 101.786150 -49.425644 27 1
-7.665778 272.946870 -1.651490 0 0
-103.090140 230.000960 -91.459274 8 1
-117.682550 204.628980 13.317330 15 1
-53.030643 374.473510 78.320198 10 1
-18.652658 68.695114 -5.217685 0 0
82.087585 318.646150 -31.606688 12 1
92.574684 108.697380 54.907990 24 1
-66.372169 180.165910 -115.641220 11 1
-5.257910 361.409420 32.430679 0 0
-83.889450 295.360170 -0.052870 8 1
-38.543282 113.143880 -63.718361 27 1
6.578479 348.528750 -88.851265 0 0
96.971809 100.881850 -53.337387 13 1
54.655716 172.037170 -87.707008 20 1
-95.159447 348.146880 40.233833 10 1
23.125196 157.435200 -11.356350 0 0
-26.565544 354.895420 127.824130 9 1
-56.202301 413.267790 -24.768389 4 1
-51.155788 220.399860 -67.652565 17 1
-64.734070 214.900730 -6.519963 16 1
-92.519287 171.346570 82.589661 16 1
15.086388 303.004700 -214.110430 5 1
10.798704 137.261150 -94.921745 13 1
70.828148 222.682940 -70.445450 28 1
134.815860 293.200530 -123.446600 1 1
45.699997 372.908050 47.850330 14 1
46.074944 203.666700 -173.792050 23 1
32.453915 72.780685 11.409787 0 0
60.039284 338.418460 -167.176500 5 1
78.329475 194.407470 19.199257 20 1
54.929436 329.712070 -75.745811 5 1
-52.221870 289.757870 95.699326 7 1
-18.962973 178.078060 18.725817 0 0
-96.856972 138.992280 -86.404686 15 1
-1.944351 391.551090 -32.569744 0 0
2.731081 402.502170 -123.013540 22 1
20.784391 207.899700 -71.383827 0 0
118.975080 205.349380 -50.585579 28 1
112.186600 303.094240 6.013509 12 1
55.806641 123.639450 -74.947395 13 1
-52.662052 375.635930 29.091072 10 1
-89.385208 293.645940 59.409958 7 1
123.849170 171.260060 -16.080311 20 1
-75.424568 167.913180 -1.940675 0 0
-9.258799 85.598839 -89.927475 27 1
-2.405745 294.503300 -43.979977 0 0
-2.018863 317.148710 15.023751 0 0
-53.528206 259.281860 5.875349 0 0
-106.043420 277.438900 -38.605362 8 1
-7.141302 -2.706826 0.798239 0 0
32.752064 223.858630 -134.008130 23 1
49.382370 121.778440 -120.721730 13 1
62.365292 106.411570 20.379442 24 1
96.921402 91.229927 -151.333530 13 1
-19.252804 423.457790 48.168556 14 1
-21.800211 408.604890 4.797657 0 0
86.111176 301.306610 -163.379380 5 1
18.345169 233.824010 -34.493778 0 0
90.607338 298.525120 -70.912636 12 1
-3.305226 111.380730 -5.999791 0 0
-12.751431 231.696760 -88.232529 11 1
88.027283 144.282640 -51.849579 13 1
-153.377750 197.106090 -11.039816 15 1
17.393747 358.433380 128.844120 9 1
78.746529 361.360720 -125.115630 5 1
129.757720 289.039060 -30.851233 12 1
13.450878 384.544950 -170.006810 5 1
-121.901980 311.155580 -10.598678 7 1
11.626234 173.404790 -48.886269 0 0
-49.130730 295.027800 -23.042112 8 1
86.962944 192.189620 -165.594640 23 1
-98.356819 193.951950 48.496223 16 1
11.214677 395.277980 52.807278 14 1
44.834827 338.235690 -114.782700 5 1
-114.897380 298.159700 27.508556 7 1
-101.649660 206.827160 -23.705597 15 1
-41.055859 209.838120 -106.315760 11 1
165.390050 287.080750 -89.624443 1 1
-150.710220 194.572130 33.270370 15 1
-33.017647 84.174179 -38.100147 0 0
-75.588715 394.074010 3.465539 4 1
-31.069580 406.025450 -104.321730 22 1
-23.744862 383.420440 101.916610 9 1
28.613443 328.769780 -187.352190 5 1
-1.119027 34.766365 -3.607334 0 0
-40.701706 180.779080 -12.695210 18 1
-13.080277 236.781720 -13.013253 0 0
48.375797 208.455460 -97.479126 28 1
-75.009361 393.789090 53.416897 10 1
72.744812 352.480990 63.993980 14 1
-74.481468 253.349950 -84.872040 8 1
-24.450958 383.983060 56.023079 10 1
47.969849 188.716540 -55.116623 20 1
109.341740 308.194370 -101.366380 1 1
-53.065205 310.249300 13.113606 7 1
48.061569 184.181960 -11.008884 0 0
31.694601 403.725590 -38.631283 0 0
-65.946823 116.052330 -86.821564 27 1
-10.909932 146.557950 -7.773063 0 0
-105.949940 257.061550 -68.235229 8 1
5.248485 323.693360 -63.147263 0 0
-71.200569 121.213400 -50.102833 27 1
96.427170 199.253420 -77.198418 28 1
-36.482174 208.350220 13.605658 0 0
-68.569244 346.603760 63.323494 10 1
25.057993 385.944580 21.816277 14 1
111.225520 170.635930 -48.876007 20 1
-77.944283 195.776570 19.791676 16 1
76.979095 141.793810 -95.730011 13 1
-80.682426 168.693470 -78.305641 15 1
-46.642475 410.280300 64.853394 10 1
28.942755 114.998720 16.977308 3 1
-156.672880 250.270080 22.925184 7 1
48.122482 392.538300 -110.275020 5 1
40.050522 234.253750 -60.989021 28 1
-18.491930 214.035860 -59.543949 17 1
8.557838 136.670620 -33.628052 0 0
15.126838 375.808930 -106.618560 0 0
-73.499283 197.841610 -39.865028 15 1
-15.466957 368.104580 -12.666163 0 0
66.792572 100.556170 -140.189940 13 1
45.729885 161.609880 -35.623402 0 0
-4.383854 119.717490 -118.944210 13 1
40.872589 365.463750 -170.975660 5 1
-1.142376 0.069911 -31.897675 25 1
-43.233978 215.236690 -31.948999 18 1
92.422211 224.769260 -45.247677 28 1
59.108074 90.774307 -8.731770 2 1
-6.190505 407.950990 -61.861629 6 1
63.287010 364.239870 21.714024 14 1
-15.118279 25.717188 24.424973 26 1
-0.677105 179.691570 -7.919494 0 0
96.906624 186.424180 -6.874220 20 1
-17.278446 395.928860 -147.384200 22 1
-10.133629 436.516420 15.597599 14 1
76.622849 177.190030 -64.953857 20 1
-4.176862 336.882900 141.414580 9 1
-48.759941 425.194760 4.206862 4 1
112.160960 126.429900 -42.195137 13 1
64.268738 290.325990 -55.889198 0 0
-34.855225 9.863504 -6.272745 26 1
-74.090111 298.406250 32.716282 7 1
82.609428 338.235780 -145.493560 5 1
-76.832314 282.741360 -29.519428 8 1
102.462840 297.854250 -42.550266 12 1
-111.998260 152.965090 -63.068020 15 1
155.664150 272.893800 -133.179870 1 1
-72.409401 387.603550 -29.358086 4 1
22.295521 222.146880 -105.383840 23 1
-127.771160 270.935970 31.539946 7 1
-68.199982 187.147160 73.591248 16 1
17.792391 381.088900 -140.286770 5 1
-14.749795 390.284790 27.671923 10 1
54.759731 355.156620 -142.239290 5 1
76.144066 314.824620 -91.656807 5 1
-4.381927 361.966060 108.771920 9 1
-62.331219 299.812810 69.692970 7 1
4.339645 363.507080 -40.610207 0 0
-4.219908 260.551330 -28.197863 0 0
6.696808 331.115910 -214.419690 5 1
-97.382103 317.120420 13.773609 7 1
133.053630 286.889590 18.298237 12 1
-42.674480 233.136000 -0.586048 0 0
39.585926 134.575030 -96.267174 13 1
-95.774239 188.603650 -1.780161 0 0
62.220715 149.810120 -64.541077 13 1
23.025457 114.818740 -111.291490 13 1
-28.989805 187.980480 -120.751690 11 1
4.454304 84.378273 -12.123050 0 0
-35.164589 158.713090 5.085165 0 0
-46.500118 101.106480 -101.536660 27 1
136.281680 291.425420 -95.000397 1 1
54.346680 210.793530 -147.461170 23 1
-20.321606 385.543210 -120.799470 22 1
-15.719640 180.234020 -46.183964 0 0
68.127274 119.002650 45.098774 24 1
56.733543 201.692840 -31.638041 20 1
-16.809727 204.199040 -92.985336 17 1
89.532257 110.063170 26.943119 24 1
58.543518 327.180790 -136.937260 5 1
67.194626 190.171130 -185.204360 23 1
62.629368 226.421780 -112.741900 23 1
93.101425 336.155640 55.318138 14 1
-128.957630 206.654980 -19.278202 15 1
16.564653 354.384400 -177.411360 5 1
-77.797615 369.580900 38.394543 10 1
103.471660 191.496580 -32.934433 20 1
71.673714 197.577440 -8.777501 20 1
32.144131 123.877850 -61.633408 0 0
78.023659 119.334910 -59.076458 13 1
-79.094444 100.305150 -65.250626 27 1
11.527740 57.032616 4.841648 0 0
-1.323797 377.342320 68.546188 9 1
-14.419908 107.850790 -74.446976 27 1
73.626152 202.245640 -90.903595 28 1
-15.703125 200.845340 -1.472574 21 1
-31.589872 424.072880 24.532951 14 1
100.720470 306.615970 -17.472469 12 1
-86.193161 266.173430 -53.664570 8 1
-49.116283 367.205840 53.523117 10 1
-60.714165 283.996580 2.517366 0 0
-112.501180 183.867080 -29.163111 15 1
-90.004974 214.232730 -0.921074 15 1
27.581749 379.498350 64.650055 14 1
140.439930 157.514600 -29.760347 20 1
15.170935 389.043580 -51.320583 6 1
136.695040 291.706600 -6.448792 12 1
66.942856 233.080600 -47.610622 28 1
29.596342 405.414980 37.458336 14 1
-3.871490 158.643860 -35.421658 0 0
0.523145 411.970210 36.929070 14 1
6.540153 397.552550 -90.963791 6 1
71.523315 313.892120 -65.264961 5 1
-164.805210 264.026890 3.309355 7 1
27.366493 398.167820 -124.062850 5 1
-99.008682 292.518650 -19.725777 8 1
-37.296070 230.257870 -92.481529 11 1
-28.859324 371.030940 34.702251 10 1
-122.708640 291.336880 4.904070 7 1
-12.285530 74.252007 -28.593540 19 1
8.121625 12.662173 -11.323053 25 1
-76.561180 187.062090 -62.206184 15 1
10.820296 228.270650 -81.266548 11 1
-73.848633 370.829190 62.758259 10 1
-27.713243 112.526210 -2.025065 0 0
2.831209 219.817950 -21.438618 0 0
-162.682710 193.118990 11.407212 15 1
73.394005 118.902540 -125.187970 13 1
-57.476330 151.340440 -4.210719 0 0
-57.965229 209.078000 25.382231 16 1
-10.676433 315.840000 -35.275745 0 0
152.465580 281.688840 -110.570030 1 1
-19.899683 390.918370 78.922134 9 1
-7.663243 340.018250 21.076719 0 0
42.940651 398.048250 -86.678215 6 1
-19.466166 392.021210 -12.765066 0 0
62.019958 378.896760 -124.772320 5 1
94.300575 317.132080 -146.409240 5 1
112.492410 306.323790 -77.378784 1 1
-7.110939 296.405210 3.838824 0 0
46.966999 107.140450 38.880013 3 1
-79.755440 198.659930 -16.676788 15 1
-97.752182 314.537720 -10.390453 7 1
37.152004 222.345690 -81.467972 28 1
-27.948910 336.587520 143.371570 9 1
-54.592777 403.187130 -3.188943 4 1
102.912020 102.646230 -131.347960 13 1
-31.283058 94.379616 -84.543007 27 1
-72.406952 214.016800 -76.089264 17 1
-46.219437 187.125890 9.494021 18 1
-62.973057 203.418120 -112.470920 11 1
-42.154354 208.319030 -9.379012 18 1
32.440464 214.072300 -155.599110 23 1
43.524849 93.314957 14.721672 0 0
74.217972 86.960999 14.454518 2 1
19.584141 375.901580 42.514294 14 1
-68.312851 375.796690 -9.355948 4 1
56.529686 325.377990 -99.040611 5 1
50.020515 367.297030 70.161880 14 1
-42.531372 423.277440 45.508629 10 1
-140.070690 199.155410 9.554645 15 1
-48.204227 392.277890 -112.265810 22 1
72.960289 320.255430 -159.983380 5 1
5.632288 209.834850 -94.702744 11 1
69.178703 352.240810 41.083553 14 1
2.853346 184.155210 -30.286526 0 0
-70.057152 221.524540 -54.527424 17 1
34.147503 248.137010 -42.953178 0 0
46.808487 397.448000 -54.639767 6 1
-98.989983 201.396130 26.965561 16 1
171.786670 257.309540 -137.684540 1 1
-7.970788 100.912860 -132.334900 13 1
-37.527340 392.503720 27.790337 10 1
118.789860 156.470930 -64.873505 20 1
28.239670 147.807100 -31.977156 0 0
65.717262 199.100910 -163.284930 23 1
18.249378 373.196690 111.906270 9 1
0.010496 282.797300 -25.000744 0 0
-3.287108 378.952210 46.327461 10 1
26.905075 178.980410 -15.993093 0 0
42.329136 345.327640 -181.280240 5 1
-28.088949 430.810790 -1.988774 4 1
-7.677398 373.423460 89.950562 9 1
-15.785216 17.636353 3.542724 26 1
44.846279 376.257750 25.091391 14 1
-171.756320 187.251570 33.787910 15 1
11.241936 376.520050 -190.606050 5 1
-103.356340 179.185900 64.850563 16 1
60.391724 128.641970 -102.423730 13 1
91.846939 181.429280 -49.312286 20 1
-93.427589 296.238490 20.040224 7 1
-77.175705 284.448520 75.443916 7 1
56.741486 144.044770 -85.157166 13 1
-76.957718 192.004040 53.626526 16 1
-58.388710 405.627780 44.976509 10 1
29.304909 309.979130 -198.901290 5 1
4.022989 379.824800 22.241600 14 1
116.180670 105.144260 -44.115501 13 1
-58.719074 106.885150 -68.546654 27 1
-140.941600 294.991090 -6.201481 7 1
26.767212 392.858700 -100.141920 6 1
-56.145252 390.782350 63.569607 10 1
24.330526 370.385220 -157.850230 5 1
87.621986 310.882230 -51.122547 12 1
12.704139 99.506622 -25.011677 0 0
41.860943 221.126620 -114.635440 23 1
-5.129858 354.833830 129.366290 9 1
-22.944714 217.696550 -38.545696 18 1
-53.883869 289.645510 -43.259480 8 1
-33.959461 367.763090 112.341440 9 1
-11.935765 92.219421 -0.818603 0 0
90.745117 215.650210 -64.753555 28 1
15.817322 116.355870 33.855545 3 1
122.535870 295.855220 -49.748161 12 1
-67.646355 194.987470 0.527970 16 1
-52.200916 300.582610 33.561501 7 1
-2.566734 411.262450 57.973919 14 1
68.496979 190.996320 -50.014191 20 1
-89.225357 185.978670 -31.376835 15 1
13.832771 190.579350 -61.206600 0 0
116.361940 293.180880 -12.286077 12 1
-93.122498 243.587540 -78.631241 8 1
1.077382 130.447850 -14.501663 0 0
-22.399336 174.104030 -1.747577 0 0
3.470206 396.324710 -143.542400 22 1
-65.728645 414.196960 10.905752 4 1
64.955925 332.516050 -117.182180 5 1
-131.358720 201.674010 29.011412 15 1
88.088058 181.225800 -183.480440 23 1
-29.287779 208.958160 -76.809891 17 1
-68.253563 294.273010 -14.106450 8 1
-113.805840 197.241000 -7.983221 15 1
-22.370935 132.319630 2.366486 0 0
-74.609482 349.255770 43.260345 10 1
-38.994045 222.574810 -50.901634 17 1
80.506294 202.561610 -148.703960 23 1
-49.539120 191.118900 -122.309880 11 1
-2.389602 417.781740 -79.641273 6 1
-73.388069 214.727310 12.237041 16 1
131.005280 163.897520 -46.822174 20 1
39.497353 381.158080 -125.501380 5 1
-16.179081 328.238250 157.815700 9 1
79.136833 182.309910 2.534172 20 1
-41.046066 96.349022 -52.372803 0 0
-104.512830 300.856320 3.138793 7 1
13.991240 339.667690 -196.780040 5 1
149.336470 274.702640 22.020754 12 1
-87.188622 341.184080 57.498589 10 1
-94.781479 163.688980 -64.668571 15 1
151.782040 298.258300 -79.707314 1 1
-11.991661 408.244780 -110.496090 22 1
27.037638 390.263000 -155.884580 5 1
55.090931 213.632690 -79.033325 28 1
95.067627 312.681880 -85.330170 1 1
55.663288 214.892960 -127.788090 23 1
-63.692467 302.846740 49.942932 7 1
-4.776743 54.095291 -7.227195 0 0
-9.294991 214.558430 -77.619698 17 1
170.833220 274.924070 -104.654360 1 1
34.327244 389.318700 48.459816 14 1
61.773170 172.548650 -40.295143 20 1
42.460476 350.744230 -157.611310 5 1
-1.683676 357.618100 -22.500858 0 0
-21.710766 199.216200 -46.608482 17 1
36.694283 136.247280 -76.666420 13 1
61.627613 197.624020 8.361301 20 1
58.121574 181.881200 -70.636650 20 1
-71.506836 262.238250 -67.499527 8 1
-44.744949 108.599610 -82.312790 27 1
-21.656303 204.473040 -112.046710 11 1
93.337746 125.184090 -47.733494 13 1
73.944229 173.277470 -84.033020 20 1
-28.261049 196.154360 -16.098703 18 1
-35.820980 381.368190 71.836525 10 1
17.765654 389.437680 -31.859417 0 0
-6.310401 254.746890 -8.854908 0 0
-69.627563 297.752750 13.639750 7 1
-115.153240 169.322170 -52.225407 15 1
-143.206530 265.116610 21.213652 7 1
9.880068 404.812380 -41.324341 0 0
52.719620 369.954040 -155.014420 5 1
69.054245 343.881380 -132.931200 5 1
86.426453 195.189830 -21.170662 20 1
-12.759393 420.049740 25.555128 14 1
28.194216 401.906860 -57.551182 6 1
107.597690 194.910810 -62.154606 28 1
-83.101295 201.049610 37.772114 16 1
-83.860268 356.319270 25.893745 10 1
72.503517 77.772537 -13.168131 2 1
-63.477287 358.395900 77.905502 10 1
6.209452 149.735700 -15.978568 0 0
-89.943092 117.667460 -49.078594 27 1
84.546432 105.991220 -135.725880 13 1
40.646614 117.223300 -104.077630 13 1
-91.304123 299.697570 40.778374 7 1
115.375030 302.119260 -29.042278 12 1
111.080670 174.068050 -30.199787 20 1
80.498344 125.226080 -104.553410 13 1
123.826740 297.749820 -108.703760 1 1
69.180901 348.965820 -153.209900 5 1
57.510033 359.370510 54.038601 14 1
55.687798 223.490140 -59.135418 28 1
33.700840 365.294040 35.382046 14 1
1.423888 334.023900 -78.300484 0 0
-30.132145 219.328280 -0.159548 0 0
23.558500 211.487630 -89.844261 11 1
-58.214798 395.235470 -20.000038 4 1
-60.720615 362.206360 39.413857 10 1
-86.623901 186.372680 68.589592 16 1
22.558620 325.853090 -205.796860 5 1
-52.558483 215.428920 7.585648 16 1
106.063840 300.446040 -60.560204 12 1
97.758987 169.384030 -62.062668 20 1
59.903885 272.419100 -57.223362 0 0
61.825775 186.066360 -23.200251 20 1
-46.106186 308.371280 68.077827 7 1
11.607697 346.588470 141.673480 9 1
-71.964539 106.628150 -101.438220 27 1
-2.528169 310.315920 -53.367142 0 0
-23.006145 220.720000 -98.787170 11 1
-2.161857 197.257920 -13.964793 0 0
-32.597591 24.870411 29.618410 26 1
-6.449068 163.327210 -13.486422 0 0
6.174228 330.009520 154.743650 9 1
10.609404 401.211880 -64.309113 6 1
-34.698219 396.377200 -123.921670 22 1
-54.158848 119.461840 -56.304623 27 1
10.585126 110.971500 -124.207950 13 1
-32.573597 17.148602 10.315835 26 1
122.166650 287.517640 3.875872 12 1
-33.778641 388.642850 -148.358220 22 1
143.438220 276.480710 -13.411160 12 1
-108.003560 266.882080 -53.239647 8 1
74.621498 136.765140 -62.056686 13 1
-48.917698 426.057710 -13.753527 4 1
14.955443 1.818857 -24.068867 25 1
-118.897820 281.750210 19.543221 7 1
-15.513955 372.536440 22.866468 14 1
7.227382 365.623750 -94.106773 0 0
83.741852 324.376400 -104.696490 5 1
-102.614090 213.981370 11.659205 15 1
-88.517502 280.788730 -42.809864 8 1
-92.454834 155.577100 -80.658524 15 1
53.433907 361.766750 36.395931 14 1
10.247069 127.307620 -109.590290 13 1
27.534643 101.414500 -122.820970 13 1
48.064491 342.510560 -131.676210 5 1
41.137745 168.480820 -16.266632 0 0
120.462780 298.754330 -91.189369 1 1
-52.162781 193.392470 -7.763534 18 1
102.598500 212.037030 -51.965607 28 1
-88.943474 260.830020 -70.931114 8 1
66.681854 110.366130 -69.112373 13 1
43.514206 368.356260 -139.272000 5 1
23.309299 370.532260 -175.650510 5 1
4.406861 114.669910 -21.869175 0 0
77.369240 220.648410 -54.293671 28 1
-32.786808 196.927990 0.893806 18 1
22.345718 22.796253 -12.111873 25 1
-7.666679 212.746720 -105.743420 11 1
-68.956657 373.149900 23.441849 10 1
24.352119 126.351730 -98.199684 13 1
-74.898987 403.586670 39.023705 10 1
-9.498527 394.004880 -131.988070 22 1
86.353729 315.920440 -14.706928 12 1
-87.424271 237.912310 -93.966492 8 1
54.707279 108.666060 -130.854890 13 1
66.394661 366.827450 -136.290790 5 1
164.105770 268.075160 -118.960790 1 1
-27.936188 211.816390 -23.188614 18 1
-38.074066 379.241940 46.715172 10 1
59.417477 93.696190 8.287897 2 1
81.926666 210.949020 -78.687157 28 1
-108.353260 140.189530 -73.810738 15 1
27.793415 347.306850 -190.237790 5 1
-65.272179 376.361970 49.073975 10 1
21.080616 226.650920 -121.762780 23 1
111.817540 183.242770 -14.929875 20 1
-4.347458 76.279320 -0.004168 0 0
-48.836823 300.182830 82.740242 7 1
-100.038250 187.392910 -18.156248 15 1
64.824402 332.641450 -151.677520 5 1
-82.110847 357.856350 55.754158 10 1
-6.418351 10.458830 -19.620924 25 1
75.321327 325.387080 -137.331880 5 1
-61.886707 288.005800 81.977638 7 1
31.644476 393.007020 -139.886050 5 1
81.671898 103.051230 -61.537655 13 1
43.875259 108.661950 21.555124 3 1
-66.522774 198.884660 35.721737 16 1
-73.397507 391.933350 -13.209043 4 1
-129.935170 198.792540 -3.752276 15 1
81.936401 110.056800 42.072582 24 1
31.422503 110.490070 33.287292 3 1
-40.854382 412.627560 -3.422616 4 1
-84.894302 186.592390 -47.588036 15 1
81.831505 180.833330 -14.080841 20 1
38.822273 378.528960 -158.107960 5 1
-9.974587 212.089750 -14.252419 0 0
-8.677457 353.680080 -37.554150 0 0
-94.034668 198.794980 11.352840 15 1
-15.120178 187.183560 -11.503549 21 1
-72.969025 291.884610 58.216393 7 1
93.958336 177.965360 -33.111073 20 1
91.847237 305.222840 -31.354944 12 1
124.696600 163.995970 -30.898504 20 1
-50.419998 221.959240 -100.158020 11 1
33.222755 389.620610 -47.765587 6 1
-80.729385 183.003020 2.060290 0 0
77.702339 299.031100 -60.700863 0 0
1.856795 424.691040 19.590628 14 1
-72.056091 278.049650 -44.542339 8 1
5.785313 366.860930 120.692940 9 1
6.887372 315.930600 -220.585220 5 1
-77.557182 372.087980 -28.364897 4 1
-26.637720 147.221730 -2.904435 0 0
75.556435 354.354430 26.040867 14 1
11.003101 204.484500 -109.144790 11 1
-46.952072 428.157260 28.145830 10 1
-45.601131 315.403960 32.143700 7 1
-16.290520 343.142030 132.514300 9 1
81.272163 347.399600 51.107868 14 1
25.962513 139.331340 -88.493187 13 1
-24.897856 387.480770 40.024006 10 1
96.437950 335.031890 39.542725 14 1
-60.083584 418.355190 -5.019894 4 1
51.571236 138.419970 -68.617401 13 1
21.900618 394.600430 -84.882973 6 1
-83.676620 289.432280 -15.888916 8 1
77.852715 107.031300 16.055286 24 1
-77.748085 177.647710 83.381393 16 1
4.787330 380.593140 -42.427505 0 0
-0.327263 12.602441 2.347575 0 0
57.006054 354.870420 -163.037320 5 1
16.266401 415.133910 37.236279 14 1
-18.964415 367.921690 105.759130 9 1
13.594295 393.374660 -130.685580 22 1
-21.091333 163.965410 10.573579 0 0
48.815933 335.512270 -89.313667 5 1
29.509287 173.399610 -1.298825 0 0
-8.443040 126.121630 -2.491937 0 0
13.712548 380.076780 56.865177 14 1
-85.443573 306.970760 11.077841 7 1
137.998400 280.333830 4.720995 12 1
-12.833805 186.246380 -31.395267 0 0
18.724825 362.194060 -191.038620 5 1
28.329996 230.860200 -71.419380 28 1
5.137412 372.811000 102.298690 9 1
18.128675 387.773830 -116.514880 6 1
64.210884 318.495210 -81.888748 5 1
-86.322548 211.218510 -23.663492 15 1
-81.187469 379.937070 -1.197759 4 1
-58.233360 200.862870 11.722364 16 1
82.237869 94.260078 -145.983760 13 1
-55.877605 94.100204 -112.020160 27 1
80.499657 308.174840 -78.095734 5 1
-45.563038 379.047060 -120.314870 22 1
-59.190342 359.169680 62.788837 10 1
-63.272194 290.730680 -28.555462 8 1
-25.425169 390.023530 -135.155000 22 1
-38.579571 174.012800 5.547844 18 1
8.340011 385.474790 37.260250 14 1
147.117830 283.619420 -125.168950 1 1
-1.144556 185.915340 -45.496445 0 0
9.760539 166.301160 -35.006451 0 0
-19.925909 12.592905 -10.671325 26 1
69.086296 320.015690 -107.877560 5 1
-6.752300 245.478090 -24.273596 0 0
58.863052 115.263980 32.967701 24 1
51.851692 390.590120 -125.747770 5 1
49.336147 226.954240 -73.019539 28 1
151.560000 289.102810 -96.421486 1 1
104.257550 114.182010 -48.330997 13 1
-175.605220 173.468930 27.792061 15 1
42.243347 358.426910 56.233265 14 1
-36.521801 431.198850 11.752752 4 1
101.165640 310.524840 -2.540869 12 1
84.677116 347.048000 -132.986280 5 1
5.850008 99.669693 -10.874606 0 0
-27.921520 430.904360 37.832870 14 1
-133.010500 286.168300 15.295953 7 1
31.056370 353.670320 -172.320360 5 1
-115.767750 200.977360 -25.294491 15 1
-30.792007 106.430650 -75.086647 27 1
102.527410 137.382370 -46.769253 13 1
-6.458062 296.395810 -29.375835 0 0
68.254837 83.201088 0.851228 2 1
-101.863060 204.702100 -2.185333 15 1
-88.882042 177.172650 -60.764717 15 1
-15.844770 361.477600 119.274320 9 1
-21.541302 65.668037 -19.817944 0 0
75.459702 151.356810 -57.299953 13 1
-105.407430 309.778780 25.314602 7 1
-57.840538 375.112550 63.073734 10 1
130.025010 282.566130 -16.967171 12 1
54.491409 237.963180 -54.711655 28 1
-107.464580 291.089110 16.394783 7 1
-0.799429 223.480260 -92.413811 11 1
73.230621 111.068090 29.813013 24 1
-44.296619 367.868740 39.049141 10 1
3.347051 97.043938 -141.630870 13 1
-5.891438 173.764050 -36.761093 0 0
133.998600 302.418550 -85.002716 1 1
138.713550 288.327940 -109.496220 1 1
-6.351673 98.837898 -83.459114 27 1
46.725685 211.304810 -160.345920 23 1
-2.113770 327.991270 -37.084633 0 0
68.473564 209.710080 -142.673070 23 1
77.264137 178.243910 -46.795807 20 1
-9.202769 394.763000 -117.019960 22 1
-50.515049 244.635860 4.737607 0 0
69.778038 195.049650 -34.428932 20 1
0.676455 403.961090 -75.061317 6 1
96.496956 108.088850 39.946716 24 1
-69.313850 406.479770 -1.712559 4 1
-64.581924 194.880980 61.269436 16 1
-91.593887 282.955110 -28.341888 8 1
-38.517155 196.269560 -113.082830 11 1
-63.857193 269.597780 3.634929 0 0
56.241711 190.948850 -41.753151 20 1
33.328514 379.036380 -144.346040 5 1
-155.686190 275.182460 -1.497585 7 1
30.976234 379.861880 34.034592 14 1
45.944534 219.193220 -138.626280 23 1
14.744885 381.130400 -154.752410 5 1
-51.276222 209.250460 38.357933 16 1
-45.333210 10.990422 6.811153 26 1
-72.100136 210.890350 -18.845108 16 1
-116.724460 301.865390 13.082876 7 1
73.914955 355.260250 -140.948120 5 1
41.260014 375.314820 61.751785 14 1
10.725297 401.814970 39.092823 14 1
7.621069 150.942030 -30.941412 0 0
-24.212286 421.477420 11.109307 14 1
-58.499142 107.613750 -96.062851 27 1
-23.065104 400.025150 -116.034980 22 1
-69.390297 109.615780 -58.648472 27 1
-26.577412 77.227562 -27.012480 0 0
63.914673 120.614190 -114.329960 13 1
55.128231 340.449340 -144.224900 5 1
-108.906490 304.705410 -10.535012 7 1
-10.245474 187.800510 2.143999 0 0
-0.351284 232.851560 -27.411541 0 0
-81.439934 197.526790 4.175945 16 1
11.094334 344.868290 -209.978620 5 1
-10.164388 385.155460 58.048008 10 1
73.953369 191.531080 -172.454800 23 1
10.895903 221.480410 -33.367523 0 0
68.907219 129.026060 -77.849770 13 1
-15.073914 106.235010 1.089670 0 0
51.658215 329.500490 -124.439750 5 1
118.121440 157.207030 -50.451893 20 1
-24.892252 208.754410 -9.338228 18 1
5.723926 411.398740 -54.467289 6 1
-2.405524 233.244870 -78.296570 11 1
65.597900 124.873860 -64.423706 13 1
48.467171 228.882020 -104.446260 23 1
-69.357391 385.038510 63.748310 10 1
-87.888321 104.449510 -54.479824 27 1
-34.045731 392.823300 -109.916330 22 1
-174.956970 187.180360 6.932657 15 1
-154.808400 261.481080 13.278983 7 1
-109.315030 179.962910 -42.632481 15 1
31.057308 373.677310 51.818085 14 1
-85.626541 309.045590 -5.099655 7 1
48.092617 132.450560 -84.442047 13 1
58.034245 196.052340 -175.658580 23 1
36.876648 322.512510 -197.178020 5 1
1.594864 46.854362 3.591774 0 0
0.440844 206.480640 -26.078558 0 0
-150.833450 192.627870 2.271242 15 1
46.533012 129.624100 -107.981310 13 1
70.142967 179.996610 -194.751630 23 1
61.416389 209.671840 -91.854462 28 1
87.254906 190.243440 -38.995934 20 1
-78.354042 297.560610 46.310131 7 1
43.934002 330.984070 -102.586010 5 1
-150.880400 196.845780 19.236380 15 1
93.437256 330.747650 -140.137440 5 1
-129.202710 302.194430 -2.332771 7 1
-61.280941 304.442660 23.130287 7 1
-38.916634 378.406070 26.886045 10 1
-68.039169 361.940800 52.043991 10 1
1.091819 308.390170 -32.560062 0 0
83.018745 324.720520 -150.441010 5 1
90.775787 113.815840 -56.262085 13 1
35.965672 222.519090 -101.707980 23 1
11.457589 214.179760 -82.500443 11 1
-10.271647 273.277560 -27.311310 0 0
12.739335 110.738740 46.430618 3 1
-18.083092 376.599820 45.843056 10 1
-107.651940 195.571980 9.315860 15 1
-79.681625 380.482150 54.319042 10 1
2.824111 379.646910 81.805733 9 1
-106.773470 244.953570 -75.456688 8 1
75.287109 195.900710 5.408864 20 1
98.652908 182.876240 -20.383677 20 1
-6.811050 22.337406 13.576886 26 1
-59.783047 301.748630 4.141736 7 1
-51.100803 302.210780 56.170818 7 1
-88.913589 361.091220 39.823513 10 1
84.498001 110.729010 -122.449100 13 1
-42.930897 379.050750 59.938965 10 1
87.510040 131.697220 -58.715939 13 1
72.260208 218.916110 -119.604780 23 1
128.237350 296.498600 -19.121441 12 1
0.392968 349.669950 27.364882 0 0
40.921169 398.735110 -120.721220 5 1
-140.014590 199.813250 -14.074580 15 1
105.189350 303.245510 -88.864426 1 1
35.452000 108.986750 -114.072670 13 1
-8.771753 422.587860 39.010361 14 1
28.509626 117.026250 -50.058170 0 0
-80.704994 376.899230 -15.625508 4 1
22.612991 62.867706 10.912027 0 0
-64.992912 222.366560 -67.462776 17 1
91.179596 179.880220 9.040973 20 1
-170.864960 185.034940 20.044437 15 1
-49.831181 202.046300 -19.106260 18 1
-11.847870 380.991120 -9.084563 0 0
-52.000412 415.950990 38.305061 10 1
-62.642063 407.087160 -13.835945 4 1
34.934956 399.193970 -75.434906 6 1
25.074970 221.903780 -145.365510 23 1
-106.608250 197.555620 37.992954 16 1
-54.337482 208.792940 -102.606130 11 1
-13.898621 351.429930 -24.951628 0 0
106.148490 181.769730 -42.380104 20 1
-51.229191 415.395360 52.777573 10 1
-76.464195 210.563570 -0.550788 16 1
-12.943924 190.125500 15.770352 0 0
-9.270983 378.502410 33.613590 10 1
50.255642 372.206240 -127.378800 5 1
61.604759 360.426480 67.243668 14 1
-30.966963 171.525270 17.035835 18 1
-116.030300 284.018100 32.828392 7 1
97.584343 168.894620 -48.112377 20 1
76.558418 315.793850 -44.580875 12 1
-7.332041 219.904170 -64.950912 17 1
-28.429485 208.226090 -100.350850 11 1
26.963930 385.234440 -129.640180 5 1
23.526384 221.566710 -80.557304 28 1
-10.679196 379.980590 78.342476 9 1
-63.763649 393.080440 -3.588942 4 1
-51.170738 177.523070 -4.567489 18 1
-74.432243 358.517300 68.597580 10 1
48.617188 124.184200 -95.484550 13 1
105.594670 98.952171 -144.187900 13 1
-57.288059 403.528230 58.886398 10 1
-28.053596 417.177150 -4.430420 4 1
-23.559196 434.739010 14.044192 14 1
122.096690 173.272110 -41.153397 20 1
-10.221660 225.487750 -20.012709 0 0
-15.166541 398.700710 -1.727380 0 0
-26.002014 235.087230 -86.674850 11 1
-87.177582 188.082990 -12.285428 0 0
3.901736 414.964630 -67.647141 6 1
23.910345 398.008850 47.795979 14 1
21.035500 167.431440 -20.303850 0 0
100.690850 206.414570 -64.971855 28 1
-100.541030 152.222440 -70.303078 15 1
-26.153580 383.048610 26.558006 10 1
60.497437 387.085910 -114.090210 5 1
66.431175 322.385710 -126.042800 5 1
-55.791428 299.195560 -12.036805 8 1
60.266315 182.913420 -57.340820 20 1
-93.558304 206.419100 -12.654009 15 1
-8.811298 170.642350 -2.135659 0 0
69.042030 214.227870 -80.850647 28 1
56.690403 375.143340 -140.547290 5 1
83.209320 312.196930 -155.339650 5 1
180.802900 255.187120 -127.897670 1 1
16.409672 10.950958 -33.805431 25 1
-67.343452 415.052030 41.614708 10 1
-163.203610 189.757740 -2.071990 15 1
-93.535400 184.179890 57.186989 16 1
-32.955284 223.128100 -28.377964 18 1
-53.838886 425.205410 16.622719 4 1
-18.454256 382.778500 89.609306 9 1
-95.551468 298.010770 -6.409370 8 1
80.679207 115.020090 54.443199 24 1
-97.196541 265.706270 -61.276684 8 1
-58.347397 190.870210 -112.081800 11 1
35.047180 209.573030 -96.423019 28 1
72.644135 372.158540 -120.133130 5 1
-70.474953 294.656860 0.418103 8 1
-97.041092 271.243130 -46.601688 8 1
6.992969 423.030880 31.794327 14 1
-52.457771 204.572720 -0.117859 16 1
41.126099 363.066830 -151.250200 5 1
-17.073660 193.795940 -118.524980 11 1
-6.275659 21.999704 -4.934496 0 0
-73.220520 269.622220 -55.424107 8 1
-162.614620 193.413710 26.197308 15 1
-11.659092 388.416260 42.057423 10 1
-64.334023 161.272230 1.226461 0 0
-11.504052 200.050140 -104.807620 11 1
-28.340940 214.751530 -50.617764 17 1
62.185699 360.315610 -152.191310 5 1
68.118332 197.557330 -21.586393 20 1
-32.243031 124.813840 -3.515062 0 0
53.593842 176.276780 -19.987366 0 0
85.461723 199.813200 -84.768776 28 1
-134.601470 286.394810 2.222028 7 1
11.933565 405.269440 -81.799362 6 1
41.003304 333.094820 -187.436800 5 1
133.013720 162.890340 -20.342186 20 1
64.552643 136.221530 -92.220039 13 1
-80.355911 296.744630 21.108030 7 1
-48.564022 386.112000 22.388609 10 1
-75.106140 205.372100 28.217995 16 1
88.134811 314.341490 -96.824402 5 1
-36.562328 217.603130 -96.323441 11 1
-40.830406 431.765990 -4.632150 4 1
-18.509279 94.827469 -87.136078 27 1
-9.216479 308.356140 8.632694 0 0
20.909260 396.802340 -42.127186 0 0
-77.480400 193.142640 -28.395203 15 1
-9.815643 68.460983 -14.933911 19 1
6.687268 409.205470 49.078640 14 1
-49.944569 386.517700 74.525551 10 1
17.615732 315.706730 -213.011180 5 1
2.828534 0.968332 -19.484213 25 1
-106.921660 202.495270 -34.740238 15 1
110.504330 304.285770 -9.039066 12 1
93.375443 97.013885 -139.977870 13 1
-15.490282 336.404110 147.691070 9 1
84.863571 342.711300 62.826397 14 1
80.795334 230.511030 -46.681149 28 1
-48.270267 398.910830 70.757385 10 1
109.891940 165.145030 -60.815945 20 1
26.446119 336.326390 -197.595080 5 1
72.754318 106.916540 -130.588520 13 1
11.925757 367.097960 -180.629180 5 1
-132.531880 273.591220 19.863180 7 1
92.778999 301.749420 -58.604195 12 1
44.099113 212.142650 -85.584297 28 1
-30.148327 214.623140 -64.983429 17 1
-20.815081 18.420374 15.398784 26 1
-15.903122 217.914870 -88.133568 11 1
7.064539 126.679670 -25.676264 0 0
-1.240816 328.708620 20.589153 0 0
-116.846790 305.101500 -0.400894 7 1
33.151062 159.479350 -34.201576 0 0
76.782967 310.356780 -167.163310 5 1
25.401833 238.796460 -43.960312 0 0
15.093876 185.889620 -49.363754 0 0
-103.960740 171.011570 -58.191303 15 1
55.278759 335.090300 -108.094500 5 1
-49.623795 142.633680 0.894394 0 0
-3.415249 284.208400 2.633408 0 0
-51.230656 413.094020 -12.582579 4 1
-10.451978 284.866850 -33.165047 0 0
-64.625465 384.141110 -18.285343 4 1
120.884630 296.533750 12.820457 12 1
-49.954357 201.919540 -112.651120 11 1
38.033985 223.186110 -68.286079 28 1
24.466045 389.408290 57.245037 14 1
-10.645222 303.304260 -39.814663 0 0
-42.330555 102.468590 -71.402145 27 1
133.642930 292.281040 6.666053 12 1
12.608988 351.135220 -189.472400 5 1
100.990030 305.904420 -71.937546 1 1
68.931824 229.763180 -59.739307 28 1
-22.727701 188.997770 -0.039424 18 1
1.108326 371.758060 36.573803 14 1
-7.938210 64.083786 0.281248 0 0
61.178669 320.431270 -68.682800 5 1
124.541550 302.104920 -76.528152 1 1
-41.442211 193.054210 -15.931394 18 1
52.099258 102.804020 13.838588 0 0
25.198402 382.351040 -165.641540 5 1
160.549590 280.974980 -100.196550 1 1
31.220592 400.669950 -90.958336 6 1
-56.348751 114.551960 -78.327637 27 1
-3.492589 368.855710 -16.980896 0 0
-5.679559 209.441890 -89.064796 17 1
17.336079 13.986799 -19.872208 25 1
-86.954803 203.700520 23.910639 16 1
24.867657 413.395230 27.951418 14 1
-30.982161 344.785130 133.936610 9 1
-128.709150 198.863750 17.005472 15 1
-41.231808 188.144380 -2.354240 18 1
-37.355858 203.501020 -21.677509 18 1
0.929405 345.678530 -35.992325 0 0
16.407053 402.243560 -53.119598 6 1
-48.316940 205.940190 17.917990 16 1
1.220093 389.961670 -126.783650 22 1
-72.537621 192.537520 -51.616226 15 1
-43.957344 199.644880 7.740156 16 1
-75.179871 365.625060 -12.096150 4 1
2.105512 385.874210 55.437412 10 1
-53.129601 413.340670 4.156061 4 1
-147.707530 284.961880 -2.938289 7 1
-85.814255 248.683040 -87.788780 8 1
53.568771 103.622150 28.851822 0 0
128.731960 155.555940 -57.346775 20 1
39.074890 255.508610 -51.820187 0 0
42.538822 393.217250 -133.761730 5 1
0.547177 373.116970 -33.356270 0 0
-63.878422 304.057430 37.147861 7 1
64.975906 326.941470 -166.866490 5 1
0.324044 142.971130 -24.713167 0 0
-71.483810 202.295030 9.967016 16 1
-78.088593 178.783420 -71.493492 15 1
114.630060 300.767760 -41.393021 12 1
18.844130 210.724040 -101.766840 11 1
-1.650382 108.736590 -124.325490 13 1
-78.511360 262.782500 -77.837685 8 1
3.629440 391.968320 -47.314182 6 1
4.985494 401.899510 61.241425 14 1
-75.012413 358.012240 34.494572 10 1
52.334435 368.857480 18.207224 14 1
-66.038712 200.144000 21.587408 16 1
163.358960 263.235870 -130.333450 1 1
23.162172 361.673220 -166.563250 5 1
84.576752 308.123570 -65.518974 5 1
0.971714 166.275310 -43.864674 0 0
-82.794212 251.321150 -75.902428 8 1
-4.259142 185.914860 -18.392836 0 0
16.155603 387.965360 -104.151650 6 1
-69.799026 348.011320 75.860695 10 1
62.461006 203.157180 -2.782103 20 1
-164.470430 254.045850 11.540755 7 1
18.035398 381.192320 30.997272 14 1
73.099182 332.603180 -127.622810 5 1
60.300144 119.307450 -126.013140 13 1
44.818333 221.398420 -126.570500 23 1
-121.320650 207.734940 24.647690 15 1
103.240640 300.671170 -30.571615 12 1
67.395714 324.035000 -93.451935 5 1
86.019096 341.326600 41.253761 14 1
15.442638 372.364990 -166.103290 5 1
-74.451836 295.249270 70.254662 7 1
64.136230 207.293990 -154.004500 23 1
-94.074692 195.668430 36.652481 16 1
-7.410720 372.713960 102.199680 9 1
-62.742001 393.798710 53.611050 10 1
62.382885 137.401280 -62.232109 13 1
37.621552 107.534640 46.854298 3 1
-42.444527 385.476170 36.520401 10 1
82.288994 121.429620 -116.048930 13 1
18.352386 141.674840 -28.209087 0 0
56.157223 205.762080 -167.218200 23 1
-123.773030 293.693850 18.808855 7 1
-49.573963 108.928910 -60.592041 27 1
-4.698093 323.747800 156.485240 9 1
-119.996900 197.568940 3.236494 15 1
13.800455 218.866940 -93.506393 11 1
67.088089 351.756100 53.078732 14 1
51.295082 369.366420 58.075779 14 1
27.407892 357.628540 -183.243070 5 1
55.981407 345.244780 -155.384110 5 1
98.768623 111.217440 -123.767760 13 1
-36.010532 208.696080 1.456093 18 1
-54.512329 180.655790 -118.636280 11 1
78.774147 214.167560 -67.020569 28 1
6.693532 352.354400 132.193950 9 1
3.426299 305.195590 -44.031803 0 0
-100.734020 183.883620 -35.003304 15 1
54.318550 283.008970 -55.298492 0 0
39.458858 81.888557 15.284173 0 0
76.975853 196.756160 -159.461380 23 1
-9.896007 415.814880 49.024845 14 1
-16.672318 117.325850 -3.670701 0 0
-51.411987 366.574070 68.736847 10 1
-24.628281 152.719560 7.677641 0 0
60.181999 339.257750 -126.141110 5 1
-105.125430 185.560650 54.062794 16 1
-10.262294 9.850662 -3.944809 0 0
-86.484795 192.431180 46.232990 16 1
-78.114616 368.533450 50.409107 10 1
81.259346 78.615059 9.378392 2 1
-106.328660 307.890200 13.431758 7 1
65.172188 168.523860 -92.333107 20 1
-3.798459 136.892210 -5.078128 0 0
-20.295509 215.321290 -72.033066 17 1
88.494553 178.366850 -3.997364 20 1
-34.964378 216.451280 -40.553787 17 1
42.863487 216.084870 -150.012590 23 1
-63.198704 283.356170 -38.012566 8 1
17.247356 386.981110 46.596107 14 1
66.747208 95.389969 18.628315 2 1
-110.725720 206.029160 -15.661287 15 1
-92.959824 297.870390 8.175114 7 1
-66.131058 397.784580 -28.894896 4 1
-46.126228 392.379270 -124.485730 22 1
-54.165859 306.692440 43.767654 7 1
-69.204506 198.761440 47.543442 16 1
55.087967 325.570620 -87.188385 5 1
154.785810 275.447110 -121.067990 1 1
45.175598 128.924730 -71.969429 13 1
32.152683 222.212310 -121.740520 23 1
-80.349953 113.592770 -55.842972 27 1
33.612877 130.326140 -86.859459 13 1
70.611839 186.991210 -15.194806 20 1
-34.816498 385.443050 -128.644900 22 1
-82.672882 210.997240 -11.126140 15 1
-17.620071 220.240130 -49.419453 17 1
-62.539043 269.903750 -69.065353 8 1
-90.821815 199.281570 -3.527302 15 1
-5.557963 353.941470 117.514820 9 1
62.940411 174.924380 -78.992157 20 1
65.598236 360.768740 33.609291 14 1
85.713013 134.318980 -98.768066 13 1
-142.301940 200.766390 -2.012800 15 1
80.961433 69.734680 -10.862317 2 1
-77.971069 192.211900 -6.009435 16 1
-63.154205 209.154390 3.755471 16 1
59.510250 217.115540 -68.389442 28 1
-93.915932 177.340260 71.790031 16 1
-102.318210 240.446850 -85.901474 8 1
114.253780 194.601520 -52.241207 28 1
-69.590454 403.782440 50.059765 10 1
31.529697 339.207340 -182.444020 5 1
-6.873610 84.356995 -8.265657 0 0
71.930916 132.758820 -101.511670 13 1
41.785942 375.511570 36.466385 14 1
68.490517 190.068390 14.392439 20 1
-8.270970 100.791470 -8.012521 0 0
30.043808 168.188310 -12.338949 0 0
-24.635618 200.888640 -26.224779 18 1
34.845276 379.766140 19.847387 14 1
2.925329 97.518929 -127.881370 13 1
-17.759081 213.165650 -29.054491 18 1
-19.788919 395.983980 -126.765620 22 1
-68.994064 368.407290 73.124893 10 1
-62.389812 100.956520 -105.030720 27 1
-8.591209 43.557980 -1.095541 0 0
-88.265671 350.086580 49.573990 10 1
25.156666 319.876560 -194.088960 5 1
4.525543 213.595140 -105.800670 11 1
52.576447 224.061430 -118.147720 23 1
-37.544415 225.324620 6.533129 0 0
-76.256111 345.114470 54.702106 10 1
84.608818 308.452090 -40.141418 12 1
-14.700582 191.259230 -41.807068 0 0
-10.814617 221.552830 -98.023903 11 1
138.570390 284.378970 -24.648502 12 1
15.899734 378.458590 -180.127560 5 1
145.526870 296.032230 -89.304878 1 1
61.544205 175.816470 -29.146715 20 1
-91.543846 348.119540 29.192648 10 1
-61.439945 295.709140 58.821796 7 1
-28.009562 358.827640 117.001680 9 1
114.671500 165.019900 -36.650761 20 1
11.922560 116.653920 -114.186680 13 1
39.696819 399.105930 -45.631557 6 1
76.888962 183.246060 -185.686770 23 1
-0.601431 193.879000 -35.557823 0 0
80.430542 350.470640 36.861938 14 1
-26.284554 15.573627 -0.887993 26 1
-49.434387 307.703550 24.391609 7 1
76.709404 310.015140 -54.883282 12 1
-60.448692 381.495570 22.885132 10 1
-17.111082 195.715300 -19.069822 18 1
-75.339333 189.290510 64.778053 16 1
16.751947 398.043950 -74.223671 6 1
-102.394170 285.701870 -31.449249 8 1
20.636843 339.084500 -186.188170 5 1
-19.054773 208.597200 -82.075844 17 1
17.401012 350.122560 -200.245150 5 1
49.492493 197.989640 -48.477776 20 1
-14.668039 59.094860 -10.339962 0 0
-139.740680 198.558760 21.776066 15 1
66.812737 182.364150 -37.051201 20 1
108.266370 298.345430 -20.057661 12 1
32.929996 372.796570 -167.091580 5 1
3.405924 1.792681 0.442178 0 0
48.079617 185.074080 -66.102776 20 1
-102.498690 194.254680 -9.158254 15 1
5.488853 339.659090 148.439410 9 1
-11.999359 320.491460 165.120380 9 1
-15.898856 350.978450 124.191130 9 1
0.907293 91.810013 -4.188287 0 0
125.234240 296.329380 -38.654354 12 1
53.140984 363.647830 -134.774150 5 1
147.413850 277.230070 11.049787 12 1
-54.826637 371.890050 40.866909 10 1
-105.970700 162.226910 -66.393616 15 1
-103.268320 298.595860 26.119638 7 1
-86.959808 300.466340 30.259274 7 1
-81.379700 276.604920 -51.585949 8 1
53.587044 134.641720 -94.907761 13 1
112.578130 172.273100 -19.041870 20 1
17.940651 398.140560 -95.251465 6 1
20.173712 392.251740 -139.911730 5 1
134.351870 280.484410 -6.644336 12 1
125.948170 288.239140 -7.868857 12 1
118.495180 298.066930 -2.014461 12 1
-70.781044 213.263780 -63.842014 17 1
71.117538 187.337400 -3.776572 20 1
-44.741158 215.936660 -1.337050 18 1
-93.901489 340.234620 48.308598 10 1
17.652962 367.171510 121.534270 9 1
88.601265 218.038600 -53.580730 28 1
-21.013845 428.118870 23.550209 14 1
16.243288 374.579160 100.675010 9 1
51.782616 380.814640 -119.961700 5 1
-87.421982 193.728160 57.862278 16 1
13.805923 158.043870 -17.802921 0 0
66.709038 215.161130 -130.429320 23 1
17.899864 99.823196 -35.072239 0 0
-57.947289 280.512850 -48.578136 8 1
-40.543251 415.490480 7.524820 4 1
48.064484 362.263950 -162.841740 5 1
-7.092811 392.280000 -144.065690 22 1
7.488613 384.301540 -32.083847 0 0
4.574409 345.052640 -78.274155 0 0
-2.313453 347.333250 137.343890 9 1
-14.732406 175.934490 -10.179677 0 0
16.545444 334.872250 -208.974900 5 1
58.219177 346.647670 -134.501370 5 1
75.886383 333.034640 -153.910960 5 1
-59.990826 382.375670 71.463310 10 1
-19.316004 423.574860 35.104675 14 1
-34.401131 17.159451 21.444818 26 1
-69.260147 193.192410 -113.727930 11 1
0.231042 217.241130 -83.079399 11 1
87.617653 181.071690 -23.751703 20 1
30.503672 122.093110 -106.628710 13 1
15.154466 198.386310 -69.262192 0 0
-63.203709 371.107180 32.987576 10 1
111.171550 210.296020 -44.160889 28 1
88.153236 176.049620 -193.465350 23 1
-70.785400 384.555910 -1.475350 4 1
-11.576025 362.952910 -22.275785 0 0
-27.465679 113.855540 -67.342018 27 1
119.685100 292.469330 -25.185545 12 1
-36.089081 392.887240 -137.165760 22 1
11.588350 22.898169 -8.297129 25 1
54.257763 97.437263 -0.945252 2 1
-136.137210 263.625730 30.003002 7 1
-67.867859 259.273350 -77.770348 8 1
93.182083 189.261580 -28.995947 20 1
16.264919 101.198260 -122.840920 13 1
-101.383480 147.246440 -80.292671 15 1
-44.059616 306.429960 38.616497 7 1
109.321730 204.582060 -56.833076 28 1
9.010101 366.426700 -105.089580 0 0
-0.140256 400.266270 -133.754680 22 1
75.202698 184.039640 -56.097675 20 1
-87.840225 170.864070 -69.898239 15 1
76.501694 189.657750 -41.872692 20 1
-27.811728 224.432560 -89.404778 11 1
38.493881 386.885310 -150.324710 5 1
-12.553325 247.887160 -15.019239 0 0
108.988900 184.859020 -25.902628 20 1
77.424751 140.400380 -51.916199 13 1
116.556170 116.210940 -42.471466 13 1
45.180691 216.810240 -75.095421 28 1
43.168369 354.562740 -175.137620 5 1
-27.234594 376.253200 109.811260 9 1
4.235265 373.488920 91.236908 9 1
75.871094 325.898220 -114.515080 5 1
-97.335251 253.041900 -73.981766 8 1
10.724465 367.034360 -197.050290 5 1
-14.812141 178.958150 8.469336 0 0
20.799219 307.144530 -205.439000 5 1
104.963890 171.094100 -39.624245 20 1
92.853531 302.597500 -45.399734 12 1
81.235641 336.636990 -134.595030 5 1
-147.107470 255.975720 26.094172 7 1
23.561083 113.212750 41.108711 3 1
69.813309 309.895230 -75.814186 5 1
-52.860287 294.666410 -33.449677 8 1
83.671478 186.810100 -174.804860 23 1
-0.750610 126.411490 -110.245930 13 1
115.601920 304.991210 -110.144840 1 1
55.417702 366.918950 46.244217 14 1
105.344310 103.376460 -46.290005 13 1
-3.650216 425.152440 29.561790 14 1
45.376598 366.632110 30.482906 14 1
-95.206757 306.405030 1.018943 7 1
-29.053373 209.629150 -33.944431 18 1
90.395622 206.661270 -71.680458 28 1
-74.155792 291.225490 -22.909634 8 1
67.290649 323.866120 -144.721470 5 1
-68.853828 102.566980 -68.726646 27 1
-100.861790 133.139660 -77.736633 15 1
37.810581 178.759640 -14.151123 0 0
50.982231 170.443340 -39.737518 0 0
58.164833 215.829670 -138.463470 23 1
22.978102 113.305270 26.089787 3 1
18.698648 205.415650 -81.888931 0 0
-84.707390 291.413390 69.301918 7 1
6.449964 92.292450 -19.479910 0 0
128.736240 298.690520 -98.918877 1 1
-1.558355 255.407990 -18.863998 0 0
50.599899 356.474580 -152.967270 5 1
-109.154710 206.435330 5.838112 15 1
162.589490 276.764160 -111.665090 1 1
-5.156951 155.739040 -5.676296 0 0
0.526481 346.721890 -25.086458 0 0
-17.453903 374.942200 97.199326 9 1
-36.901566 385.249760 -117.297870 22 1
9.037591 379.641630 46.503407 14 1
-51.271843 299.354250 71.520523 7 1
9.132604 395.377230 -34.998901 0 0
-64.654572 120.499720 -59.178429 27 1
91.645752 124.513180 -106.721670 13 1
-151.635820 270.478790 7.784245 7 1
-22.107800 102.746290 -80.537170 27 1
-20.461760 403.601410 -105.474010 22 1
77.748672 192.607860 -27.215839 20 1
-86.637794 192.149400 -22.594635 15 1
6.240865 364.161930 109.674740 9 1
-43.222725 423.231720 15.297196 4 1
112.013720 297.576260 -51.889328 12 1
-58.439598 290.384860 -17.826525 8 1
0.393692 399.395940 -40.080399 0 0
173.292480 262.926150 -125.962220 1 1
67.417313 219.070570 -60.747955 28 1
8.981802 412.505580 29.642954 14 1
-18.571217 212.961690 -104.927710 11 1
31.843546 218.424300 -91.042358 28 1
-11.085135 382.291720 21.208170 14 1
-28.159475 375.625180 49.709187 10 1
-111.469250 211.720090 18.656628 15 1
-80.109375 297.604770 9.996558 7 1
-25.478853 204.923600 0.857018 0 0
145.548400 278.424930 -2.901218 12 1
-20.398842 378.625790 34.588047 10 1
121.832880 173.569240 -26.756645 20 1
2.188077 355.977140 -32.942371 0 0
-32.067966 377.954070 60.756821 10 1
36.414425 124.246380 -96.428688 13 1
103.267230 177.641360 -51.939220 20 1
15.403681 392.324160 62.335072 14 1
-48.659130 111.320720 -71.071838 27 1
-57.520885 360.720180 49.993484 10 1
-78.043404 296.167600 -9.626330 8 1
-59.386894 220.402180 -53.432243 17 1
32.070526 171.896420 -22.270048 0 0
21.080011 403.431090 -65.589783 6 1
-96.754089 197.647770 -18.426212 15 1
-92.652283 205.468350 -30.211985 15 1
-3.556799 233.951450 -17.191000 0 0
-6.236765 265.499480 -9.357672 0 0
-80.717514 188.425170 -37.509857 15 1
-53.883507 385.992800 31.728580 10 1
75.553619 75.492165 -3.027725 2 1
-17.621035 207.161560 -19.957310 18 1
-95.520355 306.131130 16.457499 7 1
-25.023863 393.119690 30.060322 10 1
-43.090706 106.403930 -92.861366 27 1
28.393408 390.725460 -115.642630 5 1
95.946915 192.443860 -16.388931 20 1
-12.952759 387.651790 71.216202 9 1
-32.356419 204.982160 -110.228370 11 1
56.522148 133.928450 -77.798668 13 1
-7.629658 404.933440 -119.932450 22 1
50.282715 231.812730 -63.542019 28 1
55.812637 368.423710 28.375134 14 1
31.255560 224.056950 -111.179460 23 1
115.313150 181.407460 -36.893948 20 1
63.772541 356.250270 -136.610720 5 1
-43.135681 421.435460 56.251698 10 1
71.902771 126.704010 -110.721500 13 1
72.915871 300.401090 -70.138481 0 0
155.403900 290.946080 -86.575882 1 1
80.218231 191.336240 -13.161422 20 1
-34.456287 91.995125 -45.227116 0 0
19.711468 406.345340 42.667011 14 1
127.523960 299.475590 -118.539600 1 1
-6.474929 416.083890 -69.759743 6 1
55.340397 382.204560 -132.370160 5 1
-121.916560 203.539220 -10.778690 15 1
80.522224 205.087510 -138.352420 23 1
64.186386 360.456090 45.825169 14 1
-7.255130 195.239290 -4.841424 21 1
-44.662884 374.247650 71.665504 10 1
141.676830 300.733370 -77.303322 1 1
67.116882 340.429720 -159.189800 5 1
-78.341904 394.434940 43.167656 10 1
60.157909 325.707120 -110.595860 5 1
179.214710 270.671940 -109.592470 1 1
-40.019772 427.832060 36.173130 10 1
86.986671 311.956970 -24.766151 12 1
28.333399 379.528990 -153.683330 5 1
-78.065636 182.580540 74.004128 16 1
-1.480895 204.356020 -107.652900 11 1
91.525299 135.573820 -46.700336 13 1
-82.586205 371.038880 -6.750533 4 1
85.354477 178.548510 -39.241837 20 1
35.408600 220.329800 -143.618350 23 1
71.453339 110.144390 40.195164 24 1
-4.371336 364.343350 119.188730 9 1
11.671775 324.019710 -208.368270 5 1
12.307450 398.143250 -121.340840 22 1
-33.634571 189.357590 -9.598082 18 1
140.325010 279.239040 18.730869 12 1
3.154906 173.623830 -31.224865 0 0
-5.839911 332.840420 151.029310 9 1
151.083890 267.640840 13.510640 12 1
-0.902667 415.325230 26.885471 14 1
-112.147830 294.584010 6.832076 7 1
3.648902 293.408480 -29.683823 0 0
20.344606 124.527610 -108.043850 13 1
61.490700 218.237050 -119.281670 23 1
-80.910927 366.089420 28.954691 10 1
-41.731647 382.724180 -143.944380 22 1
37.904606 376.116910 -134.894780 5 1
