58.250847 213.995040 89.510513 21 1
17.205141 205.181500 74.062935 2 1
-0.037762 104.374240 22.957315 0 0
17.709339 47.807716 6.748898 10 1
69.421280 209.063960 56.256805 13 1
63.413883 72.776321 18.353024 30 1
24.984056 114.018380 -25.133057 31 1
-1.964247 111.632590 2.921518 0 0
69.222931 127.332530 65.976578 20 1
-69.735275 181.869370 -44.001461 25 1
-24.029236 206.659300 -36.236500 1 1
-80.945351 171.396030 -68.398819 25 1
105.884490 114.151790 44.678226 20 1
-27.529697 203.557420 -92.505638 25 1
-2.554785 216.562960 68.164719 33 1
-37.948307 212.611950 -68.918304 25 1
15.347450 31.552706 8.461806 0 0
-18.807055 233.132680 54.436848 27 1
38.666222 82.592560 62.498783 28 1
-35.401375 231.363100 32.903755 27 1
30.008663 100.921520 -77.533897 16 1
23.704021 16.656494 -11.891614 9 1
-74.126945 190.569780 -83.183563 25 1
95.830734 186.099090 129.109650 11 1
-31.093988 120.224010 55.605972 12 1
42.376072 121.010280 75.228920 0 0
-8.382729 211.396620 26.249191 3 1
20.624060 225.532780 22.803188 32 1
53.371254 87.754051 43.759369 30 1
-34.535995 93.493469 -97.088150 17 1
33.904202 207.140720 -53.039219 26 1
-12.829842 60.616306 76.648956 5 1
50.048611 192.922210 96.415024 21 1
47.341480 72.501801 8.230083 30 1
-5.485696 135.954390 -15.319812 0 0
60.654877 184.353200 -88.283287 26 1
15.878408 222.516710 -15.698998 1 1
35.741306 107.689070 -20.842154 31 1
33.670509 97.338654 -89.139023 16 1
68.385864 92.122063 61.235073 22 1
105.125760 98.061920 124.910680 19 1
-21.497221 111.986660 14.672596 23 1
13.202129 93.091667 28.444822 0 0
23.151039 9.103220 -5.044562 9 1
-45.577839 32.603470 123.228280 4 1
-16.930861 208.564410 45.237511 3 1
59.009613 98.408485 145.739700 19 1
-2.726657 198.964510 -60.104202 1 1
41.789124 199.862210 -32.022682 26 1
-49.637161 227.027560 51.752983 27 1
33.895367 203.416930 -75.819183 26 1
26.406858 79.400047 39.370975 0 0
48.546173 121.478860 119.933430 19 1
2.472774 147.231840 8.144383 0 0
57.186703 217.446290 59.963364 0 0
8.511323 207.160540 60.560596 2 1
-23.163580 232.612790 40.375240 27 1
72.330254 119.502080 103.053340 19 1
112.418500 207.802580 35.652290 13 1
-45.626411 95.650909 -86.533417 17 1
69.535645 224.132750 89.381134 11 1
22.007753 125.488900 80.023392 24 1
-3.674091 112.778150 22.810753 29 1
11.711692 224.981960 -134.013290 14 1
40.095299 84.459808 31.987310 30 1
-14.002676 232.493090 -6.262586 1 1
64.589714 220.478000 81.121666 0 0
57.714703 140.266190 44.348175 20 1
-3.057036 222.476720 -125.946880 14 1
54.640732 192.890900 152.194150 11 1
9.693652 97.382416 -24.497715 0 0
-51.308266 255.118270 13.387259 7 1
-28.258577 116.377410 23.409420 23 1
10.134558 225.726010 -121.719250 14 1
83.187546 87.498230 67.101051 22 1
12.192575 116.003620 -98.535431 16 1
-25.633461 198.695390 -164.418990 14 1
-11.937028 10.471642 -1.798016 8 1
2.922311 213.969070 -60.628353 26 1
-11.349100 214.365660 38.344330 3 1
-31.861683 217.196210 -53.785561 25 1
-61.891640 200.171360 -89.496170 25 1
3.667400 105.259060 -23.669983 0 0
-32.134472 104.825760 -86.688057 17 1
66.627838 88.531464 69.229782 22 1
-30.350849 238.542860 9.665579 27 1
36.447315 82.528748 9.147722 30 1
-31.751493 223.947280 -128.222350 14 1
-14.846952 216.687590 -27.980942 1 1
-65.239861 191.128910 -45.814766 25 1
47.945473 207.772030 86.977058 21 1
2.070827 86.868729 -16.495020 0 0
115.239330 221.363400 16.842525 13 1
-3.430400 115.917020 -103.370210 17 1
-30.277702 222.838000 -34.537594 25 1
75.002060 204.875900 127.157730 11 1
-8.441854 14.735761 -13.568875 8 1
85.708374 213.671450 116.957490 11 1
31.439966 84.462677 -110.487980 16 1
27.015373 104.439950 -98.298386 16 1
75.260574 166.817870 -83.831352 26 1
2.588682 117.854240 -121.135540 15 1
49.270344 215.797970 79.264938 21 1
24.493128 99.742935 34.747429 0 0
-55.589691 258.103970 -9.630472 7 1
-6.824695 82.074036 33.281086 0 0
-7.028741 65.274956 -2.263160 0 0
0.501834 202.154570 -68.341507 26 1
52.053040 192.028990 -75.373016 26 1
6.951905 223.985870 -29.272150 1 1
68.799637 191.465710 152.674030 11 1
45.936604 77.061478 -106.164660 16 1
-39.650867 189.262760 -167.591400 14 1
98.468513 93.563057 131.123870 19 1
-1.339664 225.152600 -32.774521 1 1
102.639240 174.799850 135.438130 11 1
-24.142548 192.264330 -171.052730 14 1
3.507715 99.002167 -2.846867 0 0
-17.780767 230.238220 -28.412397 1 1
18.188549 218.314790 67.925034 33 1
73.798820 90.780426 142.874530 19 1
-19.221720 222.950260 -125.378420 14 1
1.033266 185.162990 13.253714 0 0
-45.881702 255.856660 1.981165 7 1
-48.149689 101.732060 -80.642502 17 1
48.162636 84.458923 -97.881783 16 1
-7.066903 206.718900 -36.749371 1 1
-0.827345 81.442177 -49.636185 0 0
113.810960 204.470090 59.323341 13 1
83.840515 161.457930 145.677510 11 1
-41.605343 50.972683 104.072990 4 1
9.908130 86.920471 16.509655 0 0
-20.586338 42.609058 32.760605 0 0
29.021706 82.525925 82.376343 28 1
-43.794617 8.668199 -15.310873 8 1
84.711487 81.391838 151.783980 19 1
48.497337 109.013070 -11.984378 31 1
-8.876182 191.300200 -64.544586 1 1
33.313488 119.492230 -31.901600 18 1
126.475040 214.158840 32.030411 13 1
101.582720 122.170750 36.176540 20 1
84.962624 87.503929 138.411930 19 1
17.131744 104.428570 99.432213 24 1
-10.091870 143.702900 -26.783112 0 0
67.073532 114.269910 117.057170 19 1
46.167870 187.549940 80.925842 21 1
29.645407 2.508263 -5.240907 9 1
31.815189 84.655777 57.564606 28 1
49.139881 80.101723 17.264414 30 1
63.482471 180.344440 -53.745541 26 1
84.906960 197.662160 134.676790 11 1
89.578201 209.742230 61.675781 13 1
-6.413201 92.749207 23.337364 0 0
-35.356731 12.039768 -9.480829 8 1
-4.034837 217.050450 53.489666 33 1
91.437889 115.942410 75.500298 20 1
-83.873009 165.543120 -58.949265 25 1
-62.315346 69.645752 51.369587 6 1
-14.037434 234.964860 26.518858 27 1
63.977333 79.628624 33.770504 30 1
4.239278 22.934523 0.085683 0 0
46.733181 215.374830 62.295406 0 0
40.783783 108.414880 -5.679338 31 1
-52.871719 60.241486 69.167694 6 1
-43.677063 43.282742 114.840000 4 1
52.140194 189.213960 -60.052998 26 1
-31.620468 53.928417 92.787025 5 1
-2.425257 95.333580 102.384980 24 1
83.167419 229.688190 30.923347 13 1
19.116831 206.602650 -40.232628 26 1
-10.259397 119.338880 -87.776978 17 1
-23.948177 226.213910 -113.303590 14 1
58.361065 186.962600 87.564774 21 1
-40.644886 219.734600 -136.995610 14 1
15.834167 83.005295 73.110031 28 1
33.242741 209.538390 -102.488180 26 1
30.904762 119.268150 -47.867138 18 1
2.673255 203.385760 24.598690 3 1
-57.433395 66.573318 89.943794 4 1
6.438492 108.607810 40.636200 29 1
72.663925 115.745210 90.332321 20 1
15.736023 145.207990 13.872007 0 0
81.911949 220.089540 105.415540 11 1
-76.092751 179.120220 -54.330620 25 1
40.976669 84.724319 44.182056 30 1
27.148922 168.407330 37.342823 0 0
29.113346 116.093250 98.343788 24 1
70.152985 234.062160 31.301985 13 1
24.203714 101.543110 -110.624990 16 1
-1.885394 212.987720 -152.542450 14 1
-6.405013 40.162407 11.003200 0 0
-58.548260 201.138240 -99.632141 25 1
5.795849 216.358780 66.262520 33 1
-39.603550 5.520857 -21.724459 8 1
2.421624 108.017530 -90.229156 0 0
-73.022102 186.480900 -68.499725 25 1
-10.377679 113.058220 -100.176000 17 1
-9.842049 85.582787 108.042640 24 1
23.840193 43.942795 11.589284 10 1
15.187259 103.528850 -96.535278 16 1
28.253813 204.939090 -85.162674 26 1
93.087517 224.942030 25.481161 13 1
-10.009769 50.405952 87.257080 5 1
8.677735 115.317990 -137.578580 15 1
75.991531 123.817850 61.280464 20 1
-45.748318 208.744520 -49.057175 25 1
70.284447 172.492520 -65.699692 26 1
-40.164028 60.739498 79.230766 5 1
-5.864966 183.991300 7.814580 0 0
-26.785578 67.791847 74.936584 5 1
103.891110 218.429980 26.262455 13 1
1.008276 213.809450 -78.666840 26 1
72.143967 208.142700 73.580299 13 1
11.780373 20.906242 -2.749819 9 1
-69.852287 53.101295 64.365402 6 1
-4.987643 57.130100 85.033035 5 1
-19.763664 114.616580 32.201561 12 1
24.524363 211.806000 -94.356224 26 1
23.494778 87.864014 68.260384 28 1
21.415758 110.560160 95.249687 24 1
9.990037 112.465010 -125.317170 15 1
-6.590286 191.557340 -50.933956 0 0
11.478648 206.507140 -62.744583 26 1
16.003988 214.847180 15.495881 32 1
36.109066 86.430916 76.679123 28 1
-6.708283 217.803150 -103.686920 14 1
63.930923 119.445500 97.467247 19 1
-37.229626 206.114870 -96.102089 25 1
26.154490 4.637267 -21.056078 9 1
7.598804 114.601200 1.177695 0 0
-27.972719 210.421690 -76.683723 25 1
-5.914550 180.036700 -54.569038 0 0
-53.411308 220.034000 74.833061 27 1
4.809661 120.553330 -90.846489 17 1
31.083046 176.779940 40.427105 0 0
-24.540222 226.472020 -17.592861 1 1
44.627289 93.773849 54.738846 28 1
5.420165 228.673610 -8.012761 1 1
25.461306 157.130450 29.666500 0 0
-19.632231 237.002610 16.243248 27 1
19.427546 211.844130 -61.835232 26 1
31.182343 104.859960 120.160070 24 1
-2.185614 33.934120 -2.759965 0 0
-15.182223 210.585010 -34.083359 1 1
37.033928 -1.954677 -14.469395 9 1
-12.909885 185.283660 -61.072323 1 1
121.997130 216.330860 19.221685 13 1
76.251411 113.066750 115.078800 19 1
-6.340894 173.477540 -49.454227 0 0
-9.719558 237.698300 36.757481 27 1
-86.062233 255.083540 -9.502352 7 1
51.035408 72.103104 -110.161830 16 1
-47.991093 262.490750 -11.656902 7 1
36.725494 200.096830 -49.847866 26 1
-11.014120 209.725190 -90.110100 1 1
77.898125 130.048860 42.752483 20 1
115.219490 224.391270 24.379555 13 1
-22.766062 239.582640 5.870567 0 0
2.116618 210.002180 30.304148 2 1
96.792900 206.030520 50.480526 13 1
40.364006 90.090256 24.419439 30 1
-35.084030 248.538620 4.445906 0 0
-9.065262 108.451720 32.831524 12 1
12.672140 117.404630 -17.117100 31 1
-22.216696 9.782357 -6.189919 8 1
-54.769711 210.177550 -38.647980 25 1
50.627609 186.393310 72.590256 21 1
39.507294 219.314010 62.007275 33 1
-26.561018 232.502780 -6.658850 1 1
-0.416156 93.009750 12.374782 0 0
-1.372414 82.407234 8.407719 0 0
42.056705 197.955830 -63.734730 26 1
44.556908 95.142853 -81.188179 16 1
-28.516331 59.401226 80.955208 5 1
26.742233 206.691530 -29.506134 26 1
3.346883 0.162652 -1.978324 0 0
69.977272 172.660080 -88.306137 26 1
53.033775 92.335785 67.476433 22 1
-1.732680 99.986107 -15.944620 0 0
-39.562397 215.006850 -53.691811 25 1
53.489586 103.551070 148.602070 19 1
2.312889 58.559025 2.539131 0 0
-14.869678 222.756740 -40.751369 1 1
-65.874252 62.337440 53.033501 6 1
-12.312813 14.204296 -22.824492 8 1
-1.855431 111.321770 -26.224377 0 0
-8.859769 210.645020 -49.009235 1 1
-73.548172 53.824898 56.536037 6 1
-82.313438 252.625140 1.270054 7 1
-12.105280 217.706510 67.859756 33 1
-38.344017 98.514946 -90.715286 17 1
5.038649 113.734490 34.694351 29 1
54.882942 87.174385 35.187962 30 1
1.297552 72.970383 -15.357633 0 0
37.389538 205.392650 -64.509560 26 1
-42.635464 111.615750 -72.370499 17 1
-2.061819 49.652912 -4.131917 0 0
-29.948402 235.162370 -17.131855 1 1
-22.595438 194.972920 -59.744926 1 1
86.212837 64.381523 163.729750 19 1
23.474426 75.903511 88.180313 28 1
88.625015 184.587280 133.175740 11 1
62.210320 215.017210 51.807980 13 1
23.542416 216.883470 26.097286 32 1
97.828163 130.461700 33.135460 20 1
16.504129 220.699650 51.772781 33 1
0.216326 104.219560 4.330027 0 0
79.275719 159.727340 152.061510 11 1
11.477935 105.784650 105.090180 24 1
86.196396 205.106830 72.006752 13 1
64.101219 179.013630 -61.552059 26 1
105.749900 196.241670 121.599560 11 1
11.218630 134.760040 5.979172 0 0
59.026684 77.631577 23.562481 30 1
58.238541 87.995232 71.386086 22 1
4.043389 124.668170 9.392210 0 0
-24.433487 101.808970 -97.178261 17 1
35.282604 225.754970 23.645191 32 1
29.444120 218.959870 53.645882 33 1
-24.156452 117.586680 -80.386505 17 1
-40.983414 259.249390 -4.123847 7 1
-21.036161 120.242720 44.159969 12 1
54.365288 127.263630 72.447571 20 1
98.807526 113.665180 77.709328 20 1
-10.317749 208.847240 0.669698 0 0
33.185738 121.138960 88.481644 24 1
14.830086 115.519360 -34.872250 31 1
70.836403 91.415833 150.059020 19 1
-49.493843 229.643920 41.059040 27 1
2.538078 112.454380 -6.119303 0 0
-24.214376 231.778290 4.072891 0 0
-11.625559 99.659943 100.093800 24 1
70.608887 139.527560 34.282402 20 1
27.482893 209.949920 -49.564560 26 1
57.126228 205.908130 141.069110 11 1
108.661320 120.461770 33.458435 20 1
60.892170 94.109955 56.104103 22 1
71.312157 96.110016 137.697950 19 1
85.399300 211.503080 53.760742 13 1
-20.525160 238.517650 -15.203423 1 1
5.385172 207.894960 45.866451 2 1
67.011238 114.868330 -52.817650 18 1
78.589096 215.142010 50.213146 13 1
29.345753 12.218174 -18.700996 9 1
78.093971 81.621544 85.853355 22 1
-17.165634 219.758710 -132.882720 14 1
35.775364 -2.506735 -24.764597 9 1
85.137131 215.937560 45.749886 13 1
64.526062 128.825580 59.660965 20 1
1.362312 70.129341 33.253895 0 0
67.151497 131.378920 51.879112 20 1
47.322178 206.546110 54.127972 0 0
85.454758 112.419660 81.429932 20 1
18.494915 15.597235 -25.456812 9 1
83.516930 135.174580 31.335981 20 1
-16.189291 202.619890 -163.092380 14 1
-37.436131 203.885040 -81.906052 25 1
-52.556896 204.555880 -81.207947 25 1
62.778561 214.672490 125.564840 11 1
-65.244095 195.028530 -34.543274 25 1
-29.883348 229.740840 64.953629 27 1
7.738738 159.397080 4.583238 0 0
-46.787556 226.795470 -118.579770 14 1
-17.045019 217.120900 1.687728 0 0
53.909550 94.194405 59.814373 22 1
9.450063 187.774290 17.270466 0 0
-25.297955 105.932780 -90.043350 17 1
110.574840 85.569984 132.185420 19 1
73.510910 220.976330 38.311821 13 1
-10.777382 215.194490 -145.875700 14 1
1.736607 99.649979 107.199800 24 1
-34.517269 236.850520 -4.671047 1 1
55.165146 118.605940 108.431190 19 1
105.524570 110.978740 51.702301 20 1
57.549141 75.229736 -98.523094 16 1
3.449887 91.437065 -77.973183 0 0
30.888905 2.930620 -13.015553 9 1
-18.465721 206.226380 -77.028145 25 1
-49.520844 48.053738 105.153140 4 1
10.406406 229.540910 -15.498462 1 1
-33.855835 231.988450 7.544600 0 0
-4.725152 91.753113 111.392550 24 1
28.639099 220.488280 63.003147 33 1
50.815037 207.457520 94.697609 21 1
-68.776253 195.449460 -76.501572 25 1
-5.055924 102.526890 -27.041494 0 0
4.146537 222.881730 44.586864 33 1
5.110791 224.434430 -111.030290 14 1
17.708010 70.381256 34.618774 0 0
50.275642 115.367360 92.096008 0 0
79.598267 205.939820 53.728004 13 1
46.723919 201.533630 75.486893 21 1
9.021128 92.751091 111.073930 24 1
1.545924 106.893700 29.996304 29 1
102.180310 201.291200 59.730103 13 1
29.624113 96.276283 -99.828835 16 1
-20.553793 58.801857 84.163918 5 1
0.749395 19.340105 -8.830960 9 1
-35.633522 107.544160 -80.484016 17 1
-24.960827 5.093456 -24.751524 8 1
9.243616 206.765030 29.466244 2 1
-39.929703 224.261810 43.430882 27 1
54.306011 83.497139 21.710829 30 1
71.345276 221.324950 46.670128 13 1
-32.121857 219.052640 -134.037400 14 1
-6.543645 211.597660 -70.679657 26 1
-37.234245 63.288807 72.321594 5 1
-54.024986 34.710133 113.096160 4 1
-9.811846 79.390251 116.034890 24 1
-5.804382 156.876750 -32.737911 0 0
110.890660 115.595180 39.084694 20 1
103.054590 183.802730 128.685850 11 1
10.093382 216.887970 24.355516 32 1
-13.549994 195.041730 -173.958970 14 1
5.467893 55.242073 27.496946 0 0
67.240120 105.590640 126.112850 19 1
12.619546 101.912260 -81.864830 0 0
26.974506 92.409302 -105.838230 16 1
-4.383723 214.703230 -62.503246 26 1
88.343658 76.162323 94.372589 22 1
15.640599 227.283170 17.369173 32 1
-76.618294 251.342830 12.910248 7 1
-51.086529 203.644930 -100.353080 25 1
-45.520512 212.552090 -151.781420 14 1
20.910648 12.022625 -18.420719 9 1
12.745352 112.803800 -107.191180 16 1
12.510617 209.890470 38.442543 2 1
45.394779 89.564491 69.418159 28 1
23.230461 210.387950 -71.395088 26 1
38.201000 186.308150 43.436710 0 0
-18.849949 215.758820 -48.071281 1 1
-26.013903 46.859673 41.341591 0 0
97.718002 75.643433 83.618332 22 1
74.202225 102.900120 125.111000 19 1
36.862911 93.774361 -97.403595 16 1
90.450348 174.245150 140.086320 11 1
-26.163046 230.442570 19.081583 27 1
65.060547 137.558110 44.546886 20 1
16.515326 220.595430 -23.842323 1 1
41.727135 118.535410 98.972404 24 1
-0.512459 127.266150 -13.641907 0 0
12.412010 140.810240 19.232981 0 0
13.116286 213.008450 -83.588623 26 1
-5.063287 4.549637 1.443074 0 0
-25.936434 51.977985 53.276470 0 0
40.855820 88.050407 -100.726540 16 1
5.044605 29.183821 -5.159427 9 1
-33.043400 59.946472 100.301300 4 1
40.085304 200.719250 -79.129333 26 1
16.204325 93.059891 119.067590 24 1
47.962879 90.095474 49.109814 0 0
30.779430 85.782616 42.243584 0 0
-11.241453 113.631920 37.801735 12 1
39.551735 112.847980 111.713650 24 1
7.130695 216.576020 -30.394421 1 1
-38.959244 227.630230 57.947845 27 1
-7.448228 207.098880 -60.129768 1 1
1.712650 166.342510 3.009726 0 0
-16.462452 226.271270 -16.201523 1 1
34.690228 121.575000 -58.542786 18 1
-61.337170 196.384740 -65.552155 25 1
23.825621 21.216202 -1.981966 9 1
20.344999 205.043010 -83.082138 26 1
-20.603893 17.764692 -8.295865 8 1
96.735176 76.740044 150.791990 19 1
30.334057 111.339980 -11.326678 31 1
11.829128 83.344284 59.498894 28 1
65.169579 85.374962 81.960899 22 1
31.628960 88.716827 -118.766820 16 1
88.873016 235.468310 22.156408 13 1
95.677490 114.366160 62.256145 20 1
6.960633 109.064890 -84.257828 0 0
-43.807503 212.723370 -64.100723 25 1
-67.977997 249.645770 4.406901 7 1
3.645726 83.981422 27.156336 0 0
103.684810 232.545030 20.064657 13 1
54.698578 179.337750 78.611099 21 1
43.819450 198.765590 -51.886215 26 1
-63.575470 60.487038 75.724823 6 1
-0.715421 117.827610 -10.502826 0 0
-1.996099 209.017300 23.223881 3 1
2.900591 124.646870 0.524028 0 0
-74.837448 52.004814 69.786293 6 1
45.334160 195.620770 89.289429 21 1
67.185982 238.634690 26.161819 13 1
22.575331 75.723022 76.849136 28 1
-33.289570 206.955090 -155.893140 14 1
1.129088 7.688434 -2.988158 0 0
108.290440 207.576980 48.746315 13 1
73.925262 112.212470 -52.466969 18 1
-42.814426 199.208760 -95.540588 25 1
3.183543 84.463799 -64.524048 0 0
-4.683295 20.017000 -1.434576 0 0
-14.025393 116.771070 -76.996719 17 1
-65.540390 252.514800 17.495888 7 1
-8.045116 85.547806 23.941151 0 0
-50.305916 223.602680 68.744156 27 1
2.913294 202.297120 -47.435646 1 1
131.099790 210.122340 36.164528 13 1
41.531628 117.288250 86.302238 24 1
96.288002 83.060547 139.105620 19 1
5.319771 113.084780 90.722427 24 1
-79.329010 171.570940 -51.341702 25 1
-71.642105 249.453990 -2.445406 7 1
78.063652 181.276990 139.171540 11 1
104.209130 110.298320 68.074120 20 1
13.877950 214.447490 -48.921024 26 1
-3.065064 220.659160 -109.439400 14 1
46.289070 122.221850 81.371796 0 0
98.077789 114.789410 53.504543 20 1
-8.559661 111.747090 17.382534 23 1
45.681995 114.369470 136.756580 19 1
76.493767 99.581070 133.008010 19 1
104.261060 79.753479 139.651080 19 1
-76.405396 185.093320 -76.943176 25 1
62.823223 225.969990 46.869415 13 1
63.687801 105.878710 133.631390 19 1
7.942408 75.774078 26.133615 0 0
-28.093740 11.520341 -1.903827 8 1
-73.512985 255.549060 -13.356938 7 1
52.753597 77.230209 9.723797 30 1
-0.328890 72.226830 -3.357530 0 0
21.083853 218.709700 19.119087 32 1
23.742056 205.322310 -61.905052 26 1
-21.254675 186.523060 -59.158554 1 1
79.201424 85.406410 73.079132 22 1
7.430888 205.479060 -71.295799 26 1
14.467124 35.638420 2.457541 10 1
-26.603300 110.296980 19.693689 23 1
50.059227 220.135250 72.783012 0 0
45.141304 198.194840 -87.333336 26 1
-4.218596 147.935100 -27.770651 0 0
4.749750 230.811800 -21.401148 1 1
-3.830416 195.717480 2.240244 0 0
-18.698118 234.200230 47.217690 27 1
2.443243 105.458500 -13.527220 0 0
-0.843648 61.201206 -14.809529 0 0
-13.253413 210.277980 31.925766 3 1
16.971304 100.430270 -106.825420 16 1
5.353116 110.321140 -96.568542 0 0
67.519272 170.873210 -73.013000 26 1
-30.564430 2.553813 -1.170313 8 1
11.305803 85.436844 24.091019 0 0
61.886044 194.713680 151.477360 11 1
38.219883 88.544693 67.009201 28 1
-38.449535 196.307530 -164.517840 14 1
-26.245331 218.221120 -58.289284 25 1
-62.302902 200.562680 -78.149529 25 1
-46.109707 226.201260 58.161770 27 1
1.247216 72.262169 -39.658012 0 0
-21.993893 211.265550 -152.754530 14 1
-45.656818 59.859772 97.722931 4 1
98.621635 207.005480 68.171219 13 1
16.675600 42.992538 12.083659 10 1
30.736378 105.449650 -92.153183 16 1
5.262945 84.168694 1.962329 0 0
9.480578 196.578490 15.557642 0 0
-4.081775 214.094150 61.089787 33 1
-14.163020 105.926280 -106.431370 17 1
-6.582724 213.232530 33.006657 3 1
110.415150 211.456090 29.743814 13 1
6.161138 93.022408 -16.733858 0 0
76.390770 117.155530 77.100960 20 1
-45.916054 61.497425 84.496147 4 1
7.972855 216.081130 38.293659 2 1
0.664698 219.417370 -139.813450 14 1
68.650215 82.386589 88.416512 22 1
91.510681 209.738720 70.430641 13 1
-6.000982 237.106720 -11.202984 1 1
54.642735 120.233590 115.749980 19 1
-66.878098 190.832200 -83.132965 25 1
41.530445 197.409360 52.487129 0 0
34.635303 93.007706 53.419025 28 1
49.042339 95.422554 -91.611771 16 1
43.534458 77.056641 4.148865 30 1
-43.417473 228.334990 48.379295 27 1
-12.923352 117.068840 43.945282 12 1
64.914185 99.288414 138.540660 19 1
4.083809 116.089220 -114.159730 15 1
-34.752586 224.473510 64.475342 27 1
-60.597218 46.094032 109.856450 4 1
-25.061443 229.827360 55.694229 27 1
54.766594 220.777770 85.355087 0 0
69.497276 217.429980 121.407960 11 1
89.348961 126.991090 41.409821 20 1
106.350530 220.168790 35.435429 13 1
35.692375 106.419980 60.994560 0 0
-65.174362 52.508492 74.023582 6 1
-1.893368 227.307220 -12.003925 1 1
30.981310 110.021800 -25.676991 31 1
24.466843 90.599976 53.077709 28 1
88.058014 118.058590 60.271896 20 1
-32.904804 58.787342 64.363998 0 0
-13.742593 113.491880 23.152517 23 1
-42.650555 109.570620 -79.590744 17 1
62.421112 209.611400 57.678535 13 1
-13.398161 235.884630 1.754635 0 0
-33.957596 203.379000 -47.174976 25 1
20.522976 213.056050 -52.795448 26 1
2.467874 92.656136 115.783330 24 1
-42.136978 250.158510 4.891632 7 1
21.707739 121.289600 86.012589 24 1
46.636066 115.672870 77.346649 0 0
87.944527 209.403090 43.174374 13 1
92.910904 72.620094 156.841230 19 1
-40.379925 225.762510 71.663849 27 1
101.134510 123.292790 43.870266 20 1
5.921756 64.199966 25.317652 0 0
-44.796986 222.614430 -129.913590 14 1
92.061600 165.943560 142.684340 11 1
74.914711 206.705870 60.143604 13 1
46.321709 197.139500 -72.925110 26 1
-9.514678 136.422640 -21.437441 0 0
-54.129799 201.924770 -66.586784 25 1
3.245726 103.820200 13.821068 0 0
9.241493 114.749110 43.168308 29 1
-37.135994 225.459580 36.499966 27 1
55.318233 87.543709 -87.950996 16 1
-29.867676 230.525760 -22.948418 1 1
-37.255852 232.630970 -17.468555 1 1
4.374825 109.919700 5.650643 0 0
17.801928 210.676440 69.405281 2 1
-22.665604 114.919290 -67.294907 17 1
54.081936 118.130260 -56.893677 18 1
-2.589062 79.261528 -1.397403 0 0
1.262368 101.957980 96.610420 24 1
0.520600 91.532150 5.474901 0 0
30.817150 13.396453 0.778577 9 1
68.536865 216.184590 55.554329 13 1
-38.779629 48.988098 111.849170 4 1
43.218433 195.812790 -38.202076 26 1
-53.747375 222.585140 48.053181 27 1
-17.904310 67.462288 74.744049 5 1
-21.353775 208.833530 -86.916016 25 1
61.124035 215.876340 67.480850 0 0
33.319458 121.488680 78.461220 24 1
17.110285 20.174480 -10.727407 9 1
84.618355 221.198990 40.255123 13 1
7.811905 211.461010 -38.156937 1 1
-57.396305 249.485290 2.434330 7 1
-35.574295 213.240550 -146.629000 14 1
81.855598 95.535461 130.287220 19 1
7.192678 138.449510 13.585446 0 0
-60.056526 204.188140 -44.845905 25 1
19.707102 112.268340 -88.317207 16 1
14.862598 211.115190 29.483284 2 1
-4.540616 85.346291 -18.467632 0 0
12.203378 108.141710 -31.241566 0 0
-50.375732 45.350708 113.805570 4 1
3.081114 217.207460 -147.403900 14 1
58.004436 195.396620 92.903130 21 1
-16.284090 85.189423 37.849064 0 0
43.690224 86.283005 59.210842 28 1
-39.485722 205.899830 -72.774292 25 1
4.685471 208.349520 -82.185326 26 1
130.579830 206.462040 30.174248 13 1
-7.787980 165.649430 -37.062386 0 0
104.320500 107.885730 114.920110 19 1
-1.189771 236.933820 -5.902926 1 1
-4.728992 205.370030 -73.397583 1 1
1.751814 220.501370 50.752544 33 1
12.112184 205.954760 19.412735 32 1
-5.473633 115.568600 -95.812660 17 1
25.286348 101.400060 123.346350 24 1
-30.088148 10.708957 -15.074241 8 1
79.768692 78.567772 94.739517 22 1
23.465187 80.493408 63.524757 28 1
16.641357 116.358370 92.740211 24 1
-48.555199 213.865070 -44.108608 25 1
16.038208 67.529350 90.114334 28 1
81.322075 174.510360 141.267550 11 1
-53.507416 68.281265 59.537495 6 1
-68.204559 196.255620 -90.698814 25 1
59.165672 221.906750 103.341900 11 1
-45.947838 205.916400 -60.398060 25 1
23.223532 205.508270 -46.261223 26 1
52.819683 106.585350 139.400620 19 1
99.512794 165.292530 140.754870 11 1
-21.560915 121.421540 52.013401 12 1
51.465965 87.340546 29.102505 30 1
-82.272835 46.463085 59.467163 6 1
-39.857483 200.840270 -87.699326 25 1
41.717972 98.287392 -94.755669 16 1
-37.137608 216.675380 -29.778183 1 1
1.559580 71.566490 6.565496 0 0
-40.217022 212.714750 -37.851978 25 1
-36.177418 113.971310 -70.718269 17 1
-28.203333 209.742580 -31.239662 1 1
-3.230127 111.903460 30.736717 29 1
-8.189839 205.363630 42.706367 3 1
4.248206 223.840610 -135.394100 14 1
-24.495716 116.856350 38.897369 12 1
2.604512 43.562500 2.461422 0 0
54.920284 188.460480 -88.607162 26 1
68.374489 219.302110 112.895420 11 1
-11.925505 42.651524 22.176788 0 0
-44.773869 66.027229 79.202148 5 1
-11.698606 220.906140 -113.836690 14 1
72.705048 79.691757 159.169680 19 1
7.521321 95.720787 104.981830 24 1
-60.251759 38.884884 111.989500 4 1
-7.974282 229.557830 -28.037138 1 1
5.447792 89.433846 122.083750 24 1
3.761200 44.538860 19.399117 0 0
52.032825 219.757710 118.759540 11 1
16.209497 152.164890 20.403015 0 0
63.725361 114.304050 110.116240 19 1
42.273933 93.494942 36.081482 30 1
108.165940 225.950560 26.592592 13 1
64.054581 95.296448 150.394730 19 1
27.595905 110.975800 108.192340 24 1
3.136200 225.077940 -121.907800 14 1
61.490936 75.111397 12.050062 30 1
86.289719 126.634320 53.162678 20 1
24.729719 229.106030 18.356745 32 1
61.410465 181.840130 -73.325546 26 1
85.653786 116.279720 102.933780 19 1
-70.191032 187.995850 -58.825569 25 1
45.520027 118.408200 -50.365013 18 1
6.593217 210.585920 -90.970444 26 1
45.853256 202.195540 -98.637901 26 1
83.228828 89.511864 60.416531 22 1
-30.227030 226.379200 44.841545 27 1
87.222984 195.368880 128.418260 11 1
64.238213 109.525510 121.199730 19 1
22.638710 103.113850 103.608550 24 1
1.377836 91.652435 -22.261265 0 0
10.887499 105.714440 95.701538 24 1
78.781281 206.165480 72.602386 13 1
-26.536043 221.697130 -124.137540 14 1
-2.051037 91.872787 -2.103551 0 0
-31.059912 115.967540 -80.307190 17 1
-76.426987 176.875960 -63.743889 25 1
90.142105 82.461678 77.683174 22 1
-13.327969 207.763920 51.202522 3 1
24.076664 96.557518 -116.363590 16 1
47.601753 90.728951 -100.676420 16 1
-17.268732 197.689450 -63.353260 1 1
28.245983 120.914200 -36.334259 18 1
11.928661 23.293325 -17.608198 9 1
113.805790 203.107740 50.902153 13 1
-54.584476 57.900154 99.333435 4 1
3.350240 131.276630 5.844185 0 0
27.223925 204.632080 -53.902821 26 1
-15.251131 199.152800 -43.606842 1 1
59.347813 234.273100 38.142948 13 1
-35.475552 230.768540 19.933842 27 1
48.989052 199.771000 145.499240 11 1
16.509401 206.435230 -74.089493 26 1
-17.349602 215.424240 -65.155861 25 1
2.965335 96.906456 -82.421257 0 0
28.250013 104.608030 -84.112900 16 1
46.022903 207.858870 72.115768 21 1
-48.419022 203.656740 -71.402054 25 1
-26.137794 219.835010 -51.087975 25 1
94.171776 237.471880 14.533753 13 1
-0.083244 92.348656 20.748051 0 0
41.361675 79.018585 -115.126920 16 1
-54.205158 62.501320 75.489975 6 1
3.767246 104.551460 102.876110 24 1
117.519500 227.390960 14.147440 13 1
-39.859917 203.646670 -155.819260 14 1
-56.028736 223.356690 61.677895 27 1
-48.820553 220.435410 53.364864 27 1
-2.076484 113.845710 -19.878439 0 0
37.470066 8.451733 -9.772588 9 1
26.176720 15.211762 -4.238364 9 1
77.232155 115.282060 105.248600 19 1
-71.677444 53.685677 77.547897 6 1
70.223434 135.136700 39.492783 20 1
-49.414165 213.258410 -28.601990 25 1
103.673840 73.763367 151.299450 19 1
8.264636 120.843200 4.905703 0 0
74.227562 210.010970 51.304939 13 1
38.660835 109.077590 67.227249 0 0
39.657360 102.123600 -82.541443 16 1
-11.699668 183.665270 -54.535110 0 0
29.657850 13.335556 -11.790195 9 1
-5.817199 121.520960 -13.378747 0 0
52.424263 80.618515 31.263569 30 1
-29.469742 204.397450 -55.323639 1 1
-8.397399 206.050460 -67.200050 1 1
53.425228 192.118300 -94.544029 26 1
-39.996334 55.687550 108.704700 4 1
5.253673 152.598560 11.253466 0 0
105.475490 208.472950 37.187359 13 1
43.701759 86.933693 37.982468 30 1
-31.999798 234.068980 -10.417944 1 1
60.443737 215.314880 83.216858 0 0
9.802657 206.681230 51.510170 2 1
108.615680 119.389390 48.030308 20 1
-23.162973 50.191566 46.601776 0 0
23.827967 113.365440 -12.702334 31 1
-45.310436 71.835083 65.546471 6 1
-47.115738 54.611629 105.615300 4 1
76.064293 227.189620 96.746574 11 1
-21.773039 202.525740 -41.889896 1 1
19.649986 91.785004 26.837341 0 0
124.653920 202.523090 48.658577 13 1
-6.608587 58.479366 78.478111 5 1
-36.521889 66.742973 90.254425 4 1
6.752185 220.646880 -22.019726 1 1
19.313126 220.375760 33.372437 32 1
21.860212 98.162796 118.148050 24 1
-9.251935 76.027832 35.082157 0 0
-18.590797 238.130450 -8.523537 1 1
58.106579 91.970856 156.269130 19 1
-34.827900 230.052750 40.990940 27 1
120.689830 222.983380 20.481804 13 1
86.597351 224.313600 28.705948 13 1
77.164185 225.909270 30.359367 13 1
13.654567 73.863152 78.767471 28 1
33.620506 215.289780 65.003441 33 1
60.283199 181.720470 -66.405289 26 1
-30.765530 205.659770 -35.953705 1 1
65.321297 176.204380 -84.958687 26 1
11.715404 217.212130 69.441078 33 1
-57.039043 251.709460 12.418600 7 1
76.368744 160.903870 -72.089066 26 1
72.136536 170.244570 -59.626644 26 1
36.200764 89.481995 45.187141 0 0
-61.714256 255.958620 -5.690804 7 1
13.677938 214.164280 -94.150787 26 1
3.758032 198.527760 19.700918 0 0
94.204422 204.380020 73.692230 13 1
-66.252129 190.954570 -70.470543 25 1
4.001400 82.447983 14.383787 0 0
-16.438686 236.558330 -20.335201 1 1
-20.912325 192.153270 -50.524929 1 1
118.482350 206.312300 38.132095 13 1
89.196251 157.691820 144.180130 11 1
93.664558 203.868330 59.692127 13 1
0.224904 116.551400 79.633026 24 1
-10.743702 199.743730 2.243425 0 0
98.358276 63.496777 163.916470 19 1
-18.729294 113.537620 -81.451775 17 1
56.978050 219.758960 73.003563 0 0
4.304319 190.119430 10.142546 0 0
-3.070393 107.198920 94.169075 24 1
1.991002 169.315170 11.376199 0 0
20.086937 212.966250 -38.373425 26 1
28.341423 225.554670 53.245865 33 1
8.923660 213.725450 -159.552980 14 1
143.056960 205.076610 30.288574 13 1
-6.833095 204.711380 35.470310 3 1
-37.858356 60.284061 95.661697 4 1
-13.239469 218.840040 -104.682150 14 1
97.771019 121.269350 51.706055 20 1
84.991043 190.335490 135.515030 11 1
-2.950559 68.855629 -32.193352 0 0
91.222527 220.946670 38.450218 13 1
98.899208 195.878250 122.411380 11 1
-16.088104 116.248190 -88.827370 17 1
31.733459 223.422790 28.877754 32 1
56.335876 224.598210 47.950356 13 1
-64.272820 55.237820 67.334023 6 1
-32.552914 51.275890 54.173920 0 0
90.520676 230.724470 27.590176 13 1
63.100311 87.360466 159.953410 19 1
36.088898 79.894897 68.094955 28 1
14.266144 223.155730 -141.434860 14 1
78.850861 73.490356 160.994030 19 1
78.561043 107.035840 122.238290 19 1
37.114021 113.700110 100.130870 24 1
6.819784 178.924210 8.239408 0 0
20.528378 113.654010 -4.234669 31 1
75.988869 214.408400 119.416730 11 1
1.704577 111.776040 -102.528600 17 1
88.656303 111.724560 109.766460 19 1
70.166336 207.024280 131.177140 11 1
-35.857391 224.187650 52.825272 27 1
45.817059 193.905910 82.819252 21 1
-61.022263 201.059160 -55.260262 25 1
99.169418 213.505980 43.434120 13 1
-22.922173 225.330630 -119.801140 14 1
21.823776 150.795170 23.754707 0 0
-57.494709 205.462630 -51.673458 25 1
65.611328 117.478650 -61.518879 18 1
-3.095894 122.908680 -76.957809 17 1
55.607197 118.383710 82.232101 0 0
29.569021 115.918640 90.762695 24 1
80.084999 128.233080 56.840496 20 1
6.481614 181.342360 15.064521 0 0
-11.495647 67.093460 76.984749 5 1
17.802893 98.188049 35.913933 0 0
50.250526 210.701800 67.207451 0 0
46.638145 119.873890 -63.655148 18 1
-2.591552 221.052890 -20.275494 1 1
66.087135 220.462840 51.146076 13 1
26.577946 25.893480 1.910384 9 1
-18.827509 191.182620 -174.944080 14 1
-27.889229 214.773410 -144.143040 14 1
94.358139 122.112890 43.736553 20 1
-30.416897 223.203230 -21.922491 1 1
80.748238 91.124054 141.988050 19 1
72.447998 89.762993 56.000259 22 1
-48.810513 200.917570 -88.645073 25 1
85.157761 93.737793 136.127790 19 1
86.408501 98.076195 125.670340 19 1
-7.085222 111.749420 86.290688 24 1
23.278070 128.404400 73.772552 24 1
-2.885025 113.933480 40.989925 29 1
-48.543190 232.063340 30.007324 27 1
21.534933 102.043040 -94.860550 16 1
15.222785 103.873760 110.473770 24 1
-27.621780 214.848130 -67.873680 25 1
56.749020 209.228940 76.503098 21 1
-0.494344 67.278976 -11.810759 0 0
-53.285759 203.029920 -46.598347 25 1
-37.521660 232.891110 26.856396 27 1
59.842846 115.826230 -51.019367 18 1
-61.768234 203.588520 -37.930439 25 1
-1.961567 80.925667 28.993530 0 0
-49.769066 200.767700 -158.937580 14 1
-23.749960 207.545550 -98.836830 25 1
50.133282 224.772170 110.414090 11 1
8.612818 118.901210 -123.958370 15 1
-18.326794 216.895870 -140.085570 14 1
3.161952 37.376362 -1.104472 0 0
124.560990 211.320390 38.368725 13 1
-26.964886 230.693180 -13.181054 1 1
18.628851 26.222900 6.467402 0 0
18.970020 72.334366 85.000069 28 1
-14.795660 82.165146 110.693080 24 1
-4.025064 82.312729 118.143480 24 1
96.072975 206.797130 118.091110 11 1
24.326178 218.410660 49.498199 33 1
76.839020 84.271103 79.095818 22 1
24.546787 211.976440 -101.400270 26 1
89.443695 120.489950 53.657867 20 1
1.047506 118.355980 -108.750080 15 1
15.306045 26.149559 -4.507586 9 1
10.607248 113.049620 30.829632 29 1
-34.756233 209.537230 -63.677197 25 1
60.358498 122.120380 92.663536 19 1
9.931418 212.875400 -62.644058 26 1
6.579672 212.416980 -74.767876 26 1
-62.122459 194.851520 -85.176575 25 1
28.914965 209.393040 -90.131660 26 1
54.740849 84.365959 -98.298965 16 1
-5.847267 220.344920 -140.724380 14 1
50.511723 188.344270 -43.850685 26 1
31.393459 165.720340 33.115280 0 0
-64.459991 197.591400 -48.141014 25 1
-2.792323 51.767784 3.892729 0 0
24.686464 227.592790 27.548590 32 1
-38.472031 234.267520 15.204900 27 1
25.974409 204.719540 -69.643364 26 1
-20.021711 105.898800 -101.738130 17 1
-22.456526 11.979945 -12.747211 8 1
-15.864145 112.344510 -96.699806 17 1
-13.168880 210.855380 -78.290733 25 1
-25.488209 229.869420 25.744318 27 1
33.276337 77.657242 80.075356 28 1
1.001769 25.646076 5.270636 0 0
16.894304 206.626310 -58.423378 26 1
64.021637 222.984730 94.277596 11 1
-32.843513 9.742153 -22.645178 8 1
-35.617180 226.392750 -116.499760 14 1
40.753529 85.619110 -111.456840 16 1
-6.694209 105.818990 -102.632810 17 1
-2.185956 31.423456 7.120666 0 0
2.995912 63.779819 -1.377371 0 0
67.431122 223.161480 104.009370 11 1
-42.018345 208.451250 -81.098106 25 1
-66.627121 57.375793 102.620350 4 1
-93.569283 251.166340 -2.401841 7 1
-15.986210 18.675978 -3.579828 8 1
54.975353 190.562790 -54.344509 26 1
-0.976855 76.388474 -20.411173 0 0
36.555733 83.364120 17.240227 30 1
-34.532776 59.124588 106.723300 4 1
39.056259 5.344387 -21.658241 9 1
31.688414 207.627090 -80.250237 26 1
-46.235035 231.584140 23.907074 27 1
18.146648 225.851730 -131.375320 14 1
-13.283700 238.773010 -4.772347 1 1
-51.719398 60.950047 81.285477 6 1
109.271050 221.325490 20.773554 13 1
29.317387 -2.162981 -25.306376 9 1
92.660957 215.710460 34.692596 13 1
96.349716 192.520780 127.358390 11 1
4.408504 215.254960 -42.170025 1 1
41.800266 109.850230 -11.922031 31 1
46.806618 88.305283 24.580517 30 1
-54.996552 231.645840 29.634193 27 1
-73.437752 182.581820 -49.546566 25 1
-28.190821 237.016050 3.425794 0 0
97.155182 227.471530 30.024412 13 1
-1.133045 215.159300 -30.575354 1 1
40.618256 118.922160 -57.591633 18 1
27.725651 6.544114 -28.334101 9 1
1.332749 201.990860 -55.564671 1 1
5.916704 143.755620 3.913619 0 0
-44.155033 211.217210 -70.687576 25 1
55.541889 136.875920 55.533978 20 1
98.206421 110.283170 112.349750 19 1
85.749603 211.702070 74.409775 13 1
28.095568 77.611755 69.855293 28 1
-32.145004 205.504210 -78.149323 25 1
-46.320156 225.703430 36.840199 27 1
-6.026475 40.544216 -0.215526 0 0
-49.790730 194.435380 -163.059110 14 1
-56.590816 63.986279 64.048706 6 1
40.544010 117.849270 -39.180523 18 1
105.621250 206.740880 59.404884 13 1
15.060465 95.533394 112.360240 24 1
65.719009 176.396030 -75.815056 26 1
104.020280 92.086769 128.192600 19 1
-6.349659 224.756870 -113.339790 14 1
56.884842 107.534530 133.092830 19 1
65.601837 114.320900 -41.057095 18 1
18.178232 208.721020 -94.966156 26 1
82.803192 75.475754 154.371830 19 1
42.097355 117.833340 -27.979219 18 1
-3.751715 193.780520 -56.378754 1 1
2.070098 85.169815 -22.743893 0 0
28.989290 224.763520 16.208719 32 1
90.945328 80.623497 149.074860 19 1
84.371040 218.664570 112.721940 11 1
51.309715 212.659390 58.510822 0 0
-15.877339 118.040710 36.065876 12 1
-21.344307 207.853300 -55.638153 1 1
-18.074377 19.556566 -13.950050 8 1
27.897291 108.295010 114.156880 24 1
48.480122 217.146160 129.561140 11 1
-70.731834 60.347198 44.556923 6 1
59.072948 119.251010 -62.401474 18 1
16.816351 212.650450 42.329498 2 1
-36.435928 69.239571 74.603249 5 1
69.149368 87.311897 157.800740 19 1
-15.799397 209.321700 -68.461670 25 1
122.841770 211.507890 25.289194 13 1
3.051081 152.858870 5.039976 0 0
15.516111 207.681430 -46.259491 26 1
-16.995996 235.409060 40.317463 27 1
-2.930250 98.826096 21.168293 0 0
37.015171 85.138603 -105.459150 16 1
16.409245 76.468582 73.600868 28 1
16.050270 225.454030 -119.066160 14 1
68.386787 177.559860 -50.707287 26 1
-29.628235 227.347430 51.347450 27 1
10.719782 105.270620 -88.824287 0 0
13.121646 16.459986 -21.659842 9 1
-11.734225 94.391747 20.177809 0 0
13.208033 98.628212 103.941930 24 1
21.379801 112.514670 101.345440 24 1
39.622673 121.286710 91.231003 24 1
-47.573883 64.200241 90.289474 4 1
-20.993292 217.948820 -26.330994 1 1
-23.730844 17.733824 -16.676762 8 1
114.414670 107.973870 46.102055 20 1
-28.813379 58.117447 109.971840 4 1
6.784935 103.873090 -79.957939 0 0
-57.452145 198.219860 -93.997681 25 1
-16.401226 222.447770 5.308848 0 0
1.707589 206.698140 -165.000900 14 1
-77.687141 248.505620 -0.623936 7 1
7.779238 113.988910 -103.363300 16 1
53.685200 193.112320 -37.248711 26 1
-13.193727 88.148109 103.209050 24 1
63.272964 183.168700 -95.254761 26 1
-0.481696 205.867950 35.341919 3 1
68.524467 225.506260 36.379341 13 1
-36.157875 217.054320 -47.976711 25 1
-19.891426 231.983860 28.670929 27 1
-17.858883 119.929890 29.249411 12 1
-7.638040 105.159750 19.002466 0 0
102.518820 207.855610 52.579674 13 1
2.972905 52.862812 84.150085 5 1
-17.313469 214.341050 34.894718 3 1
21.971167 103.307490 -84.124802 16 1
78.425148 80.465607 152.131450 19 1
-56.742050 229.420550 37.709091 27 1
132.956220 212.345660 29.781105 13 1
-42.341660 221.539640 60.274097 27 1
99.184540 222.640370 25.548880 13 1
23.934093 101.390960 45.994171 0 0
15.623638 123.233890 77.084930 24 1
11.694087 224.024110 -127.632700 14 1
-35.510643 4.762056 -4.479804 8 1
0.451934 113.679080 -94.336243 17 1
5.116302 90.570808 14.412853 0 0
41.652046 91.396492 -108.081620 16 1
32.236004 205.217970 -35.526150 26 1
-44.247253 217.196230 -35.857861 25 1
-23.075092 115.563980 19.756760 23 1
-25.141245 223.132030 -43.139900 25 1
-3.709136 55.925529 -6.616087 0 0
22.699163 115.035640 -31.625671 31 1
20.370142 209.255130 57.110294 2 1
-59.309612 55.856258 79.957947 6 1
110.721190 105.785680 61.933670 20 1
57.843536 121.251300 101.317720 19 1
61.240208 186.100200 -43.484379 26 1
-56.100029 204.881820 -34.057800 25 1
76.350639 214.277250 74.159843 13 1
-47.664566 63.904320 69.529236 6 1
35.778210 232.044040 23.235157 32 1
11.436598 148.924680 10.960965 0 0
49.499294 89.726387 55.229401 28 1
-87.772255 251.354370 4.709104 7 1
31.859762 106.813870 50.315643 0 0
-86.241661 249.612410 -6.348591 7 1
99.504799 178.737410 131.142850 11 1
-98.875992 251.348360 -6.943230 7 1
21.230164 213.783070 73.743050 33 1
90.351089 215.950390 112.378170 11 1
1.773784 214.299070 -92.648804 26 1
53.724247 190.427630 -67.059555 26 1
113.949300 211.444200 41.461082 13 1
-58.837257 258.567140 -15.890085 7 1
-59.544292 201.338810 -69.766205 25 1
92.190285 210.033870 52.826267 13 1
-3.809474 97.797195 -21.594154 0 0
-20.490915 232.250490 -4.986126 1 1
-18.863121 225.961820 -32.910759 1 1
100.522360 74.348763 145.877000 19 1
57.776192 80.657791 34.583290 30 1
28.067120 118.350740 -42.082615 18 1
25.841156 209.881350 -80.861717 26 1
-20.151693 10.461160 -0.140943 8 1
102.201520 228.750370 26.291779 13 1
0.987292 86.272224 -2.643062 0 0
36.890610 203.234700 -43.979237 26 1
98.797722 228.614360 19.179895 13 1
34.813869 216.812040 58.554718 33 1
39.150406 116.302460 67.436897 0 0
-3.483387 64.794800 -23.326712 0 0
-75.904976 56.792240 44.209808 6 1
29.677176 86.068726 76.412300 28 1
35.526527 99.504761 -102.875130 16 1
-14.103107 221.593730 -121.787670 14 1
-2.337549 122.738020 -19.826235 0 0
-32.936096 211.622730 -57.615639 25 1
-5.613587 210.009200 -156.621260 14 1
58.226406 122.117100 73.668892 20 1
-34.334221 222.277270 -122.618900 14 1
43.682690 209.346880 144.750980 11 1
7.001912 11.889549 -0.349270 0 0
-0.740481 118.872860 -4.321222 0 0
21.627811 95.265297 -108.293660 16 1
-9.304298 164.198070 -42.965172 0 0
102.870800 69.218040 156.077300 19 1
60.463360 217.215790 112.495570 11 1
43.962120 191.606320 52.476486 0 0
-85.307671 165.839290 -73.019485 25 1
18.378817 224.110090 44.652363 33 1
47.053394 134.594010 65.857422 20 1
-2.736005 199.166630 -45.678780 1 1
118.708760 217.730290 32.580219 13 1
-21.470629 211.932940 47.907295 3 1
-30.170181 121.318290 48.637615 12 1
31.507181 94.705132 -113.296920 16 1
32.345917 89.420120 64.173653 28 1
73.818893 215.908520 44.589951 13 1
45.611340 193.505780 -47.108620 26 1
22.824575 217.371930 62.708817 33 1
28.681147 209.377270 -62.653008 26 1
9.058025 223.261030 -16.836687 1 1
77.722130 122.923230 95.458359 19 1
-63.245571 193.874690 -79.064873 25 1
-85.597588 43.817806 54.775303 6 1
97.955757 223.022200 34.666466 13 1
15.985034 79.159134 67.540291 28 1
-1.725687 199.757290 -174.355610 14 1
-81.216759 176.340530 -75.013062 25 1
23.134199 100.071040 111.867330 24 1
49.448818 89.331978 37.407063 30 1
91.481850 130.795350 36.664276 20 1
38.046814 117.459850 -45.287788 18 1
-55.049278 203.036790 -87.156792 25 1
60.245235 114.604100 121.869900 19 1
61.090775 227.157010 40.778782 13 1
7.870635 218.099880 57.886765 33 1
7.536194 172.443150 9.331339 0 0
42.185028 87.379700 75.452461 28 1
-3.092536 85.907951 112.971750 24 1
79.582970 118.057080 71.433952 20 1
34.939453 202.440810 -69.683899 26 1
83.944229 81.064110 83.810387 22 1
29.576883 98.690193 -93.730881 16 1
35.466385 89.467682 20.585392 30 1
79.268074 224.161900 39.149376 13 1
-66.506256 259.321900 -17.222052 7 1
29.810608 210.827730 -97.471283 26 1
-61.320946 49.308914 104.337070 4 1
-76.322914 45.975349 69.748657 6 1
69.082176 214.897160 68.538742 13 1
24.110308 113.242150 -41.058281 31 1
-29.645906 233.876140 23.476120 27 1
-75.635406 189.397510 -89.877289 25 1
-8.269261 217.585530 26.648336 3 1
47.021397 210.640060 138.253720 11 1
11.018113 213.632780 18.977608 32 1
-29.513973 227.388760 31.759644 27 1
-24.320223 111.298320 -79.998993 17 1
34.881252 87.162178 29.007765 30 1
103.808930 117.768460 40.098015 20 1
39.967274 93.791130 41.821400 30 1
72.928787 213.565430 61.758408 13 1
30.946341 98.732437 -83.247154 16 1
57.930271 200.912480 83.947830 21 1
35.025948 111.158790 -15.656256 31 1
-1.923938 74.672409 26.005371 0 0
0.104055 85.929741 123.633320 24 1
84.652817 112.162490 114.477870 19 1
15.923412 111.121560 -100.178790 16 1
-46.329399 44.510010 109.085270 4 1
57.044777 216.158620 118.131850 11 1
9.973887 118.575170 81.193352 24 1
-16.759926 116.154930 -68.610161 17 1
12.078374 207.807070 -52.435181 26 1
76.885338 90.367371 60.762939 22 1
-50.015774 207.684920 -41.681847 25 1
-19.932026 225.369750 -102.998620 14 1
-32.620735 201.582700 -96.762741 25 1
10.828432 103.407010 -23.870562 0 0
-2.111886 210.419420 44.890064 2 1
57.361374 73.142876 4.640488 30 1
-82.870689 48.717560 48.470814 6 1
-26.788029 115.234950 -73.069260 17 1
-37.691208 252.927490 8.120280 0 0
27.196703 109.508230 -1.917460 31 1
12.784985 146.958590 19.066084 0 0
2.174688 76.316040 -47.998249 0 0
-15.925359 225.097820 -112.289180 14 1
95.693596 65.994392 156.591630 19 1
106.691390 170.700470 133.295060 11 1
82.836266 211.236180 62.110825 13 1
17.942635 14.747941 -13.789788 9 1
3.244796 96.434425 2.722360 0 0
-36.978115 226.840790 29.064796 27 1
-1.283822 171.684220 1.998706 0 0
94.128204 186.326160 135.260960 11 1
127.698050 217.018080 23.637886 13 1
-0.188957 45.236633 9.061714 0 0
-30.089611 208.783980 -83.487633 25 1
37.968857 101.364690 -90.844696 16 1
54.038326 192.680450 76.564018 21 1
0.278205 211.024630 70.058006 33 1
51.079716 74.192345 -104.377460 16 1
136.651020 207.479550 26.735302 13 1
-37.974785 7.963017 -13.225097 8 1
111.156200 107.883380 51.284908 20 1
-17.127220 234.144940 60.236725 27 1
49.676430 113.284390 -35.069588 18 1
80.890022 231.842030 22.140800 13 1
28.324011 101.783420 -103.708960 16 1
87.459045 220.417040 33.479164 13 1
-69.064293 254.349170 0.151933 7 1
93.686066 105.305780 119.569150 19 1
60.376350 119.374760 111.666890 19 1
-1.513063 213.997450 -84.405846 26 1
76.596764 223.052830 101.207530 11 1
85.284447 121.829020 98.295761 19 1
-55.304623 206.466540 -59.043644 25 1
17.383528 209.072720 50.452023 2 1
5.378878 207.016010 -41.555283 1 1
1.542831 212.141240 39.228867 2 1
-14.588999 214.029890 43.872364 3 1
-18.626207 233.948730 10.414438 27 1
69.682549 206.981090 67.581062 13 1
0.772593 16.819811 -3.278645 0 0
10.141102 114.787330 -131.371250 15 1
73.310356 216.845720 110.292460 11 1
21.943645 106.647220 111.673740 24 1
51.711071 193.177630 -81.347389 26 1
-12.548065 222.938670 -19.625059 1 1
21.128252 87.999046 62.444241 28 1
87.701538 206.563050 48.826664 13 1
46.014194 82.089218 31.131994 30 1
75.552750 193.397380 134.679290 11 1
-50.585571 252.527450 0.030406 7 1
57.560123 185.109330 -76.711189 26 1
-4.547428 204.490980 -165.101730 14 1
-8.867485 220.279220 -133.281230 14 1
-9.986214 221.904850 -99.966354 14 1
-75.143929 183.495410 -83.019600 25 1
84.176910 205.732150 123.194350 11 1
100.404240 116.500980 59.069248 20 1
54.692711 111.240650 128.590940 19 1
-38.317055 214.813310 -59.946655 25 1
16.370304 106.912770 -35.478168 31 1
0.322624 65.886246 26.931398 0 0
31.919607 113.692820 -38.263996 31 1
35.178799 181.299620 40.284565 0 0
18.890421 212.789020 -90.504509 26 1
27.218618 212.051250 65.353691 33 1
65.647186 118.991770 81.908264 20 1
112.774430 103.765260 55.911087 20 1
-17.051115 15.849447 1.858776 8 1
53.951885 206.905620 58.466793 0 0
118.792080 203.979320 47.572598 13 1
-55.045921 52.067009 100.904780 4 1
110.511380 99.267700 122.144730 19 1
-52.567341 228.280120 46.361290 27 1
10.092735 219.580490 -35.314972 26 1
74.172249 86.798225 147.788730 19 1
-7.559728 174.843920 -43.682819 0 0
-78.158669 54.216499 49.365768 6 1
-2.584204 99.168732 -3.420908 0 0
81.159798 203.825240 67.252007 13 1
28.103827 125.401690 80.481018 24 1
-58.868301 198.114490 -42.984077 25 1
6.863492 223.251160 -116.701470 14 1
1.310037 211.383390 58.392529 2 1
8.995422 214.482960 74.104004 33 1
-31.525795 214.471650 -29.288895 1 1
-0.539790 216.394300 -55.955547 26 1
16.952694 220.808470 15.135357 32 1
-16.100784 210.868500 -151.465450 14 1
79.537949 213.601380 44.174805 13 1
-44.489925 221.973500 68.625679 27 1
-85.390846 253.914460 -15.542414 7 1
-13.578331 235.274140 50.237598 27 1
-56.988499 29.267113 115.717100 4 1
94.422256 78.042908 144.505080 19 1
-12.810158 51.647663 92.481873 5 1
82.861847 184.808640 138.060990 11 1
17.096252 105.129790 -77.913857 0 0
42.026505 82.235909 23.403196 30 1
-2.362347 119.799250 -83.842079 17 1
31.679602 106.870380 -7.506903 31 1
13.768088 217.548680 32.327175 2 1
-5.256428 180.549970 2.879547 0 0
70.237427 122.681660 75.592049 20 1
-12.936522 80.919342 35.226082 0 0
