-1.903551 21.623846 1.605904 0 0
71.265045 75.914749 -20.809328 7 1
40.784317 66.977753 -26.438089 9 1
-24.241003 79.667572 86.658707 14 1
2.059006 105.289410 -53.871239 5 1
-2.025227 109.059170 35.131004 17 1
-17.827827 100.968860 17.282663 19 1
-34.857258 86.168976 42.218765 15 1
-35.348858 76.322914 57.789722 15 1
-6.515162 98.120308 -69.675003 5 1
-11.399214 76.248322 88.709900 14 1
-5.706085 101.690210 68.214684 14 1
0.614811 88.954979 2.395187 0 0
-12.819026 111.169210 -45.665546 5 1
-8.561042 103.618170 -54.027931 5 1
17.691586 98.353745 21.095264 18 1
4.903469 100.126530 -66.705284 5 1
47.241768 77.188194 -2.883506 0 0
52.430103 78.104248 8.866255 8 1
6.587107 16.368534 12.188683 12 1
-59.646496 57.550167 2.905652 2 1
-5.029332 98.041336 19.763723 17 1
-22.943745 94.961624 50.671562 15 1
-54.149364 31.643410 18.359272 3 1
-0.759157 64.172119 8.759286 0 0
55.052502 81.353241 -0.715178 8 1
-1.669430 7.474689 0.221544 0 0
1.992253 109.909110 25.044214 17 1
6.294721 78.697121 56.299545 16 1
-10.456302 110.533020 27.668598 17 1
10.331871 54.424255 3.861322 10 1
20.154497 70.203194 49.447269 16 1
14.812669 106.327610 -33.013264 6 1
0.726518 104.188930 42.231213 16 1
65.311638 67.852600 3.097476 8 1
-44.196548 72.634575 46.941181 15 1
-30.649134 78.674835 50.567722 15 1
62.549274 56.984329 14.569184 8 1
6.893961 110.119470 -29.152721 6 1
-15.343826 108.146780 11.331956 19 1
-9.644628 8.038424 26.158894 12 1
-41.033306 111.871500 -21.345516 4 1
-46.081299 60.416325 7.878698 3 1
13.721683 59.498528 60.041592 16 1
-0.901428 88.166206 59.800865 16 1
-23.646572 115.941210 -17.666821 4 1
0.884518 16.990555 -7.275740 1 1
-22.485479 108.804260 -32.899578 4 1
-25.533617 94.550743 42.202522 15 1
-40.282791 81.513748 37.604557 15 1
-4.043595 82.506210 5.558681 0 0
-10.590340 14.197414 11.615753 12 1
51.800697 66.693253 19.433163 8 1
34.084999 89.607445 -26.361441 6 1
-11.152485 103.357780 21.841118 19 1
26.773144 96.368996 -34.609573 6 1
11.454008 9.833778 -18.222569 1 1
-27.912207 72.967316 94.307175 14 1
6.312459 46.526627 3.738067 10 1
-30.633511 78.445503 65.107285 15 1
2.861161 100.828890 24.435419 18 1
-45.733315 64.192390 57.880142 15 1
72.368668 74.682625 -12.713634 7 1
24.875362 63.207619 48.179401 16 1
43.805321 74.677681 -19.809448 9 1
-38.380852 54.937847 -6.897096 20 1
62.205990 82.466400 -6.930398 7 1
-4.451512 57.509869 18.127823 0 0
9.667982 96.962646 19.842505 18 1
-28.029533 47.303509 -13.885483 20 1
5.329773 80.534073 70.682213 16 1
3.791115 12.063225 18.971884 12 1
-34.026310 105.432510 -42.779865 4 1
-13.769930 91.149223 79.629204 14 1
-35.391335 84.631844 87.052048 14 1
53.604900 74.340805 -17.699102 9 1
-36.007969 62.603851 -2.112509 20 1
0.026001 116.274020 38.320538 17 1
-32.830727 94.438622 82.052498 14 1
-36.911724 69.200012 61.187721 15 1
12.908471 4.475157 -23.967749 1 1
2.292186 79.291420 89.860252 14 1
5.395029 83.755409 62.557339 16 1
8.938078 100.791730 36.826950 16 1
-34.428352 86.555244 50.150078 15 1
2.600878 37.495548 6.605443 0 0
-55.044624 51.630836 12.545130 3 1
-6.579090 111.259550 -30.577534 0 0
-30.428965 90.003029 36.936409 15 1
11.937000 83.429604 51.116154 16 1
0.130154 50.204178 7.474987 0 0
-7.097742 116.864730 42.606602 17 1
-53.329315 61.625065 5.053756 2 1
8.197169 104.024600 11.339705 18 1
7.145507 91.547966 48.633087 16 1
-2.531849 5.852568 32.274101 12 1
9.743949 4.997971 22.361809 12 1
4.934981 88.457512 8.957045 0 0
5.953588 104.965720 -60.542961 5 1
5.044940 68.442848 60.821964 16 1
-38.327862 104.271030 -35.782063 4 1
5.686748 70.903389 70.814049 16 1
-18.213722 67.384163 96.384872 14 1
19.388214 101.372620 27.900526 18 1
-17.398333 80.766487 90.039116 14 1
-57.439091 48.940624 5.637774 3 1
-21.533817 96.253159 72.756081 14 1
1.022017 95.403694 -71.221535 5 1
38.599617 78.658379 -15.970712 9 1
14.204099 8.230059 -11.328724 1 1
16.843536 99.916222 -29.495691 6 1
-21.088875 86.963120 85.832497 14 1
-6.076975 95.032784 73.620567 14 1
1.305828 91.871437 78.875183 14 1
-61.821972 37.735943 9.753241 3 1
25.998775 97.700203 -19.771418 6 1
-10.010208 102.342880 57.169434 0 0
52.838741 87.822235 -3.824707 9 1
13.346721 14.098074 1.407208 1 1
-4.927810 109.590140 -21.274635 0 0
1.003936 93.863564 64.612503 16 1
0.320274 14.645959 -0.243212 0 0
16.081963 106.835250 -20.676888 6 1
51.984264 82.013512 -8.700645 9 1
-3.305467 85.506355 -8.715144 0 0
-16.257244 97.270401 60.695774 15 1
-45.631798 103.910580 -35.926933 4 1
-66.246391 44.776913 -8.673965 2 1
-10.678184 96.142021 47.526562 0 0
68.477150 79.390923 0.876970 7 1
-23.781475 104.468120 19.682703 19 1
12.415009 100.422900 -69.900398 5 1
-4.375675 35.964928 7.779257 0 0
-26.100342 44.290825 0.866117 0 0
-63.783710 52.224289 -11.769124 2 1
-36.149380 73.456635 50.046749 15 1
-66.124489 50.858986 1.988221 2 1
60.878769 64.536041 7.875737 8 1
-59.414585 63.404419 -12.652630 2 1
10.695091 13.844160 -6.847895 1 1
34.924122 89.222595 -19.227480 6 1
-17.386368 116.053430 -21.182634 4 1
-41.110958 44.429600 -12.562563 20 1
-16.050535 110.140720 -29.736429 4 1
-51.220142 59.685844 50.548115 15 1
-2.288676 97.055115 -15.200986 0 0
-9.379725 86.946770 84.690010 14 1
1.185095 94.402328 6.965444 0 0
-47.745537 52.736298 11.373205 3 1
-16.647717 99.681198 67.671074 14 1
-3.513328 94.585358 13.772805 0 0
10.856752 110.086980 -59.738216 5 1
-21.915333 88.205956 52.628155 15 1
1.482999 94.276749 57.002792 16 1
-1.043862 74.828026 -0.562915 0 0
6.712964 14.873351 -20.160494 1 1
-35.210541 35.147396 -16.807402 20 1
2.579055 112.202930 -34.344490 6 1
-22.940073 100.602660 37.803146 15 1
-39.812843 75.908241 42.217457 15 1
22.529896 101.796580 -7.473852 6 1
16.368839 90.212502 40.665176 16 1
-6.224378 3.282123 37.943851 12 1
16.706964 82.334396 46.141384 16 1
-21.901999 79.229202 63.589401 15 1
-2.883164 98.651146 53.805328 16 1
-48.769112 69.289955 40.834488 15 1
-1.514472 85.937317 82.999260 14 1
-47.798069 109.341880 -26.539288 4 1
10.544014 92.130333 11.166345 0 0
-28.466631 90.384071 52.453732 15 1
-28.693537 112.597690 -21.030272 4 1
-46.004589 59.730175 0.332419 0 0
-28.455879 108.919730 -29.462542 4 1
-0.914318 70.785110 7.010947 0 0
31.290178 91.878052 -32.190708 6 1
-54.285229 38.323406 17.070353 3 1
-7.406907 111.091100 -41.265560 5 1
-21.860891 90.233032 65.807205 15 1
37.987263 79.962936 -27.631191 6 1
-25.203508 80.633408 54.635143 15 1
-43.244286 50.708237 18.602110 3 1
-28.663282 53.045994 -10.331855 20 1
-35.276226 106.979530 -30.313623 4 1
0.491899 98.530617 47.096474 16 1
63.198658 82.851845 -19.430471 7 1
23.567856 100.979030 -30.711224 6 1
-53.207363 64.649300 -6.673811 2 1
-61.845482 43.951511 7.126718 3 1
-45.073235 44.390278 20.529322 3 1
-9.122168 64.528496 100.010780 14 1
-5.640720 77.486954 91.944145 14 1
-28.010984 90.902168 78.898140 14 1
10.088616 92.493813 40.684315 16 1
43.065720 82.364418 -11.213452 9 1
60.502529 77.529243 -0.322633 8 1
53.997112 71.642014 8.955379 8 1
-53.643593 60.109482 -1.488772 2 1
22.877436 102.344830 19.949139 18 1
-14.157916 101.751310 48.209602 15 1
-26.897141 88.602188 61.275864 15 1
-9.743971 117.332390 -19.879345 4 1
2.158512 109.068660 -48.469532 5 1
-2.231003 59.035896 4.768739 0 0
-31.003178 72.326149 61.701698 15 1
0.983522 17.765903 -13.841312 1 1
2.881675 112.499700 -15.011169 6 1
-8.563963 94.763397 -74.864082 5 1
-29.722424 82.004913 89.216347 14 1
-44.716953 64.982338 51.113651 15 1
75.255150 70.548912 -16.784876 7 1
-36.162094 41.411545 -15.464104 20 1
5.496099 82.811722 51.331135 16 1
13.139476 43.546974 3.944442 0 0
-4.356602 67.698944 96.286102 14 1
67.041664 78.275780 -8.152726 7 1
-49.487068 104.345440 -30.794180 4 1
3.275909 43.554916 8.575746 0 0
-7.895589 12.090891 21.515923 12 1
54.239498 80.063141 -14.368033 9 1
-59.057606 55.858459 9.049405 2 1
-11.453455 98.615517 17.548922 19 1
-37.355480 51.467484 1.393916 0 0
-8.884097 100.729540 -59.817387 5 1
-18.165348 92.763077 55.359932 15 1
-34.592632 80.020744 43.813557 15 1
-41.658009 50.576046 -10.276918 20 1
47.245827 81.741104 9.294649 8 1
58.334148 61.742126 14.593060 8 1
-12.839479 96.857162 -67.530762 5 1
59.332317 86.895828 -3.349243 7 1
-36.787731 119.532750 -12.783995 4 1
61.444176 85.150955 -13.472626 7 1
-7.132252 87.651871 38.710064 0 0
-16.987164 96.063393 47.916759 15 1
75.060295 73.514786 -25.198856 7 1
-8.956444 108.190790 -49.753017 5 1
-30.071280 121.257890 -11.892515 4 1
24.629280 81.074692 39.301895 16 1
-4.603608 16.289455 11.134565 12 1
-8.255423 78.909813 31.799955 0 0
-11.213175 82.482880 89.057503 14 1
-59.851608 55.272747 -2.898205 2 1
-1.247116 111.549440 -42.035515 5 1
16.762886 106.258130 -27.107225 6 1
-8.701669 103.587250 63.110020 14 1
-30.248484 73.881874 55.229046 15 1
72.940887 69.665550 -6.430263 7 1
19.110128 101.188930 -19.555307 6 1
15.350703 104.343640 -38.858326 6 1
22.251518 50.490833 0.188943 0 0
-41.139500 59.379425 -3.582555 20 1
-15.740170 38.070530 2.523379 0 0
-4.057887 81.949486 11.719653 0 0
-7.348586 69.300735 25.170795 0 0
-13.843543 103.583440 -57.445141 5 1
-55.650951 52.562229 0.998517 3 1
-18.974195 106.988730 16.593006 19 1
12.429804 107.521420 -10.192742 6 1
-30.271729 90.154053 43.067677 15 1
-35.396713 113.348340 -19.459042 4 1
-1.162207 98.877930 -66.614334 5 1
17.635492 104.598440 -11.681968 6 1
-29.658611 109.064680 -40.508663 4 1
-26.774878 110.522140 17.352921 19 1
19.753845 91.901108 35.875179 16 1
-1.006953 105.273950 22.268297 17 1
49.322487 83.142372 -2.089314 0 0
50.584454 79.618759 3.275239 8 1
-13.496664 73.945427 94.142670 14 1
-49.834644 52.478611 -8.478114 20 1
27.398897 98.469589 -13.092326 6 1
-6.598471 107.676500 31.343899 17 1
-62.192207 57.744366 -9.906759 2 1
0.374494 78.661613 7.085552 0 0
10.788093 109.476510 -24.265177 6 1
56.600636 78.404259 4.539740 8 1
2.395422 109.597630 31.097776 17 1
10.730211 99.597198 14.499078 18 1
31.293339 93.572868 -21.724556 6 1
-3.588943 106.305850 -52.025894 5 1
3.633169 109.560180 -24.159023 6 1
40.332664 87.380661 -7.722727 9 1
-4.574163 112.474330 39.330288 17 1
4.496348 6.141712 25.254519 12 1
-10.829830 98.432053 68.207336 14 1
1.053154 14.531889 13.471128 12 1
0.674079 1.117989 30.557491 12 1
17.698278 65.294151 51.743259 16 1
-36.737514 66.906090 66.701660 15 1
18.783352 76.799370 47.771175 16 1
1.000794 2.320836 1.473806 0 0
9.577808 105.438950 -19.804270 6 1
2.804883 83.837456 57.235748 16 1
-8.636381 98.912537 52.514225 0 0
-46.699505 59.563591 61.387962 15 1
-70.847488 44.866379 -4.957735 2 1
59.819710 70.295685 8.446925 8 1
69.659607 77.860565 -26.121660 7 1
-3.658987 50.463852 11.980040 0 0
24.841705 74.742592 40.162621 16 1
-38.567196 108.809870 -25.788195 4 1
4.258243 89.687592 62.125923 16 1
-24.363874 77.448387 92.067413 14 1
1.119988 88.465164 54.083595 16 1
-20.771774 62.893906 99.080139 14 1
-30.257763 83.098480 46.782883 15 1
8.871650 106.626000 -33.385479 6 1
12.176550 73.760414 54.409286 16 1
-19.306124 109.105960 -37.744453 4 1
-33.899956 81.119598 54.684647 15 1
-50.271332 42.460251 16.553534 3 1
-15.220348 102.434070 12.338108 19 1
55.951889 89.516464 -15.669336 7 1
-47.358040 100.543380 -40.270206 4 1
-4.131157 12.119017 2.622495 0 0
-57.771675 35.427589 13.461605 3 1
41.677464 76.491081 -1.623175 0 0
2.129699 84.689583 87.258179 14 1
17.635542 84.354172 40.851555 16 1
78.623550 65.931847 -16.309870 7 1
37.466782 65.975624 -2.036658 0 0
-22.425232 91.579552 46.095490 15 1
0.736754 113.480340 -20.285473 6 1
-19.830479 119.497320 -14.862141 4 1
52.201187 69.984268 14.200607 8 1
-29.539152 83.442558 62.624245 15 1
-52.529675 46.530758 12.499022 3 1
6.006059 73.782227 59.129974 16 1
44.323284 70.851357 -23.971439 9 1
22.619463 73.471970 45.237877 16 1
-34.366405 89.844231 84.990288 14 1
-6.173238 9.856356 30.240227 12 1
-2.515172 24.817232 6.258098 0 0
62.911564 72.546288 0.879693 8 1
-23.311882 108.048330 24.211918 19 1
0.439953 85.249809 7.617374 0 0
10.722177 108.990530 -15.499169 6 1
7.306829 107.818220 -55.812046 5 1
-41.472343 73.866280 51.838474 15 1
-6.838505 72.750893 94.733597 14 1
28.203024 60.204956 0.074968 0 0
-67.678230 40.546371 -12.047771 2 1
-19.831131 88.763062 60.803635 15 1
-23.250650 69.919060 94.683624 14 1
1.606772 77.556282 59.104465 16 1
-65.840462 51.916119 -16.934639 2 1
68.078751 80.467865 -20.671547 7 1
-45.129898 114.848630 -18.774309 4 1
-17.544176 94.065628 76.586189 14 1
-25.907827 75.573982 64.790672 15 1
-42.003479 68.057961 59.152878 15 1
-41.209274 62.497105 0.968870 20 1
8.740332 44.430882 8.222233 13 1
-31.790380 93.160896 32.628292 15 1
14.784669 62.491558 55.454288 16 1
-16.814831 111.392720 -24.294777 4 1
-1.041920 34.472118 3.702157 0 0
16.207687 100.688870 -34.875359 6 1
-24.467896 87.580925 81.547020 14 1
-6.595172 114.386600 -23.305359 4 1
-3.488151 102.420060 -55.867970 5 1
-7.910521 106.946620 24.419083 17 1
-0.190796 96.446449 17.685486 18 1
-6.436756 98.344650 -64.256966 5 1
-10.168194 91.792786 75.628159 14 1
66.557793 81.523376 -3.845443 7 1
-8.726612 11.347828 16.021046 12 1
-11.820482 113.022550 -31.721228 4 1
35.126041 84.312965 -26.089706 6 1
-24.891491 95.037460 76.808968 14 1
-1.239874 45.868912 10.451938 0 0
16.370472 100.742260 -24.173668 6 1
24.355738 98.767921 -25.119810 6 1
-33.963615 53.796818 -9.816618 20 1
9.351926 78.487701 51.711304 16 1
-35.714981 71.503906 55.450909 15 1
-3.844951 64.137886 4.357381 0 0
5.275090 97.804146 8.262051 0 0
7.689881 86.219460 47.768879 16 1
68.953712 77.323395 -16.187855 7 1
12.908395 100.329280 22.468292 18 1
14.965973 70.672218 50.859924 16 1
48.195396 77.200142 12.003631 8 1
-67.055870 47.305424 -1.890308 2 1
-19.934793 81.824219 84.348503 14 1
63.228489 61.171082 11.294407 8 1
-16.663864 75.464310 89.122856 14 1
-3.203494 17.140558 4.190044 0 0
-3.093931 20.567154 -7.717859 1 1
-16.570904 104.690750 20.881105 19 1
2.768475 93.750847 46.538811 16 1
4.983222 101.651200 40.287579 16 1
-17.410419 87.274551 79.454788 14 1
4.308984 97.559967 20.494585 18 1
-2.082439 108.822170 28.367992 17 1
61.671223 85.293297 -24.067045 7 1
-1.093194 39.663002 9.721691 0 0
0.175889 113.677020 33.716930 17 1
-19.397697 103.769830 65.205597 14 1
-26.071909 108.085970 -36.713158 4 1
-5.853563 102.929370 21.589706 17 1
-26.107079 99.531578 71.842819 14 1
-47.718735 60.829613 54.314331 15 1
1.272213 103.342840 -58.702576 5 1
6.078413 16.415686 -6.625461 1 1
-1.227788 11.041012 20.467747 12 1
-27.057919 83.451248 84.245605 14 1
4.566017 41.573631 3.869388 0 0
4.029274 94.046562 -75.308060 5 1
-14.544449 79.333832 85.856049 14 1
49.005028 74.116676 -20.219648 9 1
-32.932983 45.421150 -14.438690 20 1
-1.870970 54.891159 14.405676 0 0
-35.955612 84.612289 37.190186 15 1
6.105799 70.092682 65.670731 16 1
-3.078696 53.822323 5.516217 0 0
-3.256171 75.240570 5.588186 0 0
-14.114288 107.589670 -49.356544 5 1
4.105734 92.549103 52.740711 16 1
17.950638 102.542860 17.771343 18 1
5.807655 84.823906 67.790779 16 1
-39.515526 81.413834 42.915649 15 1
-28.702246 76.820877 89.287849 14 1
-26.116692 83.962013 50.759769 15 1
5.288128 50.546265 7.040386 11 1
-3.954144 109.553060 -26.369268 0 0
59.501099 55.817333 18.639641 8 1
-67.281700 48.107349 6.217113 2 1
-32.088585 80.072525 59.418884 15 1
-25.168941 93.172096 55.349728 15 1
7.818740 9.651582 21.124186 12 1
-18.726950 93.913094 63.739346 15 1
19.413204 103.699520 -32.178761 6 1
-1.709817 114.761570 43.064896 17 1
-3.523951 96.133751 -73.524719 5 1
-4.499440 96.678139 49.045238 16 1
-37.360088 77.444664 53.196342 15 1
-50.563698 57.982147 2.673539 3 1
11.905518 108.177990 -29.206358 6 1
-5.959092 112.105280 33.862576 17 1
-3.415932 93.765961 55.558327 16 1
37.267990 70.353409 -24.769064 9 1
5.614232 113.046670 -49.423161 5 1
-13.647621 66.755707 98.626732 14 1
-63.072861 54.087433 4.564610 2 1
-7.375008 79.116287 87.193871 14 1
-49.820171 56.909519 9.266447 3 1
-37.342865 84.568748 46.453869 15 1
-19.494736 105.175550 11.749167 19 1
-53.017349 110.062640 -23.793423 4 1
-26.687004 119.059300 -14.996349 4 1
-3.627373 16.632830 -15.973447 1 1
-6.651367 62.139580 18.671682 0 0
-44.811337 67.614372 46.707371 15 1
-53.017178 49.613102 8.379878 3 1
8.945150 103.121940 -67.175308 5 1
-21.347725 84.273277 62.892139 15 1
-57.223824 47.057220 10.325355 3 1
7.716113 100.423260 23.142815 18 1
-3.404857 98.827332 71.658951 14 1
3.335530 13.940189 -16.337185 1 1
11.048475 11.492517 -13.482553 1 1
-6.443639 98.527443 14.907838 19 1
5.720714 97.289886 -70.794502 5 1
-48.942856 63.698917 3.796626 2 1
-0.813443 100.409600 21.065464 18 1
4.907251 75.675926 69.503220 16 1
4.910039 90.705940 4.264526 0 0
-10.443536 87.422722 79.759789 14 1
-21.663891 96.511658 45.901325 15 1
13.782223 102.429720 -20.219797 6 1
-20.126839 90.466812 82.165565 14 1
5.925810 78.959023 61.262997 16 1
7.626891 13.027281 15.949320 12 1
-13.431153 103.272560 16.927582 19 1
-38.095680 116.909980 -16.900993 4 1
21.527746 98.508759 24.454765 18 1
4.039070 79.931259 65.855705 16 1
-27.415236 112.266420 -25.961823 4 1
-6.343959 33.858971 3.749055 0 0
23.921427 67.971809 47.151325 16 1
2.364611 18.424473 -2.787883 1 1
-35.770306 58.884438 -5.492092 20 1
0.848061 85.307541 63.676903 16 1
-10.294766 82.131393 84.137711 14 1
43.588387 78.407509 -16.322739 9 1
-44.476498 69.963577 51.724869 15 1
-16.755222 84.833473 86.875465 14 1
1.454005 18.319874 3.124892 0 0
-2.966496 93.600533 77.147514 14 1
-22.541374 79.474312 58.599159 15 1
-31.225693 89.517761 47.910809 15 1
-32.460529 72.713570 92.493584 14 1
-44.465294 71.163589 42.249863 15 1
14.582261 6.397477 -19.770826 1 1
12.559110 103.081670 -30.121710 6 1
-42.984440 59.992077 11.638036 3 1
-20.891062 111.542400 -29.089407 4 1
18.133787 105.015270 -16.642965 6 1
57.466270 74.926514 7.847836 8 1
55.715717 65.086258 16.987879 8 1
0.709229 5.574204 28.579117 12 1
-2.859236 92.035728 62.016747 16 1
2.387767 111.948750 -29.363562 6 1
-29.401365 74.717346 68.066727 15 1
34.672459 77.901054 -18.762388 9 1
-43.152962 110.449580 -25.636806 4 1
-40.455048 70.109459 48.932644 15 1
1.899523 100.889300 -62.977932 5 1
12.396198 107.756110 -37.106239 6 1
-18.695940 97.494827 56.237011 15 1
-19.704947 109.902320 12.771311 19 1
-5.542326 10.612419 25.512308 12 1
4.568134 116.663510 36.727303 17 1
-0.365279 84.247551 2.959996 0 0
9.240361 16.151936 2.895586 1 1
14.099787 79.242256 52.153576 16 1
9.636259 49.795341 5.098910 10 1
-14.628805 88.137207 83.428032 14 1
-24.276592 84.230751 88.195869 14 1
-2.427204 78.852196 88.536247 14 1
3.915198 109.793170 -52.893223 5 1
12.150352 80.356369 47.418304 16 1
-3.741373 3.209493 1.278116 0 0
-26.820423 92.196289 47.952595 15 1
-45.114834 52.295624 -7.339223 20 1
-4.285579 48.340305 7.644481 0 0
14.026081 98.937958 18.020321 18 1
-8.769620 108.284110 -44.900429 5 1
-26.568983 79.625061 67.344063 15 1
-5.651536 83.727913 83.918724 14 1
47.833775 82.631638 -11.090096 9 1
11.204641 96.943382 39.179455 16 1
-21.677311 97.207985 40.886261 15 1
-24.606358 114.607080 -22.453060 4 1
15.315459 99.415588 26.450018 18 1
-36.683846 76.137756 45.763252 15 1
-21.780231 103.320910 15.549326 19 1
12.145820 9.116686 -22.987913 1 1
-12.845640 106.304700 -53.718517 5 1
-45.757393 43.702938 -13.005976 20 1
-10.864326 9.039017 30.619768 12 1
-0.220267 89.864746 6.966988 0 0
8.207037 89.907120 44.249546 16 1
-10.389368 111.173650 32.328064 17 1
-56.827995 30.305946 14.726267 3 1
-57.307434 59.632580 6.573911 2 1
-46.181370 53.159496 15.785885 3 1
4.218706 87.763153 50.531933 16 1
-8.621748 110.075430 -26.296974 4 1
-62.128815 52.580357 0.221560 2 1
-26.917854 93.863510 37.667198 15 1
51.911964 74.371513 12.413111 8 1
64.786995 63.785706 5.378867 8 1
0.504126 26.887251 3.333736 0 0
-3.006423 104.069220 45.251682 16 1
-21.111292 76.826454 88.651535 14 1
40.148106 72.554260 -21.826408 9 1
2.205558 118.234420 42.062576 17 1
3.272064 113.134870 28.186338 17 1
-18.451218 111.368380 -33.540894 4 1
-34.925987 72.289787 64.222137 15 1
-4.002396 67.375916 7.759914 0 0
-50.799438 34.817692 19.029772 3 1
6.868854 97.424606 16.158386 18 1
17.676487 58.618649 57.761147 16 1
2.972031 14.829705 -10.822299 1 1
-37.153797 103.034830 -40.317867 4 1
45.665031 66.988350 -26.169758 9 1
11.235186 95.753174 8.331816 0 0
-16.764799 70.695938 93.486458 14 1
0.341963 10.918557 2.579966 0 0
-54.892265 56.297050 3.628780 3 1
22.608112 98.511787 -34.712826 6 1
4.913130 93.087318 9.373213 0 0
-0.321390 67.115692 4.250638 0 0
75.273880 73.152878 -20.591038 7 1
-4.917592 100.271150 57.613441 16 1
5.974779 13.706547 -24.556046 1 1
6.314131 109.476600 -14.271244 6 1
53.488842 74.970299 5.536801 8 1
-0.460101 53.938606 10.094306 0 0
-12.724347 9.594378 23.118792 12 1
-12.827644 100.666980 64.621750 14 1
-3.788829 76.987663 -3.542192 0 0
-4.042204 101.280590 -14.822225 0 0
61.055664 69.334755 3.970692 8 1
16.822521 72.698631 47.152687 16 1
-1.698921 38.780327 5.262096 0 0
23.525881 101.420650 -20.807798 6 1
39.493679 76.728081 -20.032051 9 1
25.967434 96.816399 -30.121798 6 1
35.288414 81.823120 -15.966080 9 1
-32.001972 85.641815 84.144035 14 1
-0.605546 99.013680 13.918824 18 1
-62.028179 54.037086 -7.227406 2 1
-43.354374 60.044430 4.231431 0 0
-0.092261 111.660080 38.345795 17 1
-9.918611 94.979156 -70.514511 5 1
-29.048859 95.331306 79.212250 14 1
-11.812098 105.641650 12.755597 19 1
13.646856 13.698362 -3.170144 1 1
-33.257599 76.277718 61.856949 15 1
-14.257905 103.950460 25.115770 19 1
5.133048 36.615425 2.929875 0 0
3.219743 95.782585 77.576355 14 1
4.050647 102.324530 12.077002 18 1
15.617759 78.078911 44.779343 16 1
-64.101593 47.706379 -11.550593 2 1
-18.906666 97.851555 51.614590 15 1
-34.560013 105.842100 -37.826550 4 1
-57.480331 64.285080 -8.452053 2 1
-27.664835 89.119873 56.849796 15 1
16.422091 7.103387 -7.553038 1 1
-28.236517 116.473660 -18.752834 4 1
-27.855661 106.477830 19.046162 19 1
3.708051 86.374321 4.650125 0 0
2.855025 9.071025 22.243193 12 1
22.023540 64.021858 51.620487 16 1
44.085304 73.073189 -3.309147 0 0
-36.194527 81.999283 50.880592 15 1
-33.515503 80.434593 87.338326 14 1
8.735969 90.306732 7.425715 0 0
40.065292 82.818199 -14.660482 9 1
-2.982558 60.261154 9.025851 0 0
-31.325924 49.686127 -11.981113 20 1
-42.818699 78.007660 36.436718 15 1
69.591217 78.205284 -11.844687 7 1
-39.574886 71.600380 57.713509 15 1
-45.493774 56.475021 10.308818 3 1
51.783802 83.623672 1.610547 8 1
-31.573132 90.165642 81.526978 14 1
72.703064 73.699097 -8.372249 7 1
36.494400 87.515160 -23.091970 6 1
-2.145240 17.890556 -2.019629 0 0
4.317808 90.765678 57.743420 16 1
34.742718 87.905334 -30.565248 6 1
-28.454285 68.833488 95.837776 14 1
-45.728657 111.153970 -21.841190 4 1
15.856020 75.053398 52.250164 16 1
-42.975361 62.463326 60.937355 15 1
6.682209 110.458290 -33.726353 6 1
-4.156202 72.814232 1.904025 0 0
9.176904 87.047081 51.869133 16 1
-28.155136 47.253551 3.425843 0 0
-3.493777 58.827621 13.237691 0 0
-48.898026 63.601566 50.811653 15 1
8.508362 106.600540 -26.804075 6 1
-25.789919 90.285973 43.292542 15 1
-16.601376 96.844803 -69.820740 5 1
-21.994741 80.952484 90.221085 14 1
21.275143 81.932693 42.176300 16 1
-41.715023 76.163651 47.805191 15 1
2.189766 99.464905 43.062042 16 1
56.096714 85.801361 -6.117824 7 1
-4.213748 114.346300 -32.678627 0 0
50.766888 77.666115 -17.235855 9 1
-37.172352 112.521980 -23.391413 4 1
8.022047 12.462556 -16.631882 1 1
-1.967502 89.950806 81.284889 14 1
-41.803600 102.512160 -38.173527 4 1
-19.729013 92.054268 51.326187 15 1
-13.918830 78.306702 91.643730 14 1
31.000565 92.491829 -27.515829 6 1
73.163887 74.685974 -17.061754 7 1
-44.584801 67.807930 55.626743 15 1
-57.844479 58.865726 -1.408251 2 1
13.630883 10.717266 -7.710441 1 1
-0.559217 76.729271 92.093697 14 1
-10.008078 100.442260 48.575310 0 0
50.303738 85.383537 -6.468242 9 1
-22.882328 108.573490 17.700695 19 1
13.704188 7.225316 -15.542086 1 1
-8.871493 99.720810 20.958996 19 1
-10.033887 73.142357 91.448380 14 1
-30.262493 85.768715 43.336258 15 1
-1.107671 89.170502 64.796028 16 1
-39.327091 83.856720 34.060131 15 1
-12.786807 11.710390 14.494887 12 1
10.265637 105.901660 -60.774632 5 1
-14.495973 99.537506 57.419163 15 1
52.905338 88.485603 -8.146226 7 1
65.800285 82.426453 -9.375908 7 1
-5.363750 6.769414 35.495468 12 1
-50.837830 51.159286 13.984239 3 1
-0.322439 34.420425 8.000396 0 0
-2.022817 17.613928 -10.704029 1 1
-5.437666 88.109680 83.319489 14 1
15.597645 4.299857 -12.524403 1 1
-2.890611 95.740906 64.440063 16 1
-20.792957 113.382290 -20.830894 4 1
-17.623665 97.567139 71.311317 14 1
15.631245 87.069832 43.605019 16 1
2.696264 47.016678 6.043867 11 1
-4.414814 78.812531 7.756319 0 0
-10.429394 99.879128 -64.809174 5 1
-1.168363 110.826880 -46.366714 5 1
-2.900620 95.772095 -69.276413 5 1
-7.708964 114.267460 -38.369976 5 1
-0.350449 105.293360 26.606617 17 1
-13.398766 114.215600 -21.098791 4 1
60.294182 85.668198 -9.071924 7 1
-3.419493 7.190046 28.111423 12 1
-42.323105 55.258831 -5.213808 20 1
-20.399736 106.581450 21.371073 19 1
-28.215387 77.525955 54.198612 15 1
-54.256153 43.796261 15.492579 3 1
-42.094612 105.693660 -33.804638 4 1
-1.356564 20.671396 5.787100 0 0
-22.798454 84.159920 54.194839 15 1
0.375105 95.923775 53.198898 16 1
7.200666 101.960130 -63.438141 5 1
4.962378 91.420097 81.271355 14 1
-1.307560 82.587769 85.811821 14 1
-20.845850 85.303528 81.662178 14 1
-3.461289 106.471570 -18.739676 0 0
12.930573 90.601486 43.254383 16 1
-19.912786 88.997223 56.365395 15 1
13.657146 85.118217 47.233379 16 1
-8.225244 93.834602 44.902565 0 0
60.273636 64.679077 12.181107 8 1
-3.712105 85.560593 8.540184 0 0
7.110631 101.817120 15.064965 18 1
6.935169 107.441380 -22.492516 6 1
-40.198479 72.949753 45.452347 15 1
-31.172979 86.935928 52.974861 15 1
-36.875832 44.821857 -12.959243 20 1
20.332470 100.340020 -27.103991 6 1
-9.663447 96.889435 71.989716 14 1
-17.987562 92.621620 59.601414 15 1
-12.274212 101.091080 52.330936 0 0
-52.033440 53.366882 10.096520 3 1
-48.635731 58.783913 -2.857711 20 1
12.426430 108.598040 -19.448206 6 1
61.675869 83.404800 -2.805880 7 1
-2.662480 3.101166 35.494282 12 1
-55.485603 52.699921 6.098435 3 1
-53.774632 64.215439 -2.494672 2 1
-32.629715 75.138657 51.754066 15 1
9.064591 11.797647 -21.930035 1 1
-23.729250 73.282768 91.972382 14 1
-34.494328 88.400597 36.065975 15 1
50.090714 70.475494 18.220644 8 1
3.194962 90.782120 66.468071 16 1
-7.229554 115.765640 38.416267 17 1
-6.098928 12.856442 13.061042 12 1
-0.375295 95.635437 60.773312 16 1
8.987707 82.197464 53.847378 16 1
5.549268 86.752258 59.384418 16 1
-56.135986 60.183853 2.279191 2 1
-4.413612 93.686157 -13.872422 0 0
-9.640328 8.803455 19.572405 12 1
53.464081 62.731960 19.636368 8 1
58.816990 86.479980 -16.462326 7 1
57.564838 66.815926 9.078722 8 1
-60.122307 41.603256 10.288671 3 1
24.193352 100.041820 -10.902660 6 1
3.031146 13.397455 -21.502079 1 1
-24.516468 109.506900 -28.179190 4 1
73.913818 70.980904 -11.316486 7 1
46.932312 75.847107 -16.842318 9 1
-3.960255 90.516525 14.669105 0 0
-40.078621 66.982430 62.783550 15 1
-24.233641 92.232414 80.103111 14 1
-37.600113 51.714565 -9.451732 20 1
2.900418 33.654804 4.854741 0 0
-14.359872 91.998878 74.844223 14 1
68.304367 77.783325 -2.968005 7 1
-4.053363 66.764717 25.627028 0 0
-28.310646 43.569572 -15.704673 20 1
-31.654261 108.307880 -32.080643 4 1
-47.730736 57.158073 5.607324 3 1
11.066915 88.774063 47.301769 16 1
5.860713 46.874485 9.957864 13 1
-45.937214 105.967820 -32.244427 4 1
-5.729907 81.197060 34.192398 0 0
0.545416 -1.401820 -1.321316 0 0
19.686558 104.932100 -21.392891 6 1
-32.383442 113.961750 -22.312119 4 1
9.041161 42.622334 3.789623 0 0
-33.619896 78.227654 47.572701 15 1
-21.121838 99.285591 69.955528 14 1
-3.898016 31.985750 6.695602 0 0
1.825518 88.421097 81.975502 14 1
-4.578411 113.417530 -27.645414 0 0
-3.986378 82.073227 -6.518290 0 0
-9.462632 78.848610 91.238983 14 1
-65.046532 43.783352 -12.563711 2 1
-36.170887 73.275093 60.418442 15 1
3.257117 110.611940 -18.697790 6 1
-4.220747 89.286240 -7.417144 0 0
-66.505951 47.881859 -6.010132 2 1
-32.104378 86.930069 39.286472 15 1
-6.032784 101.738420 53.921516 16 1
-4.794855 111.254090 -44.410095 5 1
-58.897667 60.163479 -9.947113 2 1
11.688608 103.549820 13.430575 18 1
-54.590950 61.015926 -5.420567 2 1
-2.381570 106.661190 31.817980 17 1
-30.328863 109.828730 19.287720 19 1
13.493976 92.581192 38.322392 16 1
-52.373753 63.170063 1.411874 2 1
8.919445 99.585899 -71.822578 5 1
-21.796291 66.900185 98.251968 14 1
-4.449066 72.402054 8.244400 0 0
-3.653559 116.741850 40.081696 17 1
-11.845696 102.118650 60.787758 14 1
-12.466836 99.630760 13.732212 19 1
-34.272091 87.414993 46.189850 15 1
0.217171 12.937754 17.101231 12 1
14.627541 106.977880 -16.125259 6 1
-41.104855 114.361340 -17.817913 4 1
7.363642 100.236400 19.115976 18 1
4.582060 66.548286 64.383690 16 1
11.872686 104.304010 -34.895367 6 1
-14.145398 117.778050 -19.304573 4 1
-35.431911 82.423141 40.695694 15 1
-19.359394 116.684270 -17.698767 4 1
29.558386 95.896484 -18.937416 6 1
-2.064338 17.035810 8.106013 0 0
-3.174094 114.251450 36.005577 17 1
29.612358 95.211716 -30.673187 6 1
-33.670990 51.226883 2.983747 0 0
-0.094621 94.342369 -74.933990 5 1
-17.423662 112.216310 -39.444580 4 1
56.558048 77.823624 0.571777 8 1
-23.398312 44.303848 3.825750 0 0
-15.998632 98.854553 -66.086960 5 1
-12.305560 110.728670 -28.442047 4 1
7.423542 93.777405 45.009441 16 1
-12.908546 85.797684 86.177254 14 1
7.304940 98.384552 39.567020 16 1
18.521652 88.353859 37.860973 16 1
-43.725098 75.113319 42.180702 15 1
-44.196266 57.083076 -2.205420 20 1
36.874859 69.872719 -0.955273 0 0
-3.989633 117.363950 45.046375 17 1
-14.355967 101.426610 20.351000 19 1
-15.701998 99.087967 45.437885 15 1
-2.191321 111.094320 31.717978 17 1
-15.516226 106.086120 14.851934 19 1
-0.287812 56.292904 6.883917 0 0
28.121283 95.803146 -22.666119 6 1
18.660910 74.708183 44.209911 16 1
-32.929688 72.047958 58.217640 15 1
-32.614723 60.792332 -4.049364 20 1
7.282416 13.763943 -9.307684 1 1
6.359395 67.343369 69.223557 16 1
0.485386 115.103190 -42.153095 5 1
10.296386 14.818270 -1.278884 1 1
7.517656 3.425501 25.224146 12 1
-22.941467 110.500430 -37.066029 4 1
14.795910 2.625254 -20.923187 1 1
-43.027493 41.236897 -14.447876 20 1
-7.708288 74.976784 32.108093 0 0
-32.444035 108.532610 -28.047241 4 1
-1.235592 46.620548 5.704669 0 0
-9.937050 103.963210 -57.805099 5 1
-21.561136 95.578819 54.326397 15 1
-45.601723 47.584240 17.990652 3 1
-1.607642 90.446213 56.658535 16 1
-26.130579 80.761322 90.240692 14 1
-2.182216 87.026062 5.075778 0 0
-1.020471 81.841896 8.935605 0 0
-38.976070 107.456540 -31.565113 4 1
-43.703430 47.400223 -11.989428 20 1
-17.504120 65.179588 99.564392 14 1
-56.964931 39.186001 14.323185 3 1
46.212238 71.366676 -20.538969 9 1
-25.516130 88.144829 65.459831 15 1
-50.374691 106.583190 -27.627581 4 1
-1.653983 97.152756 57.382950 16 1
-25.161680 97.326004 38.263985 15 1
65.714020 80.379128 -17.538628 7 1
22.945580 54.318493 0.697184 0 0
1.119325 22.929218 3.738768 0 0
-47.848591 68.991493 44.644985 15 1
25.562338 99.853065 -16.267057 6 1
-49.140770 102.981870 -34.451050 4 1
-4.470463 105.830220 -22.470442 0 0
-7.894173 67.838753 97.955093 14 1
19.179375 103.682850 -8.180564 6 1
-31.493881 114.156850 -18.513668 4 1
-9.085214 85.239456 36.344173 0 0
9.017202 107.573620 -12.197904 6 1
49.131054 79.180656 7.032990 8 1
-2.770785 102.172160 23.990061 17 1
-62.181507 60.651878 -13.049348 2 1
-4.050515 70.027260 4.722129 0 0
-27.013746 107.854900 -32.937000 4 1
-55.976292 34.774925 16.929131 3 1
-10.340764 112.968960 -43.011810 5 1
5.989542 81.815704 58.615925 16 1
37.454990 83.489082 -29.194468 6 1
-19.925602 113.706480 -24.627777 4 1
31.504625 60.610271 -2.029769 0 0
17.465385 80.736801 42.624477 16 1
2.418767 92.931496 60.809357 16 1
17.958546 104.026780 -35.830334 6 1
-1.076454 106.942180 -48.806129 5 1
-59.653725 57.054119 -6.638323 2 1
-39.028202 74.399399 54.933846 15 1
58.910820 81.064102 -0.395202 8 1
-24.017561 90.828766 62.609558 15 1
-14.047277 69.852654 96.250740 14 1
-31.569870 85.213432 87.972145 14 1
-20.121025 103.046680 19.611860 19 1
-23.112473 89.116692 49.004524 15 1
20.185530 104.047700 -28.401392 6 1
-39.207840 47.581059 -11.367383 20 1
-64.833138 54.897167 -14.361026 2 1
-6.846195 92.878532 77.285858 14 1
4.752484 104.706570 -56.875481 5 1
-41.337555 78.616623 44.850700 15 1
51.187767 80.083099 -11.944504 9 1
-7.728328 66.700233 22.294104 0 0
12.923738 106.517190 -6.407968 6 1
-2.860097 100.250320 45.922592 16 1
-4.003666 111.545830 -39.284668 5 1
-1.785331 13.671470 10.923920 0 0
71.164467 76.404785 -0.738887 7 1
-64.606369 50.284439 -8.431740 2 1
-33.633148 38.680679 -16.853722 20 1
64.350075 83.826988 -15.836338 7 1
-31.316608 105.646760 -39.900948 4 1
-18.993860 77.793983 91.929703 14 1
-9.325877 89.056526 41.537563 0 0
4.778466 86.892410 64.719208 16 1
-9.472436 113.322640 -28.376308 4 1
19.933247 99.898155 -31.992550 6 1
-8.618537 106.771480 28.190357 17 1
-14.727955 110.362850 -33.421539 4 1
-45.386566 62.895081 2.600605 0 0
59.598122 76.054848 3.100830 8 1
14.506313 107.747150 -24.390059 6 1
-48.701061 45.070641 18.919497 3 1
-32.420246 74.916580 65.445206 15 1
10.980638 7.820957 19.976242 12 1
-52.982445 105.883810 -31.080986 4 1
-68.701172 48.103947 2.648350 2 1
-5.241090 70.282539 28.243004 0 0
-28.622154 72.983803 58.628944 15 1
65.144577 81.348717 -0.101203 7 1
-68.921455 42.330162 -7.444117 2 1
-6.270432 94.395752 -71.515930 5 1
-18.232656 78.713577 86.634834 14 1
-0.486044 5.411644 3.210947 0 0
20.714069 66.463257 48.910748 16 1
-34.020134 90.064018 32.633759 15 1
2.258368 97.693604 -67.983070 5 1
1.608727 95.721313 49.585903 16 1
-21.211079 93.165474 75.002274 14 1
56.793659 70.135124 6.139153 8 1
2.541209 91.023163 49.503613 16 1
7.222517 110.477230 -25.146683 6 1
-4.440051 52.100060 8.624962 0 0
40.614887 85.305000 -10.961885 9 1
-3.277865 89.300011 -11.123432 0 0
-41.617008 78.734238 39.970642 15 1
-34.747074 106.737260 -34.070427 4 1
33.638489 90.439995 -22.589142 6 1
-17.517609 91.970543 79.754761 14 1
0.022267 111.029580 -23.137505 6 1
0.699385 14.604972 3.730184 0 0
-30.197866 109.987820 -24.745979 4 1
52.880142 84.451782 -1.935049 8 1
4.092338 14.389069 15.802914 12 1
-26.666445 90.611198 82.514847 14 1
14.774376 104.606800 -9.198071 6 1
7.500233 107.669150 -17.554962 6 1
63.176170 82.045349 -12.175887 7 1
-37.784214 37.993942 -15.343733 20 1
33.181282 92.496574 -18.388182 6 1
-50.911419 61.968266 47.200294 15 1
-52.303661 58.266003 54.058502 15 1
54.491859 82.524727 -11.483801 9 1
59.983486 59.048580 16.736759 8 1
72.634750 76.310997 -24.378880 7 1
-12.829598 38.298504 4.952837 0 0
15.530364 44.720428 1.177511 0 0
-2.710769 8.774956 3.663309 0 0
63.214687 67.101265 6.278167 8 1
-14.354036 97.026093 69.459419 14 1
-60.334660 34.374851 10.895888 3 1
-4.861424 11.150871 19.449892 12 1
-46.832596 64.845512 54.333755 15 1
70.493576 76.726700 -7.968434 7 1
54.094418 80.964012 3.017130 8 1
-24.974731 108.325790 20.843491 19 1
-5.470912 55.911983 14.878840 0 0
14.103743 101.092490 -27.204607 6 1
-51.966530 57.327694 6.141965 3 1
20.625292 101.896360 -11.149981 6 1
-3.476132 85.461487 -4.967276 0 0
-9.026271 101.739750 66.467972 14 1
-2.545027 96.257141 74.251221 14 1
13.843586 102.259160 16.217783 18 1
-47.250706 49.902119 14.209497 3 1
-63.868446 49.372349 -1.151435 2 1
-5.942314 106.133980 -48.935764 5 1
-8.960497 101.062090 16.095516 19 1
77.329834 68.236404 -18.997044 7 1
-25.337288 106.108280 16.268034 19 1
-11.278811 95.404930 43.425598 0 0
16.428299 79.442047 48.964592 16 1
-46.074234 106.600310 -28.565950 4 1
57.216076 71.077332 11.007232 8 1
4.901993 72.140381 62.407082 16 1
18.243156 100.273750 24.270264 18 1
-6.746043 98.395103 70.056122 14 1
-9.152085 97.152618 -67.070366 5 1
6.819283 89.960327 52.047722 16 1
54.192806 89.666985 -12.221966 7 1
56.058876 87.995056 -1.949022 7 1
-12.360368 97.730347 50.492538 0 0
2.565000 83.532829 66.462929 16 1
-2.198033 30.707094 3.640843 0 0
-20.185192 81.218040 60.891605 15 1
-49.780800 55.117599 -5.856284 20 1
-28.411211 92.476753 40.835140 15 1
8.770455 82.905251 49.236660 16 1
53.427959 77.267426 2.502171 8 1
-47.693783 61.041080 58.107689 15 1
-23.299917 83.282295 83.588814 14 1
-5.340777 96.893051 56.122295 16 1
14.099238 83.568230 43.804874 16 1
-42.299599 65.091911 56.701679 15 1
-60.691162 47.482323 6.657851 3 1
-3.717983 61.683914 20.889376 0 0
-46.793606 51.073822 -10.406950 20 1
-11.774572 62.210770 101.240760 14 1
-24.773096 87.285141 85.710457 14 1
-0.416616 -1.032100 2.257571 0 0
-27.749651 80.513504 51.957230 15 1
-20.210060 84.001556 87.892654 14 1
-8.401407 84.520897 87.793777 14 1
-0.698978 91.887146 67.265968 16 1
65.347610 82.689728 -22.430532 7 1
-9.948546 91.095940 79.247711 14 1
-32.986248 119.969730 -13.757348 4 1
-7.753837 36.242168 6.287963 0 0
-2.899023 111.656200 -30.521851 0 0
-3.110320 15.310253 0.939983 0 0
-25.711254 91.319366 59.071819 15 1
-0.725218 91.300156 10.317323 0 0
12.739963 103.205310 -67.511414 5 1
6.264053 84.192993 55.366497 16 1
-17.199013 94.669640 52.303978 15 1
19.894213 100.782390 -23.127815 6 1
-12.117695 102.602390 -60.537312 5 1
-4.149261 74.138496 91.697380 14 1
-49.330505 109.859910 -23.192230 4 1
-7.986373 8.714377 22.957144 12 1
-5.237758 107.533780 26.861856 17 1
-5.316170 102.255750 -59.040310 5 1
8.270600 99.624046 -68.215805 5 1
12.051835 98.654495 36.051510 16 1
44.328678 79.101944 -1.779369 0 0
-29.881027 75.531410 92.492905 14 1
-3.271044 71.634872 -1.434527 0 0
-29.400736 72.763855 64.984825 15 1
-32.879524 83.227982 43.411896 15 1
-22.534422 41.523632 1.630456 0 0
3.573774 113.585070 35.033184 17 1
9.663693 110.568450 -56.208729 5 1
3.275620 96.738762 16.524986 18 1
36.079926 83.477684 -22.675335 6 1
-3.803645 94.696480 52.058735 16 1
-34.033772 55.996456 -6.870018 20 1
-0.822925 62.300533 5.637422 0 0
9.641883 108.587780 -7.665020 6 1
-5.028565 95.794601 16.851215 19 1
3.290414 3.020926 28.804878 12 1
60.367336 86.616356 0.123764 7 1
-27.990473 80.079308 86.668732 14 1
7.309039 90.522850 10.786689 0 0
-42.600563 70.806519 55.051720 15 1
-25.842957 92.743355 51.615322 15 1
-4.027800 14.001989 5.809453 0 0
16.298700 65.765114 55.088905 16 1
-16.999155 99.619720 48.919479 15 1
-7.765696 78.505341 35.500092 0 0
-51.489342 39.758835 18.863531 3 1
-6.562492 91.932335 -75.896431 5 1
-41.414230 53.685547 -8.416445 20 1
47.306694 80.687225 -3.814620 0 0
11.035409 100.488310 19.330101 18 1
-64.235535 49.756638 -14.527699 2 1
-3.461694 111.939350 -23.708084 0 0
15.413135 102.637400 -16.934956 6 1
0.248624 41.952511 7.247592 0 0
0.586910 113.891490 -31.808836 6 1
-4.258767 63.455650 7.871403 0 0
-35.896786 109.884610 -28.273962 4 1
26.486336 65.811241 45.849495 16 1
54.549126 75.242958 9.929087 8 1
-15.191881 112.638180 -27.253321 4 1
-3.343631 85.554764 86.068085 14 1
-10.382234 72.277687 95.076515 14 1
19.463873 101.474590 20.967670 18 1
21.096298 70.190742 45.983322 16 1
14.206003 97.222214 21.165966 18 1
-18.522514 102.401250 14.068235 19 1
43.675957 85.338852 -9.057365 9 1
67.141319 79.295181 -24.010744 7 1
-33.791603 84.117516 52.699974 15 1
-65.262825 51.389809 5.558267 2 1
72.385742 72.034866 -3.785808 7 1
-38.154030 79.747566 40.049610 15 1
-19.688765 71.079720 95.522240 14 1
-7.833720 75.921280 89.581894 14 1
-37.915794 71.030769 52.003750 15 1
-47.332779 66.766220 49.186802 15 1
10.929798 12.052400 -9.947748 1 1
-0.539078 19.276903 -4.917020 1 1
-29.007071 87.672119 81.644814 14 1
-47.785965 60.291119 3.384681 3 1
-32.675079 42.109066 -15.845480 20 1
-13.670006 73.978745 90.394051 14 1
-10.948508 78.975601 86.448380 14 1
-30.882187 55.041634 -8.252441 20 1
-13.684048 85.948715 80.341972 14 1
38.636990 83.168465 -25.840534 6 1
-1.253236 97.737976 50.590195 16 1
0.874304 108.109910 -51.655186 5 1
2.987987 16.837654 11.560587 12 1
-18.260437 96.657562 44.641731 15 1
23.875488 101.245230 23.213165 18 1
2.252272 83.557434 60.744385 16 1
-33.959770 68.915260 65.336403 15 1
17.793093 69.000305 52.239746 16 1
19.071459 79.636002 45.606869 16 1
0.269363 82.173851 88.974022 14 1
-28.229441 82.680618 65.842873 15 1
-26.539797 96.998062 74.301170 14 1
18.775896 102.246470 -14.509359 6 1
48.037277 86.149437 -3.475495 9 1
-50.497887 100.547200 -38.505138 4 1
-20.694973 101.265980 40.671268 15 1
1.573742 107.871640 28.106033 17 1
51.669010 71.842911 -19.649923 9 1
-4.460659 105.289150 23.894455 17 1
40.802834 70.213310 -24.582024 9 1
8.268628 14.849662 -4.324479 1 1
-63.031563 53.564030 -3.229768 2 1
-11.433185 93.291611 -73.406204 5 1
22.175720 100.398560 -17.700607 6 1
-47.224064 55.617443 13.359004 3 1
3.631894 85.458054 53.149712 16 1
-23.314962 82.358986 65.118568 15 1
-0.792215 70.186234 2.532917 0 0
44.717991 80.750397 -13.887300 9 1
-17.105537 94.418816 73.098038 14 1
2.295410 112.605040 -48.037971 5 1
-19.800364 95.619690 59.149208 15 1
8.352673 93.791985 8.900156 0 0
-16.351679 90.013786 77.055283 14 1
-23.579195 76.464798 62.171116 15 1
-22.765841 110.377820 14.668593 19 1
-2.687799 79.336380 4.724917 0 0
-21.997335 94.352806 43.132977 15 1
-9.918138 114.175110 -21.630095 4 1
-4.263918 70.379570 94.005966 14 1
-1.319836 105.008080 -54.817657 5 1
-2.775920 42.788742 9.654198 0 0
34.362980 66.858063 -0.631007 0 0
8.908060 96.041679 41.688141 16 1
-23.265198 119.632250 -14.099924 4 1
54.212151 67.118111 14.544795 8 1
-39.555080 76.794983 50.504944 15 1
54.399223 69.060440 11.585658 8 1
-39.526276 42.114727 -14.673806 20 1
9.178793 105.134510 -64.309509 5 1
-1.595898 1.485450 -0.897425 0 0
6.245784 42.358242 6.885123 0 0
3.807884 -0.418223 30.213669 12 1
-7.745587 86.047295 81.522346 14 1
-28.861921 86.015526 59.963360 15 1
7.033313 101.214130 26.485968 18 1
-29.223740 93.005798 35.005772 15 1
-4.121054 100.105370 50.773418 16 1
-47.547813 41.813824 19.685040 3 1
-12.853124 96.735641 -71.237808 5 1
6.132568 17.481373 1.958671 1 1
27.549860 96.970207 -16.289080 6 1
-1.712412 84.490730 11.209995 0 0
1.560206 -0.619073 33.465824 12 1
49.451366 82.404930 5.669515 8 1
59.408066 84.286346 -5.909553 7 1
-16.372761 75.754395 93.005287 14 1
22.747620 100.688350 26.888680 18 1
76.526535 68.155090 -14.590396 7 1
-7.277752 112.315980 37.082413 17 1
-42.569153 67.474144 49.962399 15 1
5.949075 73.180580 67.278473 16 1
16.562531 91.373672 37.171627 16 1
63.245106 61.713867 7.852436 8 1
-8.072027 97.866158 17.926914 19 1
-38.721458 114.337080 -20.504631 4 1
1.134739 110.361220 34.249741 17 1
57.148327 61.922924 17.884573 8 1
-6.042358 6.889237 32.049416 12 1
4.257539 16.667652 -14.237545 1 1
-51.688801 45.583977 17.102207 3 1
-35.295353 117.155270 -14.829274 4 1
-16.108135 101.812660 64.706085 14 1
-7.656796 81.601532 89.601219 14 1
-41.814541 58.632015 -0.211095 20 1
-8.549445 14.592939 14.801968 12 1
1.629567 91.749672 4.707971 0 0
0.619945 88.121429 9.847419 0 0
21.707273 83.437988 39.067558 16 1
60.525936 72.311455 5.672464 8 1
-18.939499 39.398132 2.396954 0 0
14.682848 106.466450 -12.697817 6 1
-16.497774 95.271049 57.730511 15 1
-59.320225 55.031403 0.517497 2 1
-38.990482 60.915352 -1.168726 20 1
23.758930 78.224365 41.063953 16 1
-7.102871 106.244420 -52.195225 5 1
-1.784934 0.845630 32.973095 12 1
-17.964947 87.898026 84.302597 14 1
-11.659697 108.143240 -46.870052 5 1
1.693330 36.556095 3.361932 0 0
4.642484 111.611210 -12.129043 6 1
-31.430155 79.284912 90.487167 14 1
60.687832 85.248375 -19.259264 7 1
-19.969254 93.231010 48.089008 15 1
1.659337 18.049227 -10.467015 1 1
-58.980576 38.391632 11.595815 3 1
-60.678772 56.330635 5.961931 2 1
-12.898383 70.600922 93.088028 14 1
58.161648 86.319923 -13.082087 7 1
-10.701566 65.893173 97.059044 14 1
-37.693783 54.628876 2.721810 0 0
-43.861519 100.816950 -40.353657 4 1
3.223155 80.009018 57.307178 16 1
-14.634239 99.556755 16.626617 19 1
43.166645 87.766953 -5.645301 9 1
4.662941 111.715260 -21.681370 6 1
0.112954 15.389683 -16.203140 1 1
-4.072169 56.874416 6.780254 0 0
-2.399299 79.107681 10.572338 0 0
-49.527489 66.428291 43.088997 15 1
6.639753 6.768497 22.572243 12 1
-25.606096 77.921669 56.703651 15 1
5.250459 111.444500 -36.852535 6 1
-1.158674 75.793228 8.262508 0 0
6.850511 39.075550 4.822716 0 0
-27.877502 86.161255 63.897373 15 1
-25.938919 113.969810 -19.359287 4 1
9.933084 105.521640 -16.184412 6 1
23.509581 101.616690 -27.226948 6 1
-30.133299 83.081535 85.706131 14 1
20.546638 73.273170 47.953854 16 1
0.539045 111.113030 28.567919 17 1
-8.240659 10.799814 27.607613 12 1
-50.922459 49.347046 11.085711 3 1
-1.584072 57.096085 10.977394 0 0
-3.436949 9.993816 22.856520 12 1
-24.072565 94.254524 47.523933 15 1
33.306690 90.870605 -29.622070 6 1
13.593915 87.931267 41.005131 16 1
19.921337 48.050339 0.698712 0 0
-46.897224 71.677162 39.271820 15 1
3.247288 97.234314 45.557304 16 1
11.931275 77.193871 53.809380 16 1
-27.416359 74.157127 62.079178 15 1
14.475502 82.323769 49.006893 16 1
-42.465748 66.316513 53.298691 15 1
-14.610759 82.408707 88.792831 14 1
-26.264633 108.798360 -40.356396 4 1
2.066168 99.982849 19.300806 18 1
6.325851 15.517319 -16.716951 1 1
-2.848176 15.084677 13.829289 12 1
-1.427755 95.765038 47.825592 16 1
0.205428 15.827902 -3.429822 1 1
-2.976072 88.921867 8.745275 0 0
-1.185560 117.986350 42.053421 17 1
52.948959 79.960739 6.051190 8 1
-2.189376 24.827400 2.880017 0 0
-10.957445 76.074501 92.882828 14 1
7.858787 47.358910 6.650698 10 1
-12.576559 99.013618 46.884045 0 0
22.016258 74.823502 42.188217 16 1
-41.129242 109.147590 -28.022285 4 1
0.808698 86.696617 56.954693 16 1
60.667339 59.640064 13.326925 8 1
10.339602 84.535805 46.478439 16 1
23.852491 71.980644 42.310863 16 1
-7.262475 68.967499 94.688271 14 1
53.448082 85.054054 -8.085915 9 1
-58.155872 51.975163 4.152626 3 1
64.832298 80.356125 -6.639304 7 1
56.767105 64.574348 13.614298 8 1
0.196891 95.226341 76.170334 14 1
2.448814 112.242880 -26.000193 6 1
-22.467621 86.915688 64.686974 15 1
41.417168 80.099800 -13.183598 9 1
10.273827 98.229965 22.932007 18 1
47.380360 69.643669 -24.741102 9 1
7.617795 107.578400 -59.201687 5 1
-49.250282 53.699215 8.218268 3 1
-18.335218 110.305440 -27.260120 4 1
-0.670120 81.905151 5.562832 0 0
17.711143 106.275310 -23.771399 6 1
48.013870 83.258942 -7.783764 9 1
14.462312 100.825880 -31.747602 6 1
-61.448059 53.559570 7.715916 2 1
9.310197 14.786393 13.621800 12 1
-29.399992 89.039864 40.013672 15 1
-8.200575 89.395020 81.567039 14 1
4.754027 16.166809 -3.503812 1 1
11.125835 43.303493 1.238724 0 0
-43.131866 53.786324 17.060432 3 1
-0.642349 67.390015 7.614568 0 0
-7.843771 72.099014 27.120018 0 0
-4.609557 98.914505 -67.021103 5 1
6.388968 87.917076 5.974586 0 0
17.204832 105.574710 -30.368183 6 1
-16.266026 109.513470 -51.078247 5 1
-2.770128 98.247063 16.370626 19 1
2.411212 90.865288 9.079157 0 0
66.240402 79.246277 -11.267017 7 1
59.737949 67.375320 6.491229 8 1
-0.125884 101.581600 44.497746 16 1
-19.949005 101.317010 67.431564 14 1
-3.566333 93.082153 58.841389 16 1
-25.639854 111.480090 -23.093248 4 1
-7.665229 101.695610 -56.713520 5 1
-55.891258 45.602055 13.035813 3 1
38.789371 82.320023 -11.605017 9 1
-30.407553 82.963440 59.250107 15 1
10.291789 105.510610 -30.519073 6 1
-59.715008 44.963165 9.554795 3 1
-24.763889 91.600357 76.862213 14 1
-37.233253 83.944298 43.170258 15 1
5.394453 99.282318 13.720615 18 1
3.435827 85.809059 70.027557 16 1
-10.054977 12.254833 18.969501 12 1
-1.409516 18.269964 1.401181 0 0
-4.971931 53.503330 12.439130 0 0
49.360905 85.831017 0.960580 8 1
64.241806 58.028732 11.805831 8 1
15.907971 100.964270 19.894636 18 1
-39.330173 68.331413 57.075050 15 1
-0.934591 49.206554 10.478761 0 0
-11.050934 84.672676 81.951225 14 1
21.688068 101.734280 -34.155025 6 1
-20.713436 111.706860 -39.584595 4 1
-3.012996 98.561172 -63.724411 5 1
-16.909536 102.313880 45.011833 15 1
-20.743921 93.205429 78.609535 14 1
-3.655047 40.142223 7.581924 0 0
-7.926346 110.562520 30.178001 17 1
-26.552147 74.680153 90.904602 14 1
-2.240575 114.332240 -40.412159 5 1
-29.975758 45.448242 1.308816 0 0
-28.838131 106.648230 -37.915413 4 1
-2.819807 28.056803 5.542031 0 0
-15.652582 114.418280 -23.578497 4 1
3.620326 15.690828 -19.176523 1 1
-14.389178 105.080070 10.500545 19 1
-34.220654 111.098120 -22.645802 4 1
-38.699329 57.449947 -4.732392 20 1
-25.278700 77.015739 88.909561 14 1
-2.264483 78.514740 -1.025475 0 0
13.827802 62.573257 58.627121 16 1
