36.258785 80.512314 -15.236341 16 1
37.331413 90.084579 3.356972 11 1
-84.499596 67.801445 43.492943 12 1
15.855912 66.987587 39.687283 0 0
-75.914444 71.646919 45.944740 12 1
-23.324932 89.640961 40.022697 3 1
-14.803922 22.041267 14.898609 9 1
26.376192 64.394905 40.538235 5 1
26.404335 88.891472 11.194543 2 1
-16.410610 61.144894 59.554012 3 1
-29.880913 100.591030 0.477118 13 1
44.306606 66.790482 3.773760 11 1
-13.862273 59.127987 59.874218 3 1
33.032780 57.330795 39.483711 5 1
-73.714966 76.645004 32.064838 12 1
-14.520097 98.020538 -35.991848 15 1
35.820011 63.776493 63.560486 10 1
-49.441914 77.757523 -24.311836 13 1
49.143490 63.650826 -3.928199 11 1
37.420307 80.170296 24.753275 2 1
-16.907511 69.996498 52.744312 3 1
-57.069046 88.237915 37.463570 12 1
3.506355 95.985214 -41.680042 14 1
50.862083 60.178364 3.129766 11 1
20.386745 97.400436 -0.157026 16 1
-18.199240 98.618073 26.018482 3 1
35.409111 58.668835 69.768387 10 1
0.578442 93.893135 6.607979 8 1
19.513172 89.659172 23.980093 2 1
-56.079632 83.958389 0.072187 13 1
-38.802643 93.748268 12.558180 13 1
-30.608929 97.169289 22.272884 3 1
-37.365829 94.616127 -7.589550 13 1
-10.110560 76.229973 53.316196 3 1
-31.134434 17.388273 0.231427 9 1
48.769115 75.073723 -0.548443 11 1
12.781200 26.412395 -3.175611 1 1
-31.334221 91.386909 -25.963255 15 1
34.242611 86.662430 -5.690645 16 1
-1.673696 65.237778 57.929005 4 1
-71.904823 77.953171 48.377209 12 1
34.109150 52.383118 38.290405 5 1
-69.679245 82.131691 27.210520 12 1
27.462677 81.335167 27.002462 2 1
2.033941 97.240227 5.325005 8 1
-39.456951 94.254402 -0.235207 13 1
-4.227085 71.651947 50.728214 3 1
36.471413 56.725414 71.786919 10 1
25.364002 23.942461 17.137112 1 1
28.066139 58.052738 47.781181 5 1
-33.164520 100.653100 5.964030 13 1
-55.344139 84.051231 7.356261 13 1
-29.446894 15.466904 5.826519 9 1
23.678831 20.299076 2.106604 1 1
-48.049782 94.684952 15.557618 13 1
-51.901310 83.439468 -1.636329 13 1
-37.706200 93.337967 34.476250 3 1
34.302612 86.529518 2.195822 11 1
-9.153934 82.289207 42.330074 3 1
-61.951317 84.574287 28.176502 12 1
42.980549 73.334152 -2.248096 11 1
29.836596 18.291136 6.599258 1 1
-55.912769 81.176025 -8.908336 13 1
-21.903004 21.506277 3.237840 9 1
-32.505581 98.331123 3.308860 13 1
-9.319398 70.536560 6.926177 0 0
11.009324 66.509499 53.426891 4 1
48.187832 65.813927 -5.174335 11 1
44.831280 74.465576 12.678322 11 1
45.641205 68.071548 6.391704 11 1
4.036155 91.811508 8.343500 7 1
-53.879322 79.454613 -11.104065 13 1
-23.549093 80.057594 51.263149 3 1
-43.111145 87.429512 -17.788181 13 1
-0.941046 9.357109 2.748338 0 0
-44.557430 88.956566 5.273453 13 1
-9.643524 25.811354 0.772829 9 1
38.608074 76.609962 2.955582 11 1
39.648975 79.530289 8.287005 11 1
17.955198 86.459740 -44.104408 14 1
14.910928 74.035065 45.762638 4 1
-1.105558 66.918594 2.253323 0 0
14.940797 23.201607 2.633436 1 1
50.224144 67.214676 2.952157 11 1
-68.157959 81.395996 44.746914 12 1
-85.359879 67.703316 40.204929 12 1
-49.383007 93.348053 25.085915 12 1
-2.613978 0.526728 -0.076350 0 0
-26.419111 94.481392 -34.187347 15 1
-45.624332 96.475403 28.976339 12 1
23.289768 90.241348 -11.272978 16 1
-57.998699 89.706451 42.246140 12 1
21.568550 90.902794 13.864846 2 1
-12.739638 68.800919 57.470013 3 1
21.958147 92.772171 5.183996 0 0
24.640886 87.669380 23.043459 2 1
10.665493 90.363426 -42.749668 14 1
-36.694294 97.263901 5.813776 13 1
16.821545 96.617012 -7.380264 16 1
19.261097 83.502777 -46.661381 14 1
-1.697861 49.236656 1.757076 0 0
-7.685555 69.822693 55.800022 3 1
-17.616690 21.652287 13.650931 9 1
-67.496887 83.435310 35.320240 12 1
38.960640 78.865776 1.684006 11 1
16.091383 89.140495 -41.784912 14 1
48.358231 76.649414 13.180926 11 1
-2.547970 41.119068 4.235220 0 0
6.054035 89.407181 6.169929 7 1
-16.321003 76.392357 54.475502 3 1
14.491836 25.888079 1.166736 1 1
-53.345863 86.680191 3.786884 13 1
8.793270 96.794197 -37.730415 14 1
-48.706089 85.927612 -13.330946 13 1
29.939043 89.465027 -2.763536 16 1
-61.543701 85.560768 42.945065 12 1
47.652515 71.154297 -10.244297 11 1
5.272414 99.224083 7.736374 8 1
-17.115826 24.055580 10.892474 9 1
-31.315590 98.981865 -1.738331 13 1
-70.433952 79.818237 30.119366 12 1
-7.141375 87.769440 -29.701397 0 0
-37.931431 96.058174 21.119436 12 1
21.985071 89.149803 24.206688 2 1
8.254324 94.478897 -41.757637 14 1
-52.060055 85.587257 8.505467 13 1
28.338764 68.507240 -33.527706 16 1
20.483564 88.884514 27.916861 2 1
0.570283 1.450224 0.865127 0 0
34.772507 90.038811 -0.993870 11 1
25.531155 61.770782 48.421505 5 1
-45.050884 87.892365 -6.342144 13 1
-34.377457 86.607468 -32.207764 15 1
-33.399708 93.475784 32.413910 3 1
-3.895315 63.736568 56.714497 4 1
-80.450470 70.176079 44.715775 12 1
2.468039 62.115818 56.331005 4 1
9.625749 57.040707 26.665731 0 0
17.305321 67.773064 41.592052 0 0
-46.093460 93.361076 25.875385 12 1
-26.129976 96.115250 -29.809130 15 1
22.223644 86.223671 25.237762 2 1
-2.769598 68.741859 55.527702 4 1
28.880854 92.018967 -2.360246 16 1
15.997124 70.100502 45.887302 4 1
-45.620842 82.343185 -21.982771 13 1
6.939340 71.931297 49.847569 4 1
27.003345 73.023888 -30.417301 16 1
-56.296577 87.494926 26.636042 12 1
32.656071 65.142128 66.069092 10 1
-68.821220 78.340622 49.032314 12 1
9.801988 26.281708 14.600899 1 1
-18.068878 23.579689 5.264608 9 1
45.863064 79.764717 -0.878776 11 1
-71.749176 75.814583 38.687847 12 1
6.006157 98.176720 -33.477390 14 1
-36.653809 94.529556 5.236708 13 1
-52.321232 93.779289 37.029350 12 1
19.481386 71.855515 56.061321 10 1
-40.038151 96.482536 17.377197 13 1
33.198853 78.122963 30.949360 2 1
-43.947624 93.387131 16.045229 13 1
-35.321339 86.859077 -28.220060 15 1
-35.573406 96.354195 -14.092851 13 1
-47.739552 90.942459 14.406294 13 1
-77.161484 75.835342 39.257824 12 1
32.226448 61.804146 69.258308 10 1
-17.991707 21.096029 -6.962121 9 1
46.459358 70.945450 14.568951 11 1
-5.823184 59.139599 -12.894254 0 0
-0.853263 47.073307 12.257257 0 0
0.105353 68.625618 54.651772 4 1
-36.364353 98.408569 2.620851 13 1
25.778889 91.956520 7.286690 2 1
-53.732517 90.644699 27.486729 12 1
-52.746830 83.187263 -12.376531 13 1
33.990986 59.346756 34.356140 5 1
6.323287 82.866043 3.255630 0 0
-38.685417 93.108704 -11.439468 13 1
38.425636 81.409264 22.315769 2 1
8.343238 86.002213 -51.440426 14 1
10.750718 25.963488 4.338302 1 1
-43.207039 89.245079 -1.798298 13 1
-48.901993 83.669708 -12.059617 13 1
-48.034077 94.827049 30.708450 12 1
27.561666 91.348946 10.442741 2 1
33.078957 82.945137 23.984373 2 1
0.243424 -0.389889 -0.871753 0 0
-20.353394 100.979470 -23.314116 15 1
-22.914095 93.709000 33.490444 3 1
11.848448 67.564537 47.553486 4 1
21.279333 92.472160 17.316700 2 1
-82.575912 68.417404 38.833389 12 1
47.510986 77.338791 2.628757 11 1
-21.632893 97.135185 28.101221 3 1
-19.862389 75.225586 51.183018 3 1
5.411371 51.173798 20.658474 0 0
-6.503042 78.279274 -24.055494 0 0
-57.074722 74.720215 -17.724583 13 1
-24.323215 72.932487 54.651730 3 1
-5.733875 45.671871 5.561909 0 0
-51.477207 94.157158 21.151468 12 1
-48.055580 88.392990 -2.037131 13 1
-21.885767 70.204109 56.269077 3 1
-7.655664 86.247688 42.396702 3 1
-7.311457 89.984711 37.038368 3 1
-0.242005 100.482480 -34.972317 14 1
31.999477 63.451771 30.823244 5 1
1.948454 25.878431 2.752916 0 0
28.995796 82.709404 18.780704 2 1
14.624331 89.816475 -20.564890 16 1
10.258107 83.537178 3.901128 0 0
-28.875921 79.839638 51.085003 3 1
-6.329211 59.940044 3.904960 0 0
-52.814556 92.367867 24.336773 12 1
42.280643 80.681129 -5.873770 11 1
20.690685 89.485863 -37.510246 14 1
-7.348315 64.539101 2.690160 0 0
-19.268778 100.710600 -26.387125 15 1
-22.989355 20.106688 -0.762281 9 1
-15.323740 102.608980 -25.657318 15 1
-45.831264 87.784302 1.847903 13 1
-3.310664 84.857994 3.173506 0 0
-49.438694 84.325348 -6.709062 13 1
-23.457371 91.693306 36.690861 3 1
26.664997 70.381363 52.603149 10 1
-5.398989 22.856621 0.934438 0 0
-23.676710 94.185509 -33.415546 15 1
-9.227388 64.851334 55.391834 3 1
-0.731568 23.544018 0.596243 0 0
9.971013 86.246529 2.932027 0 0
-80.504860 75.132347 33.480675 12 1
-14.243093 23.359642 3.903433 9 1
23.193230 86.230377 -39.918789 14 1
-8.787969 58.708191 58.205517 3 1
21.865429 87.906769 -18.095785 16 1
3.641737 92.325691 -44.332558 14 1
-74.293510 75.429527 47.478512 12 1
31.202253 90.032463 -5.153695 16 1
-69.718330 77.048401 37.452526 12 1
-59.246964 84.838226 34.678413 12 1
-3.909116 76.551872 47.111771 3 1
-13.251764 89.304977 40.251163 3 1
2.520490 98.496948 -34.685932 14 1
-4.428888 63.839180 4.618855 0 0
20.586092 83.759270 -26.230503 16 1
36.892906 83.515678 -11.546035 16 1
-28.942316 92.725655 18.895721 0 0
-19.809576 91.934570 34.087166 3 1
-50.991924 78.848526 -18.518314 13 1
-1.436899 99.531433 -37.054035 14 1
0.213660 83.059570 0.720782 0 0
14.925198 23.205671 18.157784 1 1
-4.516728 55.448254 -12.094722 0 0
-3.639835 96.381050 -43.679577 14 1
23.123085 88.997154 15.023144 2 1
-13.530492 86.581909 44.683277 3 1
18.763817 88.548271 -21.235441 16 1
-5.341094 81.473976 2.202742 0 0
-75.067757 78.626129 37.917759 12 1
37.911991 83.434410 -0.116063 11 1
25.853098 65.669289 44.376705 5 1
34.548019 89.180725 -5.122371 16 1
37.684460 89.730530 -0.677193 11 1
-3.983018 99.313950 1.682443 6 1
17.288465 22.803083 -0.747559 1 1
-45.680752 97.993126 33.015141 12 1
-38.374607 95.285172 -2.631594 13 1
7.088402 87.112648 -49.383682 14 1
-78.603416 76.141449 35.229984 12 1
-4.193954 48.747425 -1.699582 0 0
-28.576437 96.443573 26.119675 3 1
0.473532 96.758232 -37.986633 14 1
-10.896747 83.559799 47.247536 3 1
-27.023909 17.470520 8.597461 9 1
-53.874172 90.283478 40.682621 12 1
-32.870090 88.063370 -36.076248 15 1
-37.601387 94.974533 -15.454394 13 1
1.877977 47.571777 15.499576 0 0
-9.605569 65.172348 60.301357 4 1
-28.935020 95.010445 -27.555143 15 1
-56.791603 77.534050 -14.350030 13 1
-15.265397 97.184555 -38.163090 15 1
-0.011940 18.986856 1.597237 0 0
-14.596672 92.396652 32.647064 3 1
30.806185 86.495003 -12.705624 16 1
33.211788 67.981834 57.891472 10 1
-23.209637 17.696712 6.342725 9 1
-22.594666 97.860275 -24.259026 15 1
-9.788722 86.870598 38.798069 3 1
29.606443 59.550419 40.107704 5 1
-58.760246 76.015778 -12.716624 13 1
30.136770 64.442062 39.313614 5 1
-32.995087 90.218391 -30.043442 15 1
30.775995 67.040977 61.223080 10 1
2.131765 72.453979 49.051472 4 1
-20.938671 74.884819 55.200451 3 1
28.842464 18.579195 9.314876 1 1
47.552593 73.668991 -10.527896 11 1
39.475620 86.361046 -0.463144 11 1
-78.841255 79.299362 24.173088 12 1
-4.767838 72.963577 0.608662 0 0
17.608442 23.768774 12.513314 1 1
-1.031555 75.362709 1.520661 0 0
34.767216 59.676353 29.151661 5 1
-23.164501 98.612381 -28.805367 15 1
-60.916420 86.347420 49.385521 12 1
-2.166071 31.927210 -0.192676 0 0
-54.560078 80.656479 -4.825112 13 1
-57.166771 81.250511 -6.330080 13 1
-40.974762 91.149422 -10.253579 13 1
28.702656 82.189301 30.682905 2 1
-46.060955 87.546410 -12.544790 13 1
33.711884 74.510368 35.424252 2 1
-11.149796 68.614540 6.584196 0 0
-40.311367 93.819710 7.588612 13 1
47.030102 63.797073 3.420867 11 1
32.510899 82.294731 -15.975450 16 1
-71.347008 81.460236 37.856258 12 1
-7.126436 69.544121 -19.346695 0 0
-1.094418 64.578072 1.636783 0 0
0.049934 11.947162 1.068116 0 0
-25.236971 88.404045 38.923164 3 1
-83.822815 70.105370 35.289421 12 1
31.864130 85.006355 20.494797 2 1
-24.388309 70.961784 56.129898 3 1
-50.605461 96.217384 39.714474 12 1
40.644646 82.644493 -4.727555 11 1
-28.449284 95.001442 -20.960421 15 1
-31.009642 80.081276 48.754379 3 1
-16.756973 22.868034 -2.214781 9 1
-26.016090 90.549088 35.548267 3 1
-57.990414 78.579819 -2.522726 13 1
-36.365440 86.773895 44.593693 3 1
49.030499 72.204376 12.260030 11 1
-1.381976 38.918610 2.957551 0 0
-55.184078 82.077568 1.707236 13 1
13.662437 61.618160 34.720592 0 0
-21.356316 22.028053 12.240064 9 1
-66.556671 87.555351 19.985384 12 1
-33.117523 96.031334 25.573174 3 1
-65.699417 89.818970 17.690237 12 1
-53.704781 88.846611 10.892340 13 1
40.483673 89.958839 -3.756510 11 1
-21.440596 68.768669 58.412182 3 1
-22.731638 94.900238 29.169113 3 1
-65.911957 79.181396 32.966595 12 1
-2.016541 15.938604 0.206986 0 0
-28.236551 15.257782 -2.704897 9 1
-79.528191 78.192635 27.867517 12 1
-50.028309 81.219719 -21.299051 13 1
-11.214350 88.238960 41.756218 3 1
-1.750609 58.900921 1.902140 0 0
-78.781731 71.421570 36.141457 12 1
19.405445 92.135872 -12.792541 16 1
-38.145672 95.072777 -10.167075 13 1
46.824245 66.117966 -0.446892 11 1
-4.192187 88.706856 3.911449 6 1
23.893513 22.950769 14.298884 1 1
-25.338388 15.962001 15.856873 9 1
-6.704564 47.763908 4.896403 0 0
-5.170028 25.247328 0.764434 0 0
45.697346 81.748863 -6.645545 11 1
-40.781830 97.633133 23.588671 12 1
-7.141675 68.508049 52.967091 3 1
-27.104195 85.709732 45.150917 3 1
23.161701 86.740746 20.500595 2 1
29.799755 63.150524 35.080162 5 1
-20.747971 83.030289 14.244803 0 0
-2.586921 68.471901 0.325503 0 0
-2.373489 60.715538 3.572206 0 0
-52.022789 86.509789 1.011103 13 1
0.666652 85.643600 0.677306 7 1
-34.800549 98.741928 -3.823336 13 1
-34.087025 16.529358 2.842860 9 1
-61.169590 87.748199 45.457352 12 1
-46.857063 86.049126 -9.073265 13 1
-24.713434 88.904800 14.149212 0 0
-49.766384 90.282097 25.993862 12 1
-41.560524 87.911072 -22.194014 13 1
-30.762018 94.451035 -24.598539 15 1
-46.672405 81.767715 -24.861933 13 1
-3.247252 54.768406 0.656754 0 0
37.073299 83.283676 5.937139 11 1
-7.585279 94.744186 -31.152081 0 0
30.768179 87.330063 16.260902 2 1
27.793522 62.782658 43.634415 5 1
17.158474 23.634096 19.021164 1 1
-12.736548 70.373123 52.115631 3 1
3.811264 25.731150 4.600014 0 0
-15.583680 24.726946 1.294351 9 1
-51.489147 89.587784 29.504051 12 1
-34.976204 94.802101 28.870869 3 1
31.117743 75.700630 36.830452 2 1
-58.809067 81.689774 0.601687 13 1
-0.451231 95.180710 0.543873 6 1
21.202688 21.037830 6.313798 1 1
-34.505123 88.498100 -25.908663 15 1
31.588112 79.395683 22.099821 2 1
20.441902 23.857424 9.001797 1 1
-54.687439 72.490944 -21.436512 13 1
23.845695 22.856850 9.593243 1 1
5.269447 81.357468 1.722438 0 0
23.560625 91.758865 9.388435 2 1
8.585153 95.931061 -35.515415 14 1
-7.707761 82.248909 -26.055641 0 0
-56.249493 79.594948 -11.334996 13 1
-4.608343 40.959084 2.608739 0 0
-73.194336 79.843140 39.565571 12 1
22.555641 91.944847 -8.991747 16 1
11.824873 25.528484 16.940598 1 1
37.993000 59.965370 68.810219 10 1
24.992903 68.422119 39.663231 5 1
20.100773 89.757614 20.476196 2 1
-6.394579 52.619347 2.639267 0 0
-40.887859 91.315086 7.554450 13 1
34.381889 87.619827 -8.734731 16 1
-76.649544 80.083954 28.673882 12 1
-51.217518 88.037643 12.012198 13 1
-37.221416 90.870384 38.150822 3 1
-8.048008 25.139980 2.542033 0 0
-5.933770 45.044739 0.857821 0 0
38.610924 79.236465 6.166831 11 1
-52.971004 74.796364 -24.258921 13 1
34.136059 66.269394 61.651283 10 1
39.768673 75.745316 27.907911 2 1
16.769888 64.981667 38.430450 0 0
-3.374139 20.128483 1.811690 0 0
31.832582 60.745800 73.979446 10 1
-3.774081 98.940529 -36.667442 14 1
43.556190 75.676682 -4.982331 11 1
41.480858 78.220314 -2.553599 11 1
33.568008 90.279068 10.291123 2 1
4.926504 61.488098 56.445614 4 1
33.875988 74.368408 30.921186 2 1
10.454609 87.738480 -48.597805 14 1
24.146152 92.209808 -4.128260 16 1
-12.161630 61.794987 57.914143 3 1
29.632795 93.480782 0.739721 16 1
8.418421 94.877724 8.091210 7 1
12.612936 89.029404 -45.692619 14 1
47.939106 78.093094 -7.484852 11 1
-23.613382 95.271736 -30.551094 15 1
-41.661079 89.914230 -13.810169 13 1
40.021175 65.512497 61.887218 10 1
34.506802 92.471062 2.010523 11 1
-43.096989 89.568680 3.241474 13 1
-3.121907 73.406555 49.367348 3 1
2.372688 89.966721 2.411628 7 1
18.758226 93.684532 -10.290083 16 1
22.975338 69.274727 55.029091 10 1
-5.974167 96.887856 -42.508244 14 1
-3.523635 24.536129 3.169700 0 0
2.793150 98.494278 -37.086018 14 1
-36.405621 96.836388 -6.636667 13 1
18.522049 91.380341 4.333014 0 0
-68.832909 87.130119 17.888466 12 1
-32.740589 88.091064 41.637936 3 1
19.893015 95.167511 13.868226 2 1
29.612789 89.187660 -7.786537 16 1
-14.445224 100.879230 -32.231892 15 1
-63.178802 84.831886 45.069393 12 1
-15.868107 91.873177 36.514271 3 1
-58.251347 86.622139 41.982368 12 1
-11.606951 26.615171 2.003276 9 1
39.136112 88.573082 3.219443 11 1
-2.725259 52.860249 3.903023 0 0
-81.447121 73.357338 29.853155 12 1
22.333725 69.148582 47.031471 4 1
-14.145951 26.550192 5.570924 9 1
32.459785 88.671661 1.901749 11 1
0.417297 62.922455 59.101234 4 1
-19.815748 20.970655 1.904941 9 1
-30.542181 14.654748 10.485246 9 1
-7.010032 69.438454 -21.821720 0 0
10.237746 28.026257 5.645421 1 1
47.464596 67.886932 13.190890 11 1
37.151894 73.913452 28.512390 2 1
-80.114014 71.987091 40.866459 12 1
-44.944817 91.185776 7.693858 13 1
-6.244438 48.003906 1.720189 0 0
-57.474247 91.631126 22.648651 12 1
44.208328 84.863319 6.883780 11 1
-80.096825 69.338486 40.164562 12 1
-34.685246 96.445641 4.807325 13 1
-5.110291 67.586235 3.795823 0 0
26.235142 68.243317 62.721912 10 1
40.190262 74.660988 1.974609 11 1
-56.829590 91.971664 43.232906 12 1
-25.220623 93.571014 32.786411 3 1
-7.287872 92.411766 -30.100277 0 0
-29.195089 90.881630 33.523659 3 1
27.630867 93.248337 -0.772626 16 1
-16.650475 65.739532 56.799797 3 1
18.294712 21.988811 4.442134 1 1
-30.223221 100.758090 -3.866708 13 1
1.478356 75.055962 0.522823 0 0
42.981071 84.718559 2.378373 11 1
22.851645 93.992264 2.871510 0 0
48.590534 75.404472 9.192087 11 1
-53.335426 96.826729 20.353516 12 1
17.487648 90.752365 -40.811943 14 1
-18.947815 100.648050 24.811348 3 1
22.049862 68.677086 44.134800 5 1
-34.167191 89.574959 35.692314 3 1
18.978035 96.669693 -4.173041 16 1
-43.386505 90.175819 9.505886 13 1
14.539286 68.190559 51.049770 4 1
-46.708580 92.689964 13.240355 13 1
27.266645 89.348839 14.304135 2 1
-33.550388 97.395241 0.368687 13 1
30.382118 68.284607 54.635799 10 1
23.754839 85.746887 29.616909 2 1
-33.748112 83.628746 45.377651 3 1
-39.269043 91.843880 -20.956764 13 1
-11.205277 80.174225 50.677742 3 1
28.003708 85.134361 15.698001 2 1
-5.704395 75.257996 51.255402 3 1
5.928247 74.126274 49.204960 4 1
23.085144 82.978973 31.981596 2 1
18.175756 80.228149 -29.153557 16 1
14.742670 26.062300 10.242790 1 1
-66.016716 82.228294 29.365051 12 1
-3.422191 83.141335 5.089911 0 0
-49.010006 97.412750 21.079205 12 1
-1.047966 46.215000 0.567044 0 0
31.075584 65.629005 72.844315 10 1
-46.155811 87.206619 -3.175045 13 1
24.372005 84.599861 24.643259 2 1
-52.001732 79.423256 -20.640371 13 1
4.113809 64.259094 53.291466 4 1
-52.492710 91.133202 32.029984 12 1
35.308327 79.478035 -17.137554 16 1
33.332775 59.251038 76.985291 10 1
42.657410 84.287338 -4.412970 11 1
16.096483 84.182175 -49.439301 14 1
-0.802024 72.276886 52.568127 4 1
26.788940 85.641724 26.373734 2 1
3.049188 62.047375 59.062695 4 1
-19.416357 21.820593 16.019814 9 1
32.856560 88.817978 13.487942 2 1
-52.793102 81.032867 -9.103087 13 1
-30.146961 87.705627 42.054287 3 1
36.185528 84.467827 -9.438192 16 1
7.937233 63.575378 53.319099 4 1
32.992744 84.915138 -9.672454 16 1
10.935394 84.605835 -51.653881 14 1
-23.756786 75.699669 52.356297 3 1
-1.564020 31.875784 3.752021 0 0
39.386063 81.309349 9.764856 11 1
23.070276 25.407797 17.714184 1 1
-6.781442 80.653419 47.627636 3 1
-72.434364 75.289459 34.075684 12 1
5.588428 61.796803 58.653652 4 1
-22.998484 81.031746 47.165070 3 1
-3.058034 86.361038 39.787476 3 1
6.178254 90.807259 8.471757 7 1
26.804474 90.766533 -7.761716 16 1
-63.783009 85.851624 24.593758 12 1
-10.819180 76.393669 47.110065 3 1
-16.520197 101.109920 -28.518917 15 1
22.139080 21.397474 3.711920 1 1
36.033470 86.711365 -0.319368 11 1
-26.071875 77.178925 53.363258 3 1
33.793987 63.345432 75.472015 10 1
-29.324533 92.897102 -33.042915 15 1
26.741238 70.049294 36.342705 5 1
-3.601664 67.618378 52.501995 3 1
-9.434274 84.685585 45.352383 3 1
31.515656 56.303230 43.515873 5 1
-17.526798 81.763779 44.197365 3 1
-2.932678 80.268745 44.201229 3 1
35.533249 49.349258 37.390343 5 1
-4.300465 82.528580 41.745243 3 1
31.569695 87.416817 -5.678241 16 1
22.696829 81.996330 -47.124382 14 1
0.913880 67.976334 50.325172 4 1
-43.912693 85.337479 -19.892359 13 1
-16.453636 24.514357 3.432736 9 1
-5.967437 66.750381 -18.504395 0 0
-82.321358 73.134422 34.190197 12 1
-26.371195 98.324501 -21.392830 15 1
16.275831 87.224014 -46.355679 14 1
-16.287840 99.329491 27.116268 3 1
-43.715099 87.859596 -14.542259 13 1
36.446598 71.423874 32.433060 2 1
25.656805 69.197151 58.511044 10 1
0.226684 25.229925 4.153361 0 0
-21.498623 78.511566 49.044216 3 1
25.254244 67.801811 43.716400 5 1
20.625452 21.074669 -0.322392 1 1
-7.846109 97.875893 -34.437424 0 0
16.128040 89.020554 2.598819 0 0
-23.330271 18.101915 3.552278 9 1
26.147970 79.853043 33.457447 2 1
42.680443 86.558342 5.705079 11 1
-27.043802 74.482277 55.662910 3 1
-0.499474 44.909538 11.053285 0 0
-51.418880 88.118874 5.326317 13 1
41.421406 75.817200 -0.782716 11 1
-9.239880 99.534821 -36.279854 15 1
-81.107895 74.748787 27.900402 12 1
-9.216054 89.366318 38.660801 3 1
-4.906289 51.297604 3.846399 0 0
-28.539806 94.529633 29.746010 3 1
-17.182669 95.520279 29.304203 3 1
49.353584 68.015869 11.149543 11 1
19.121511 71.396851 63.261806 10 1
-12.316435 24.796524 4.203437 9 1
-41.292980 95.083923 14.467584 13 1
30.245062 78.979790 -23.698408 16 1
-32.860596 98.962097 -10.971653 13 1
-63.877460 85.729538 28.933107 12 1
-6.373278 82.798180 45.247684 3 1
12.121124 58.965488 31.629295 0 0
-2.220365 41.913445 -0.466361 0 0
-66.682098 80.027740 43.631550 12 1
42.202362 83.945374 -0.029723 11 1
-5.122815 50.605110 -8.834909 0 0
-49.550518 82.849617 -19.645277 13 1
21.075609 22.474348 19.917925 1 1
44.127087 70.581535 6.898658 11 1
-4.752046 55.915733 4.506426 0 0
27.642254 65.112114 75.231316 10 1
-32.414059 92.552834 29.540106 3 1
20.139057 85.341057 -45.524891 14 1
-13.141574 78.478134 53.070881 3 1
28.508944 66.483597 71.500168 10 1
-6.741632 60.789955 -14.257598 0 0
-77.327629 78.513794 32.138851 12 1
11.710603 95.687309 -33.903202 14 1
23.773808 91.650955 13.763900 2 1
33.491581 85.667664 -12.279310 16 1
-6.766664 74.675774 -24.275114 0 0
-50.251041 85.397537 3.657346 13 1
23.743341 70.726349 52.744469 10 1
27.652975 68.363365 59.265163 10 1
-71.999962 75.868347 40.963459 12 1
-21.361740 19.577919 12.479573 9 1
44.908310 71.809837 8.672393 11 1
-38.244629 95.417282 23.306606 12 1
-20.432316 20.688248 -7.656370 9 1
-45.518570 95.308983 22.546928 12 1
-34.067448 90.336227 -22.092560 15 1
5.881674 52.296120 23.056374 0 0
-13.625550 64.839180 56.606598 3 1
-21.498898 83.444344 44.432983 3 1
-54.869732 77.309723 -18.858887 13 1
14.955195 67.970085 47.173523 4 1
-69.222694 81.549217 42.338043 12 1
-27.464762 95.153214 -23.441429 15 1
-52.448444 79.485046 -14.528805 13 1
4.049072 87.593842 -50.558697 14 1
7.584221 90.966187 -43.662003 14 1
46.629272 80.817421 5.375153 11 1
4.897478 69.920242 48.746094 4 1
38.405396 77.322296 24.067530 2 1
-35.014263 97.245216 21.195229 0 0
-35.365131 88.203049 38.609257 3 1
-53.980446 91.613800 42.959133 12 1
22.722326 91.830261 -12.838223 16 1
-47.859486 85.825027 -15.529470 13 1
7.237755 26.368738 3.385465 1 1
-16.842375 24.789148 7.783459 9 1
21.923023 84.639038 -43.685791 14 1
0.489848 84.610130 4.619915 0 0
-13.986532 74.828346 8.044804 0 0
-11.957642 26.815788 6.670577 9 1
0.899889 45.869232 13.076730 0 0
-26.861259 91.719955 -35.221748 15 1
-32.462769 16.543310 -1.415562 9 1
-14.538227 101.776290 -30.013239 15 1
-6.805841 84.964493 -26.896709 0 0
-31.746700 94.895462 -21.113358 15 1
-31.534540 98.758224 13.240295 13 1
-59.898067 85.987495 38.510319 12 1
-21.453970 99.867645 -26.891912 15 1
-31.320889 92.170250 34.125301 3 1
-68.825142 79.572319 51.506939 12 1
-5.664759 61.899799 56.454147 3 1
-12.632933 93.312584 33.532558 3 1
-62.387043 85.916489 30.949766 12 1
-22.782801 99.787346 -20.493448 15 1
14.925157 92.750198 -40.003765 14 1
25.235575 83.331436 -22.191275 16 1
-49.818565 92.686531 36.300980 12 1
31.229982 92.088753 -1.088953 16 1
-26.664257 90.545364 17.350784 0 0
-30.815048 93.061935 -29.758682 15 1
36.433067 79.425369 -19.636389 16 1
27.424498 20.278994 8.489547 1 1
19.083244 94.934708 16.486696 2 1
32.929962 62.130463 32.448799 5 1
30.206673 84.226776 26.798338 2 1
31.859028 75.057823 -25.763262 16 1
-18.755074 78.604340 52.741642 3 1
-2.667742 90.630028 6.065939 8 1
18.295246 96.481644 19.872383 2 1
-12.248528 100.386310 -32.794529 15 1
-53.179276 81.714767 -14.270125 13 1
19.175007 91.833382 23.426590 2 1
13.533630 64.373161 53.681648 4 1
-3.373749 59.724449 0.553747 0 0
-30.260084 96.203720 20.134483 0 0
-2.422387 36.272362 -0.029071 0 0
29.822491 55.190632 45.538998 5 1
5.745220 96.876976 -35.365154 14 1
-19.447903 64.957260 58.644608 3 1
-7.462721 78.656326 -26.398071 0 0
31.829943 72.268532 -29.335230 16 1
-38.809895 86.412270 -25.891594 15 1
-30.700975 84.046638 46.737495 3 1
22.580450 70.756454 57.262180 10 1
-53.187790 90.159531 38.272228 12 1
-4.762562 48.078938 6.096102 0 0
-8.926928 62.214504 58.042278 3 1
-13.534741 81.881645 50.080986 3 1
24.771540 66.171722 46.968010 5 1
24.170111 19.979065 7.361668 1 1
-29.731609 100.946390 3.001742 13 1
21.401192 22.795273 10.827667 1 1
-17.305140 88.165176 38.926407 3 1
-59.557064 77.851440 -8.643204 13 1
9.808381 98.980461 -31.630629 14 1
26.834177 85.897202 -15.482410 16 1
-53.240574 79.399544 -18.680622 13 1
-16.704397 20.546091 6.761724 9 1
-28.634418 14.076802 13.228504 9 1
20.677561 89.898514 -15.849597 16 1
-4.263890 70.759216 54.518196 4 1
-60.283878 88.351524 22.668837 12 1
-27.892914 98.378433 23.368309 3 1
-66.758858 81.490334 51.450516 12 1
17.279934 70.214371 47.872128 4 1
-45.001579 89.224609 -8.868827 13 1
-31.490421 91.546616 -31.933292 15 1
33.373875 62.303600 73.460732 10 1
-79.744774 76.939484 30.826790 12 1
-48.930042 88.397362 2.657658 13 1
30.517126 83.999420 -13.849277 16 1
-75.247635 73.237740 38.095070 12 1
-59.287331 87.320137 30.544708 12 1
30.499104 77.560333 30.336493 2 1
-2.944668 69.726318 51.392094 4 1
-33.141689 90.175514 33.628845 3 1
50.811859 64.206642 -0.221272 11 1
16.954418 86.475342 -23.018913 16 1
27.527470 68.184074 39.886562 5 1
3.352621 66.345032 50.377300 4 1
35.556232 62.519863 67.344505 10 1
13.528625 65.664268 50.788723 4 1
-0.028358 45.738987 9.018520 0 0
-24.378910 77.714661 50.644661 3 1
10.182545 63.048878 56.762672 4 1
-25.035927 98.497276 -24.208494 15 1
26.766533 83.070641 22.881714 2 1
-47.679707 86.019180 -4.363791 13 1
-49.657436 93.696083 31.938208 12 1
-58.955132 74.192795 -14.428744 13 1
-46.524815 85.397072 -13.738065 13 1
-27.264666 18.753277 -2.179333 9 1
0.032405 73.097908 49.509251 4 1
-3.030798 9.497209 1.945724 0 0
41.556145 77.711235 9.185053 11 1
24.267508 69.476189 60.638386 10 1
23.832273 70.824020 42.634750 5 1
-63.966923 88.616364 21.962736 12 1
-18.075035 68.851944 57.885757 3 1
2.866609 75.769730 3.438417 0 0
42.034088 70.432686 4.490929 11 1
31.857597 68.864960 -30.709761 16 1
-3.496874 93.940704 -47.139389 14 1
-9.024552 78.448090 50.917618 3 1
-11.316429 70.757500 56.290909 3 1
-26.306763 16.753658 13.948961 9 1
1.236984 82.126236 2.590683 0 0
-17.897057 99.974525 -30.670700 15 1
25.640043 93.993942 6.380599 2 1
-54.075554 87.742287 8.928105 13 1
48.716640 69.164627 -10.776568 11 1
-4.096532 61.847538 59.280720 4 1
31.806858 64.006462 34.605255 5 1
-37.492401 94.427490 32.540184 3 1
-2.847785 42.804413 6.907718 0 0
-24.292643 97.384209 -30.315487 15 1
-21.259121 98.963898 -22.852718 15 1
-49.326019 80.447647 -18.355761 13 1
29.912033 83.629494 16.827362 2 1
49.940598 61.528008 -3.781216 11 1
-49.311314 95.347046 33.589310 12 1
-39.300949 92.205688 2.723727 13 1
12.931959 26.962072 7.834568 1 1
-12.943809 24.746767 8.920546 9 1
-16.189581 72.756958 50.038414 3 1
-11.246793 91.737129 35.529423 3 1
3.642772 50.893948 17.463552 0 0
49.107849 61.056461 1.158498 11 1
22.877863 23.783319 19.959673 1 1
34.612152 54.040108 33.516350 5 1
-58.306671 87.453545 25.677139 12 1
-5.272893 80.532959 43.837097 3 1
-36.002071 95.734520 -4.642988 13 1
4.075006 72.465981 50.654362 4 1
-22.554092 20.774235 10.418180 9 1
-49.029484 78.251282 -21.900160 13 1
9.695982 92.386803 -43.175678 14 1
-18.176682 91.715317 37.279049 3 1
-0.971289 72.115654 -0.372194 0 0
20.104456 86.768074 28.578047 2 1
18.384460 93.384209 -35.031548 14 1
-36.093994 95.269066 2.085947 13 1
35.318424 86.797974 16.455534 2 1
24.826660 66.897842 73.836609 10 1
20.806631 96.534874 9.693137 2 1
-19.470249 72.461464 53.065536 3 1
36.660542 52.253525 36.392620 5 1
-36.255695 87.577568 -23.984102 15 1
24.376276 63.265652 46.283421 5 1
-35.948235 97.116737 12.326879 13 1
-2.012691 46.786434 -3.132470 0 0
-54.118614 83.978752 -5.046572 13 1
19.294558 96.977280 17.749388 2 1
26.810101 68.432381 54.812389 10 1
-15.430907 72.422577 56.675022 3 1
18.366114 89.471970 27.580275 2 1
-27.302546 87.071701 43.256065 3 1
35.543797 48.150829 41.591507 5 1
-34.928791 94.686378 31.328491 3 1
-26.136917 86.613045 41.186466 3 1
-2.613930 60.492706 62.050190 4 1
-79.750732 72.542191 33.886360 12 1
-22.129885 94.031639 -37.251789 15 1
-19.413860 97.094231 27.460428 3 1
32.211018 80.367584 -19.975931 16 1
-8.223966 73.099174 53.902237 3 1
13.916311 63.732040 55.779903 4 1
27.159651 86.652687 -12.257875 16 1
7.639063 96.358589 -39.602600 14 1
-30.866198 84.518364 43.402512 3 1
31.425747 76.091537 32.356083 2 1
36.929226 82.833740 1.770581 11 1
-1.990571 3.746284 -0.922037 0 0
-51.295589 85.610046 -8.146959 13 1
-6.231858 62.489380 5.310187 0 0
-2.212111 13.852658 3.939301 0 0
37.346107 80.763809 5.149981 11 1
29.092367 88.655067 -9.865266 16 1
20.317696 92.437973 20.378643 2 1
24.356409 70.832077 -33.893379 16 1
12.196175 24.397572 -0.316702 1 1
-31.886801 87.183556 39.730537 3 1
-69.701523 77.553848 44.539448 12 1
-13.323792 95.614143 30.979874 3 1
-50.080475 84.680359 -1.743615 13 1
-47.215530 88.070953 9.728362 13 1
-33.515514 90.972923 -25.816729 15 1
-21.812191 87.730942 39.873119 3 1
3.231025 94.233192 5.309279 8 1
11.461390 94.194153 -40.440651 14 1
36.261086 82.788857 -15.429885 16 1
15.918591 94.357918 -13.704244 16 1
20.260128 88.669228 -39.522305 14 1
-1.796945 56.002525 1.846187 0 0
20.665972 88.694397 22.321917 2 1
-13.954125 23.930916 13.223205 9 1
23.491411 87.795860 -16.452715 16 1
-29.671911 95.739296 -23.186050 15 1
33.798203 60.089096 72.947411 10 1
-77.448235 70.961884 43.862701 12 1
4.131832 97.345062 7.736700 8 1
-61.887325 84.749771 47.466251 12 1
-22.796848 18.074974 8.615234 9 1
32.132774 56.930428 37.519695 5 1
26.420942 82.357376 32.682503 2 1
-18.177700 86.246811 45.706970 3 1
-73.637291 80.725540 35.068264 12 1
-0.954770 5.271263 2.205368 0 0
23.292345 66.823914 43.856480 5 1
-21.816113 93.569824 31.420359 3 1
-14.305909 75.538918 10.941249 0 0
19.848484 23.046263 12.826482 1 1
20.771196 69.895187 45.617382 5 1
-21.190113 95.336197 -34.372723 15 1
-55.980312 86.395256 31.076466 12 1
22.165047 93.453087 7.265037 2 1
18.912817 23.191267 15.392666 1 1
-68.793083 83.659767 31.120153 12 1
-53.143440 83.221718 1.579994 13 1
-17.012857 23.975861 -0.188873 9 1
-5.360997 51.083294 0.659259 0 0
-63.723881 84.185059 37.866478 12 1
45.021542 75.542946 14.575787 11 1
-20.442116 90.932137 38.648621 3 1
33.263863 59.634068 30.745789 5 1
-6.808434 99.777229 -39.179874 14 1
-55.724174 81.088989 -0.847060 13 1
23.765263 73.240425 -32.242638 16 1
-7.763912 63.593552 59.279831 4 1
23.956303 91.653671 -7.280775 16 1
-27.748152 17.124266 3.348859 9 1
-0.418269 93.196617 1.563996 6 1
-33.454056 98.201515 17.736769 0 0
-44.374958 90.563522 -3.334310 13 1
48.498253 75.144463 1.619901 11 1
-0.949509 93.158577 -45.971111 14 1
30.918888 19.071093 9.782844 1 1
30.150370 20.176270 11.898475 1 1
-9.469635 81.573181 48.451885 3 1
26.580130 66.322166 66.685440 10 1
24.054886 80.822510 -25.554295 16 1
-41.361412 92.647232 -3.040028 13 1
-31.023233 102.365090 4.191363 13 1
47.506645 73.523491 16.075949 11 1
35.639709 73.815697 -24.818964 16 1
-67.360130 79.679802 48.118988 12 1
-27.970242 82.161438 48.933525 3 1
24.688477 82.149010 35.122910 2 1
-39.512032 93.387985 -13.683893 13 1
24.812204 71.036346 38.783726 5 1
-25.040051 16.328386 -4.611218 9 1
-15.896893 91.488281 34.140820 3 1
28.703119 69.011414 56.315258 10 1
-49.587833 82.460396 -13.911399 13 1
27.576731 89.086143 -6.204640 16 1
5.049996 94.562164 -43.189182 14 1
-74.094200 73.756798 44.314438 12 1
-77.247566 77.689919 34.511204 12 1
5.931338 78.810966 3.120971 0 0
-21.992193 93.583717 -39.674324 15 1
-3.690250 75.258263 1.141767 0 0
4.086734 98.012840 5.402770 8 1
34.809071 76.194763 25.836828 2 1
-7.850375 76.654892 -23.310371 0 0
29.579313 85.604584 23.115479 2 1
-30.385132 76.977531 52.666508 3 1
-30.048864 94.446579 -19.468582 15 1
-53.233387 75.561058 -20.109457 13 1
-13.122264 88.786690 37.495380 3 1
15.786633 86.365105 3.458162 0 0
-30.966700 93.946640 30.810976 3 1
-49.314980 80.720589 -23.341816 13 1
-48.906574 93.364769 22.859867 12 1
-85.044762 66.302963 42.019356 12 1
-48.294331 82.707306 -16.383404 13 1
-43.344681 96.762291 25.726677 12 1
-12.614613 73.209457 9.944756 0 0
-57.130409 72.446304 -17.914782 13 1
-30.718010 99.939644 8.606091 13 1
22.165443 69.511528 71.955864 10 1
-10.983432 72.117905 8.190898 0 0
38.184723 87.053558 -3.312070 11 1
-1.465019 94.405220 6.106146 8 1
41.025288 88.211449 -4.984468 11 1
33.649097 54.826664 40.598972 5 1
-14.936788 25.861326 7.462686 9 1
18.707836 96.444450 -6.337094 16 1
46.397694 67.572212 -2.250224 11 1
38.503693 85.149780 9.909321 11 1
-54.140919 85.630249 9.517142 13 1
29.665546 57.348232 46.389694 5 1
-21.785265 96.731712 -29.708456 15 1
-34.609619 97.465157 -10.398343 13 1
-11.833856 66.896385 57.940353 3 1
28.421484 65.011459 36.280399 5 1
-82.453865 69.460838 36.946716 12 1
30.344419 64.404655 76.590347 10 1
-32.774109 87.696953 -33.426315 15 1
33.844872 78.972984 -21.379206 16 1
-32.267395 92.907669 -24.696871 15 1
-4.393786 61.961605 0.675989 0 0
-4.063931 36.774990 3.290612 0 0
1.257502 49.673557 15.460268 0 0
-44.283142 90.882866 0.188232 13 1
-73.176514 77.248863 46.701557 12 1
37.411823 66.775604 59.745296 10 1
21.541094 70.979126 50.102718 10 1
-18.116915 97.238655 -34.113583 15 1
-75.643661 73.395248 34.920990 12 1
-6.272177 54.905201 3.146365 0 0
38.430840 72.525612 29.985004 2 1
34.397171 88.533714 5.954642 11 1
-1.316031 91.064461 0.148141 6 1
30.558802 93.599960 2.682078 11 1
-65.307686 84.437782 33.400730 12 1
19.257906 68.416054 47.586956 4 1
-18.184595 93.232323 34.693069 3 1
-51.787651 81.916847 -16.982903 13 1
-25.883055 96.410553 27.308372 3 1
37.032852 87.153320 9.015306 11 1
-39.643459 92.120667 -0.019170 13 1
48.520000 76.702324 11.022599 11 1
31.185991 60.778290 34.449970 5 1
-25.886892 80.633408 47.936317 3 1
26.762924 62.657299 41.747505 5 1
50.121613 64.574783 5.880260 11 1
35.719879 51.060402 40.369091 5 1
-63.265308 84.235664 51.170296 12 1
27.774178 61.212559 46.130108 5 1
-1.009665 33.739529 0.063977 0 0
-5.187626 58.041435 0.982299 0 0
-23.195936 96.357040 -33.936306 15 1
-0.759646 0.140194 2.491290 0 0
12.410924 95.218430 -37.274967 14 1
-16.003792 78.556496 11.631222 0 0
9.308258 64.606018 55.448639 4 1
26.418276 88.640724 17.393696 2 1
24.826176 24.148823 12.780735 1 1
-4.067077 65.640900 0.923698 0 0
-19.000896 79.061409 47.145622 3 1
50.385658 68.407150 0.873894 11 1
-17.868658 21.178404 2.935815 9 1
-29.992029 17.261860 4.577502 9 1
26.722263 68.064911 37.204010 5 1
-57.032024 76.111435 -11.181121 13 1
-36.940353 97.362411 -1.082199 13 1
-46.281288 89.355255 -3.257959 13 1
19.904980 91.285995 16.126980 2 1
-32.562977 91.665886 -21.218287 15 1
-51.876694 88.732437 8.678388 13 1
-59.015755 79.690758 -6.129237 13 1
36.491875 91.198700 6.014686 11 1
-30.998514 93.719658 27.293341 3 1
-28.663172 91.837181 -31.226675 15 1
29.399776 58.332378 42.367481 5 1
8.525950 94.473434 -37.632050 14 1
0.270474 59.308056 60.674381 4 1
-63.510559 82.130852 39.095512 12 1
-50.910870 85.456070 -10.442325 13 1
-16.322643 23.980154 -5.946887 9 1
-32.816788 81.372459 47.922737 3 1
10.068728 63.738037 52.942844 4 1
-3.094293 93.126060 0.843037 6 1
24.742331 94.352310 4.164143 0 0
-72.883041 81.579399 24.780813 12 1
-32.763126 96.182343 16.488214 13 1
-4.948975 86.112930 38.794361 3 1
-54.930496 91.249817 24.658443 12 1
-4.996104 50.032139 -5.110608 0 0
-50.308479 76.687729 -22.677599 13 1
3.027421 93.914841 -41.903183 14 1
-25.486109 91.003456 15.574083 0 0
-35.190250 92.359932 34.919201 3 1
33.764416 89.891930 -3.248019 16 1
-13.794124 24.263523 -3.253415 9 1
-24.484541 95.203995 -35.189316 15 1
-77.366501 72.847862 44.915249 12 1
-27.392391 94.577942 -32.210735 15 1
18.226063 66.923248 51.502575 4 1
-2.435177 45.474106 4.201269 0 0
39.538780 76.684563 4.909003 11 1
-66.986046 83.205208 37.584778 12 1
-10.124335 78.727737 45.223164 3 1
-54.319466 88.262489 26.409571 12 1
-18.410633 100.204350 -24.460115 15 1
31.691994 60.138214 39.626522 5 1
-15.690024 97.042801 27.880594 3 1
-22.997215 18.561676 11.461873 9 1
-84.130875 69.430412 39.975922 12 1
-68.066635 78.731476 39.966393 12 1
-19.305666 21.197529 -3.519906 9 1
26.710335 89.138504 -13.560089 16 1
36.726315 48.950260 33.613316 5 1
-50.585770 95.454811 36.325878 12 1
-32.958149 90.591202 37.122166 3 1
-23.635939 87.729164 15.733194 0 0
-65.470970 82.943703 46.489250 12 1
-3.590123 82.852867 2.518446 0 0
27.590805 80.049377 30.338196 2 1
29.786215 64.607933 33.395508 5 1
25.630726 92.535950 9.327347 2 1
31.687292 52.283573 45.874466 5 1
-62.977600 81.528366 34.196815 12 1
5.501739 54.387337 23.094481 0 0
-66.020065 82.888855 41.122482 12 1
19.924957 77.200592 -31.277939 16 1
13.613456 93.355087 -36.987568 14 1
16.260544 25.325716 8.677265 1 1
49.027931 62.035118 6.908166 11 1
18.394194 82.384171 -28.546646 16 1
-51.439270 79.546082 -16.486858 13 1
-66.003624 79.638046 36.661900 12 1
45.026222 77.585968 -8.604491 11 1
-42.271568 90.531059 -11.828941 13 1
-32.100521 17.024012 2.088066 9 1
0.311517 62.373867 56.749664 4 1
33.068665 83.219017 -13.039063 16 1
-64.185455 82.931267 49.581970 12 1
11.740469 83.456841 2.348763 0 0
-32.674622 98.365959 -4.760015 13 1
20.098272 71.400841 53.842907 10 1
-51.390121 92.964264 39.502663 12 1
49.955341 65.855766 7.649251 11 1
-23.167305 97.928841 26.341021 3 1
-3.831546 95.876854 0.225415 6 1
33.799469 72.192520 -28.365524 16 1
-22.089828 19.572168 2.331613 9 1
-23.053576 88.145226 42.438484 3 1
-71.806732 82.756264 27.845095 12 1
-6.573805 60.975346 61.786106 4 1
27.279974 65.537270 42.679222 5 1
19.310797 86.278534 -24.340162 16 1
-49.106186 86.406326 -11.307766 13 1
40.532814 85.742325 -2.189781 11 1
-7.694516 65.478539 6.055059 0 0
-42.109550 90.446640 -6.390161 13 1
2.102913 73.274254 2.450160 0 0
15.548742 25.520119 6.553945 1 1
36.920139 82.639557 18.156595 2 1
-39.730461 94.609657 16.158770 13 1
-81.263718 68.243050 41.610706 12 1
-52.946903 91.994827 22.047873 12 1
-19.782663 94.044601 31.088341 3 1
-22.086115 21.060925 8.171785 9 1
31.717684 63.332314 66.760651 10 1
-57.326054 81.975815 4.144712 13 1
-7.628173 73.011383 -21.549154 0 0
0.672418 91.666847 6.796890 7 1
26.715933 87.968391 -15.942447 16 1
16.691769 25.137758 15.011135 1 1
40.063759 72.633629 3.056383 11 1
-7.343603 90.724548 34.305161 3 1
-16.854074 64.830948 59.138901 3 1
16.351559 67.157982 48.568562 4 1
33.115707 76.334885 -23.735840 16 1
27.558428 90.754227 -0.836595 16 1
-5.148434 89.423233 37.256210 3 1
-21.905777 21.608080 14.594707 9 1
25.607836 93.828072 -0.606882 16 1
-32.762096 83.849823 47.363953 3 1
-15.527884 86.583809 40.242493 3 1
-46.776302 80.978645 -20.348087 13 1
32.910103 88.409103 11.074584 2 1
-71.632660 75.501595 47.866093 12 1
-56.738388 87.073875 35.571690 12 1
-0.814021 17.513342 3.490597 0 0
-2.541758 68.730759 4.185183 0 0
-33.163425 94.414986 18.785803 13 1
-29.499395 81.893890 46.532436 3 1
15.016105 89.847076 -43.561302 14 1
28.974775 92.304832 8.673973 2 1
-45.984814 89.889114 0.960444 13 1
36.151566 77.812706 22.380064 2 1
-44.991936 92.397095 11.966730 13 1
-59.902569 85.040581 28.445276 12 1
12.479777 24.947870 3.642342 1 1
-35.428963 87.045387 41.643085 3 1
-24.382624 17.337263 10.261332 9 1
1.182021 95.733772 -43.128235 14 1
-16.228291 90.333992 39.114265 3 1
24.570414 83.500824 33.513988 2 1
-54.961117 78.484833 -16.750565 13 1
33.351131 81.520882 18.487375 2 1
-20.501719 87.995705 43.186691 3 1
-37.496647 93.483315 8.003303 13 1
46.352951 70.148445 10.363729 11 1
-10.422759 66.698395 54.614563 3 1
44.481106 83.435532 -5.991972 11 1
-4.623829 39.387062 1.147862 0 0
-7.209622 63.658520 -15.970858 0 0
-61.207279 85.692955 34.271942 12 1
-7.128938 80.696716 -27.349110 0 0
9.463071 72.571434 46.776535 4 1
-38.324757 95.802895 12.829803 13 1
36.336563 85.212891 6.322402 11 1
-45.463200 94.213203 28.478683 12 1
-22.554193 97.279587 -26.559328 15 1
12.959075 91.206665 -42.952213 14 1
-22.406012 85.653481 45.839180 3 1
-4.858469 45.994488 7.441818 0 0
-3.678503 49.966988 -7.453188 0 0
-13.931465 85.460350 46.455193 3 1
-1.181025 74.744774 3.531660 0 0
33.338619 62.060116 67.368401 10 1
-77.251236 73.917725 43.036392 12 1
-76.535461 75.182777 32.355892 12 1
-82.420456 67.316818 43.179535 12 1
-7.803205 86.086525 39.187775 3 1
34.251823 53.447308 36.150814 5 1
14.966385 82.468063 -29.761372 16 1
-69.453636 82.860298 34.840904 12 1
-35.288673 95.147919 11.173215 13 1
-12.343673 59.771458 58.582794 3 1
-14.890258 90.094398 35.996849 3 1
-58.987560 90.646317 46.628700 12 1
-51.885460 86.141800 -1.238775 13 1
17.947136 81.934441 -50.352623 14 1
-39.525909 94.088585 -4.206507 13 1
-46.366783 97.051407 30.847084 12 1
34.595005 91.932007 6.717247 11 1
36.698711 75.286057 25.837156 2 1
-2.151251 86.744446 5.825778 8 1
-31.763601 14.826853 8.620119 9 1
-7.980068 80.962021 43.444160 3 1
-31.040075 100.763400 -7.800421 13 1
31.983641 64.320862 64.265625 10 1
-65.296112 85.535439 27.045343 12 1
11.044166 25.313370 2.036895 1 1
30.656549 91.390167 9.748712 2 1
10.468459 58.444622 28.043589 0 0
25.083994 69.573662 51.483841 10 1
-13.209348 76.008827 46.820957 3 1
-15.714870 80.131386 51.573814 3 1
27.557343 16.827074 3.004170 1 1
30.230497 85.782623 13.113830 2 1
-26.803297 16.050964 5.432381 9 1
6.330065 88.933945 -47.564907 14 1
-80.874771 76.251762 25.080242 12 1
39.528412 83.736038 -3.341426 11 1
7.009219 65.876472 50.228535 4 1
-7.089354 74.012794 49.529781 3 1
35.314587 56.787834 32.928452 5 1
2.955285 65.146729 56.563831 4 1
-14.048573 72.897575 49.722572 3 1
13.666570 88.765648 -23.984587 16 1
-48.305149 86.632965 3.820714 13 1
30.493944 85.508568 -10.630689 16 1
28.494257 64.905861 68.078789 10 1
-18.233402 71.627235 56.877922 3 1
-55.418537 89.172928 31.326992 12 1
21.966808 69.560707 68.963593 10 1
14.953452 24.401772 -3.815589 1 1
-47.053288 95.245888 33.920620 12 1
36.187344 46.077614 38.613506 5 1
13.095270 85.224091 -48.112335 14 1
-21.706425 99.843758 24.814203 3 1
29.424288 79.223541 33.289684 2 1
6.549305 27.196157 5.169848 1 1
-36.956490 95.535843 15.401673 13 1
31.812204 88.125099 -8.532055 16 1
44.914822 67.264679 1.838915 11 1
-33.082157 15.614816 6.061368 9 1
27.144388 89.960320 -9.953520 16 1
43.535282 83.003609 11.994926 11 1
20.894409 87.182037 -22.375063 16 1
-24.603638 92.503555 -37.373852 15 1
-1.441695 21.311098 3.625453 0 0
21.538511 82.770432 -24.665268 16 1
29.890793 86.237877 -14.557726 16 1
-13.492569 99.788651 -35.575428 15 1
0.547085 22.787560 3.719385 0 0
-3.129177 94.981613 3.229589 6 1
18.829285 23.782234 5.510806 1 1
-54.390663 81.574532 -2.391475 13 1
8.065745 97.592140 -33.246868 14 1
-72.253212 82.244423 31.262367 12 1
-53.108795 81.560013 -6.008068 13 1
-21.537012 20.683119 -4.250385 9 1
33.459541 80.646431 -17.757200 16 1
-35.480480 95.405968 20.347406 0 0
-38.696121 93.502777 -17.234283 13 1
-24.415073 81.565773 49.849369 3 1
-16.090860 97.947197 -34.511326 15 1
-26.119148 95.313393 -26.079889 15 1
-6.327726 78.061943 46.202023 3 1
-32.294327 86.666122 43.674347 3 1
-10.153160 26.538055 3.942721 9 1
-55.991573 88.298836 40.582630 12 1
36.721485 77.128044 -22.503935 16 1
-43.126053 96.234581 16.263548 13 1
-6.346711 83.617432 40.920219 3 1
8.376768 60.111397 59.098156 4 1
32.113560 90.107285 3.874263 11 1
-22.614819 85.877678 42.050922 3 1
-9.356614 92.638687 32.285458 3 1
51.208710 61.913731 -0.372856 11 1
-30.961319 80.251434 50.990379 3 1
27.646467 78.708878 -25.482897 16 1
-4.550358 64.840225 59.266228 4 1
-7.166329 85.477264 -28.871464 0 0
3.867593 52.281528 19.830549 0 0
-14.693624 23.572414 10.857737 9 1
40.231358 87.023415 2.354979 11 1
32.486340 62.115627 77.640335 10 1
18.786091 21.944315 0.395226 1 1
-28.822777 16.882164 7.286363 9 1
26.349470 80.657860 -24.760754 16 1
39.410652 73.683716 28.284323 2 1
40.880394 86.224113 9.561321 11 1
-83.173180 74.753281 27.266397 12 1
23.291105 77.257469 -29.251953 16 1
-28.952766 87.468025 39.819088 3 1
-1.481117 45.048176 7.659674 0 0
-47.392235 87.366341 -10.628078 13 1
25.840515 85.887085 17.218149 2 1
-28.533571 77.755798 51.195324 3 1
-27.947514 84.277687 43.913570 3 1
-13.451690 67.610550 54.196404 3 1
-53.341217 90.429176 30.142948 12 1
-13.227674 97.449226 29.160368 3 1
4.589190 60.306435 60.325115 4 1
-31.234898 90.813385 -34.028435 15 1
-59.608128 76.214607 -6.298495 13 1
-53.630772 94.354767 41.262806 12 1
23.353876 93.326530 10.754984 2 1
21.462681 80.231140 -27.324259 16 1
-29.733187 94.777031 25.737368 3 1
48.819790 64.152817 -1.952781 11 1
45.754330 80.840179 -8.525005 11 1
35.163143 77.747879 -20.370083 16 1
-31.842684 94.792953 20.325029 0 0
-41.018127 91.664795 9.832255 13 1
-2.253890 77.702293 45.980354 3 1
25.914070 90.786476 -3.977046 16 1
-21.183298 99.356209 -29.297794 15 1
-20.548618 96.849335 -31.501978 15 1
-8.819595 67.952713 3.891249 0 0
33.343090 75.761002 28.008686 2 1
38.904690 88.055420 -1.485419 11 1
-5.942239 65.876633 1.740910 0 0
-54.879711 92.259346 21.389633 12 1
-21.867859 91.933746 34.054245 3 1
-59.238552 86.393768 44.753613 12 1
18.705097 66.412758 42.243580 0 0
31.333076 67.722572 59.011261 10 1
24.168798 70.297935 49.182468 10 1
-6.145283 73.947098 1.777508 0 0
-0.949242 69.788971 50.759686 4 1
29.317038 61.002518 38.682873 5 1
-33.112293 101.127150 3.965447 13 1
-29.237093 18.202663 0.558115 9 1
-17.978794 82.390335 49.617336 3 1
25.757660 93.163353 1.430261 16 1
-34.115250 85.954643 45.164433 3 1
28.886395 80.369987 25.825895 2 1
29.866352 68.858391 52.732304 10 1
-2.674640 6.425460 0.489883 0 0
-48.102444 87.876938 -6.486401 13 1
-7.020533 90.603470 -31.033398 0 0
-72.694817 84.913712 18.998409 12 1
-5.146959 76.766678 49.954254 3 1
18.345352 88.298584 -43.281509 14 1
25.495869 61.618263 45.513393 5 1
3.028044 48.966297 17.802383 0 0
-1.682800 51.401619 2.332085 0 0
-35.102020 96.217201 -0.270544 13 1
-70.610947 76.698547 49.354694 12 1
-59.162106 88.211647 48.663910 12 1
47.812473 79.714630 11.204850 11 1
45.096111 81.280846 0.341255 11 1
19.451113 93.276756 17.798737 2 1
28.122858 84.482925 -17.481974 16 1
5.407473 90.605804 4.199872 7 1
11.154714 74.153030 46.811752 4 1
32.173164 65.563431 61.450825 10 1
-30.484674 91.802460 31.035883 3 1
-76.879173 72.171501 38.742134 12 1
-56.674576 84.935127 4.590379 13 1
3.021572 70.607941 49.175739 4 1
48.931725 71.418198 14.288242 11 1
7.655806 56.889122 27.246670 0 0
11.840009 97.924400 -32.268604 14 1
1.486560 93.292328 -44.239700 14 1
-5.280408 81.437607 4.264363 0 0
-0.650189 30.307644 2.792949 0 0
-10.757963 71.066635 51.755978 3 1
34.392342 82.976738 22.308174 2 1
-14.511940 69.809570 57.406860 3 1
24.750082 82.092613 31.023352 2 1
26.344713 25.470510 18.237175 1 1
26.842888 84.051399 29.770018 2 1
-19.774633 21.614464 -0.576334 9 1
-10.342558 74.073082 49.343227 3 1
22.396950 69.120575 61.364002 10 1
-30.807901 88.236809 38.158001 3 1
45.640907 79.710587 13.936239 11 1
-60.559521 90.670685 20.814426 12 1
28.106745 59.175308 43.753513 5 1
-64.157616 80.178368 32.696632 12 1
27.467936 92.797318 5.270185 11 1
35.281677 83.284470 15.762609 2 1
26.435190 84.414101 -20.851244 16 1
7.799973 93.173241 -43.328758 14 1
-57.514271 77.716850 -12.358479 13 1
-59.793594 89.067360 44.700069 12 1
7.600129 61.872768 55.589588 4 1
21.142721 94.717484 5.868885 0 0
