80.632881 98.404152 52.410492 3 1
88.921219 180.384320 -60.449230 9 1
-17.956436 107.942960 -40.752823 22 1
-46.487106 106.634000 -47.818401 20 1
83.126205 179.598500 41.790962 6 1
77.555847 182.807570 -45.987000 9 1
-73.602249 295.200620 76.796623 28 1
54.133835 277.957950 29.033958 4 1
66.859779 163.995590 65.621300 6 1
-52.666634 92.133949 -24.584045 21 1
-32.347263 9.903547 26.878252 26 1
81.759315 292.619170 -0.101179 5 1
79.735443 283.431270 -6.288888 5 1
41.619511 265.118840 -53.659351 10 1
-41.920078 312.125270 -48.192383 7 1
-95.834946 266.787230 9.651491 15 1
-41.561722 285.896270 70.241684 16 1
-20.807619 192.129240 83.930893 17 1
-96.369705 266.826970 100.264990 28 1
-118.950090 204.585020 47.045837 29 1
82.695648 230.696660 -70.759186 10 1
8.881743 20.608997 -5.483524 23 1
98.566254 202.457760 -12.688285 8 1
-8.285517 285.185330 13.911312 0 0
-15.089237 62.500240 -15.064141 0 0
26.616583 104.187680 65.906677 2 1
-27.659655 270.526000 84.939255 16 1
9.090568 320.497250 -56.750561 7 1
70.734360 150.194000 72.502266 6 1
23.486906 11.030829 14.606894 23 1
53.078892 241.517910 -62.215439 10 1
-147.159240 107.131130 70.234512 27 1
33.730770 271.861050 50.123257 4 1
65.790894 194.121410 -26.782970 9 1
91.092224 182.300830 35.025311 6 1
59.319630 181.358840 -52.131931 9 1
-26.000769 75.039299 -21.148849 0 0
-88.015038 273.852750 110.265520 28 1
-37.393620 230.129900 38.423218 17 1
41.088367 273.804290 63.576538 4 1
-39.519310 118.373430 90.217781 30 1
-73.941620 216.342320 34.623245 14 1
-89.188751 277.829650 21.171133 15 1
88.872147 274.514160 -17.945248 5 1
-143.132460 176.040070 66.723396 29 1
-66.258041 216.070160 -7.922645 14 1
72.281151 167.296920 -71.649635 9 1
132.806720 201.374280 -2.627960 8 1
-4.172708 314.420930 50.360706 19 1
-27.841707 292.239720 61.951820 16 1
-28.737871 298.847200 50.723438 16 1
-82.620514 125.622960 -1.513872 13 1
-125.963390 198.801760 62.763939 29 1
71.406029 103.163280 97.281662 31 1
63.730942 288.935210 21.152597 4 1
63.455788 93.534424 109.041590 31 1
-90.440796 224.433200 41.563107 29 1
-32.836037 259.535920 31.401814 0 0
0.619424 315.131500 -53.758629 7 1
14.714532 299.407260 -33.426537 0 0
-17.293226 294.510500 18.934885 0 0
65.224297 243.786580 -56.791912 10 1
-73.680229 285.849700 42.143379 15 1
-9.553979 208.789950 64.924957 17 1
65.698792 260.486390 59.269032 4 1
-9.244808 248.847490 103.348430 16 1
-31.264221 8.417332 12.655299 26 1
72.356934 96.184448 105.586550 31 1
86.086998 97.398422 45.114563 3 1
95.774681 172.831730 49.893974 6 1
89.032303 187.982210 25.298172 6 1
-70.202995 137.609760 60.267094 30 1
-78.872368 221.628050 40.400112 14 1
-76.674683 278.674590 98.938210 28 1
-85.022675 270.605830 8.657686 15 1
-64.562874 218.506090 34.568645 17 1
80.359192 245.948760 -50.642860 10 1
41.391876 282.333190 6.518977 4 1
-69.641174 140.069050 45.486660 30 1
-31.122431 105.530860 -48.992073 22 1
-100.157150 286.665800 89.911797 28 1
-116.527980 216.802400 36.680622 29 1
-90.656235 216.659910 32.542618 14 1
85.218079 294.322390 11.046007 5 1
42.132870 274.448030 -31.617004 10 1
73.627243 192.318770 17.094971 6 1
-44.555363 97.499222 -40.601414 21 1
35.267010 23.968290 -21.180172 23 1
134.359190 240.752210 3.448024 5 1
-84.330376 296.113590 77.749252 28 1
103.866130 272.195250 -3.910708 5 1
-40.938816 207.686970 68.202660 17 1
-81.866783 138.890110 47.242596 30 1
101.021610 268.185580 -15.457029 5 1
38.196575 109.489760 63.883850 2 1
86.211128 164.349490 -67.636360 9 1
-156.339770 97.184128 65.550468 27 1
16.103138 307.675900 -49.566643 10 1
-107.297970 135.472180 61.406460 27 1
-76.781815 219.624150 22.741100 14 1
-21.369562 267.898650 92.810524 16 1
-107.375250 216.874020 43.360828 29 1
-107.249580 136.135790 50.819611 27 1
-36.766052 316.013210 -42.003338 7 1
-100.098080 189.122860 -26.560152 14 1
-108.545930 178.726640 -32.408649 14 1
69.214264 270.961150 -40.812748 10 1
68.031357 278.842250 -20.479614 10 1
-103.567860 202.814870 8.056242 14 1
-21.944998 183.259840 89.227158 17 1
93.578697 284.489010 -12.206769 5 1
-33.641861 212.931260 53.593956 17 1
-36.043789 182.354050 83.801941 17 1
92.206398 172.008650 -59.683468 9 1
10.629579 121.829300 3.504196 0 0
-14.668928 270.780490 75.331268 16 1
-53.891827 140.169240 61.469955 30 1
26.935734 291.406830 -81.417221 11 1
54.434937 109.865750 77.110413 31 1
-112.282570 261.887240 107.705700 28 1
57.484745 267.331180 -51.471378 10 1
76.189674 260.696500 -39.513622 10 1
-146.462390 110.597450 52.733131 27 1
-66.577026 120.025180 82.473709 30 1
-116.508030 243.747150 15.910668 15 1
58.665066 106.521250 66.293800 3 1
87.535576 192.154130 -39.667404 9 1
-61.415287 80.333298 -22.066746 21 1
67.249939 274.925350 -32.605087 10 1
60.585663 187.445890 -44.482002 9 1
-137.700650 124.105750 34.306763 27 1
-0.589029 125.824100 2.250340 0 0
135.164180 189.791820 -15.792473 8 1
-35.099995 287.075200 77.170334 16 1
-76.421486 137.623050 31.275011 13 1
-26.704287 116.030470 -23.557467 24 1
-62.895115 287.127990 19.184025 15 1
-82.686211 280.586210 82.273788 28 1
90.422432 268.915130 -7.714506 5 1
58.534920 243.186040 92.619354 4 1
56.743774 274.879640 42.139824 4 1
-43.921234 191.845490 74.234222 17 1
-51.212990 228.995990 34.009186 17 1
-60.873295 102.819190 100.080320 30 1
44.648903 281.637450 -17.814781 10 1
-83.418839 203.635790 -17.705597 14 1
12.184121 280.521510 -111.247940 11 1
-75.472984 130.856450 -10.768757 13 1
111.304130 193.754270 -18.842693 8 1
28.670345 294.065280 -41.113468 10 1
101.326070 193.941270 -13.064149 8 1
-33.319649 108.855550 -6.859834 12 1
73.237175 295.330690 9.258571 5 1
-2.481631 18.602705 -1.255572 0 0
-54.495106 82.190201 -35.993233 21 1
52.589531 276.302550 20.358545 4 1
62.099434 269.250490 57.636276 4 1
-109.518420 215.846360 57.975410 29 1
-90.058464 293.064670 83.806389 28 1
7.686676 90.134895 80.810768 2 1
23.755316 308.600310 -62.234303 11 1
-19.995699 107.482150 2.513212 0 0
-43.811970 109.341400 -2.928164 12 1
-13.624136 122.630320 -13.582797 25 1
-62.956017 134.110490 72.697960 30 1
21.936571 76.516281 30.504827 0 0
1.331668 135.432390 10.066416 0 0
50.100365 263.913480 51.448479 4 1
80.432274 234.967320 -59.906696 10 1
73.499481 177.621280 -52.336864 9 1
-109.756420 251.375720 24.421432 15 1
-62.467705 111.646510 95.622803 30 1
-98.167702 143.991960 35.252522 27 1
1.733920 -0.883437 -3.151807 0 0
-95.148087 144.801990 52.844807 27 1
-46.965630 136.334150 71.096664 30 1
-91.113976 267.358030 116.230970 28 1
-99.822670 92.713287 -25.261278 13 1
-95.322083 259.744840 122.354840 28 1
12.971872 100.554760 68.312065 2 1
-87.649513 266.815950 24.440096 15 1
-1.518267 108.519000 3.899574 0 0
31.023130 304.268680 -45.987503 10 1
-29.133480 212.884780 64.264671 17 1
44.110863 246.491850 95.585503 4 1
-92.769058 90.699722 -37.639198 13 1
-19.756536 234.285030 31.541132 0 0
99.962898 210.803570 12.236952 8 1
55.818783 259.066500 -39.421822 10 1
74.364883 185.027220 33.990063 6 1
102.827020 257.608340 -8.753094 5 1
72.589241 158.556320 -78.206306 9 1
3.410380 54.099419 8.437466 0 0
-84.296967 271.235810 102.984640 28 1
-76.138977 276.147490 29.610298 15 1
-48.672108 128.512310 81.630981 30 1
-119.300430 128.511250 58.217319 27 1
-97.437950 267.699190 18.025852 15 1
39.241283 11.342718 3.341612 23 1
87.020630 217.590670 -76.854958 10 1
-48.944901 219.733700 44.288200 17 1
116.614560 257.973690 -4.443083 5 1
75.941879 230.158100 -76.259346 10 1
-122.531820 124.042850 75.180672 27 1
-140.044190 180.451220 86.550499 29 1
34.443233 280.630190 -38.018391 10 1
81.798645 192.518480 -11.289001 9 1
-114.600200 203.857730 71.225830 29 1
-147.338760 114.331260 44.317543 27 1
-65.264320 293.473110 31.821638 15 1
58.003971 251.301960 -70.236374 10 1
-32.860313 88.028099 -28.136524 0 0
60.551308 176.256000 51.358765 6 1
45.661606 258.983760 -60.061604 10 1
-117.629210 201.184600 63.295387 29 1
-11.184184 315.480680 36.410164 19 1
-99.501648 257.657960 2.951274 15 1
-0.411072 252.400240 89.113701 16 1
-161.774950 149.581700 98.252548 29 1
55.810680 274.421690 -33.329285 10 1
-93.343513 214.219250 23.167141 14 1
70.839447 286.557340 4.757335 5 1
-107.416110 253.876660 115.443400 28 1
-55.238487 84.333855 -27.242374 21 1
72.576149 273.643340 46.583214 4 1
-106.905670 211.114990 72.100548 29 1
3.063681 163.292570 4.869353 0 0
-69.348152 289.306090 70.468658 28 1
25.813547 25.125372 -21.997774 23 1
-42.443703 104.422150 -35.713612 0 0
-14.436831 93.614510 10.395823 0 0
86.225037 201.183200 -11.685871 9 1
16.111729 323.448940 42.752506 1 1
-43.626091 276.980100 41.470364 0 0
-144.378100 171.937790 86.638039 29 1
-20.090614 219.571820 57.046917 17 1
77.714119 241.429630 -64.729790 10 1
30.457590 278.450440 38.079372 4 1
78.703186 171.120270 -67.429901 9 1
-103.248740 248.639600 126.628860 28 1
1.978792 270.799960 -12.084739 0 0
-79.350983 277.060910 7.125292 15 1
-85.357513 141.818600 37.643959 27 1
-109.868110 184.207920 -16.162407 14 1
-120.913020 177.799120 -7.552037 14 1
-80.181114 284.445340 15.412228 15 1
159.431810 179.135740 -30.651649 8 1
-92.175804 279.892940 29.471352 15 1
40.214157 270.579900 -38.826591 10 1
2.807660 267.817170 21.297421 0 0
-3.703807 48.463551 4.844834 0 0
52.306416 271.866210 34.513546 4 1
-67.584290 139.230710 -6.267982 13 1
-27.199476 279.194310 67.122368 16 1
69.302696 253.965160 -59.306110 10 1
85.444550 167.842410 55.993179 6 1
14.443158 67.477791 16.498653 0 0
76.664009 194.012080 1.251832 6 1
-32.962902 223.146900 49.689217 17 1
1.684332 69.614761 0.531816 0 0
-105.139600 272.925750 105.171820 28 1
64.289581 243.268220 -66.304924 10 1
-66.786087 146.000200 8.718400 13 1
45.698368 263.874150 74.625290 4 1
-83.584953 132.477190 12.860230 13 1
0.164861 177.167600 88.265022 17 1
57.136288 258.419650 63.325043 4 1
40.928665 259.025630 84.754013 4 1
-124.583490 193.795680 77.519180 29 1
-3.475277 196.394710 18.986322 0 0
127.544780 195.430630 -15.111715 8 1
19.179604 273.709110 -111.848850 11 1
29.171883 18.745001 -8.621759 23 1
-107.606700 210.830890 81.990906 29 1
6.057235 80.065941 3.657487 0 0
150.970780 181.547010 -30.380268 8 1
140.640560 184.710340 -38.073334 8 1
-34.552677 277.241670 88.500824 16 1
32.038898 285.761230 18.762924 4 1
112.054430 269.221470 8.139034 5 1
-140.519210 114.077290 58.598328 27 1
-3.432342 266.010710 83.328560 16 1
6.342554 257.731840 -3.437328 0 0
125.036250 247.257600 2.397224 5 1
-105.852710 264.251070 114.465220 28 1
-47.257420 293.441890 49.434830 16 1
-11.983905 311.998960 -42.252411 7 1
-21.187618 278.764800 79.228012 16 1
47.843910 274.650420 -60.707741 10 1
-130.230420 125.816360 60.109680 27 1
-38.857243 294.529360 59.649216 16 1
-15.081198 317.313600 -32.982822 7 1
62.986038 104.629460 95.525513 31 1
27.365166 101.661060 74.826157 2 1
26.566393 302.769100 -75.873672 11 1
-86.414909 103.344140 -30.712681 13 1
59.467239 187.535480 39.426254 6 1
-99.179596 221.657990 82.328331 29 1
-23.482992 103.330910 15.441966 0 0
-10.932576 257.314480 84.540657 16 1
-6.010069 103.987010 -45.507912 22 1
-103.936450 252.297000 14.899528 15 1
22.150005 297.936070 -84.362808 11 1
-46.376179 99.104172 -68.389809 20 1
2.618800 259.281340 17.676033 0 0
44.156906 289.606080 -63.483727 10 1
6.102183 241.473690 100.577750 16 1
9.867043 311.643340 33.107506 1 1
1.552166 94.582008 8.417010 0 0
-146.522780 171.001390 98.466591 29 1
127.958880 189.154210 -29.547659 8 1
-133.904940 113.049450 72.623917 27 1
-36.657234 190.498840 82.018761 17 1
-116.686580 254.753590 121.173190 28 1
-54.539703 210.323790 56.831078 17 1
67.667526 184.055680 39.468811 6 1
-97.733398 205.521130 13.480100 14 1
-152.215040 104.208320 63.774647 27 1
46.675388 280.173340 -9.128229 10 1
-89.284515 226.401280 70.174301 29 1
-11.683325 10.464361 17.176830 26 1
89.932205 180.898390 -52.234924 9 1
8.723819 131.796540 0.556016 0 0
-137.840120 120.082730 43.680275 27 1
71.881500 104.733540 57.343338 3 1
-7.664808 309.951570 28.621138 19 1
-15.695462 177.090850 87.430687 17 1
-121.314460 197.066330 88.837059 29 1
9.398732 25.415613 -20.172457 23 1
-126.471930 201.458980 47.326607 29 1
47.741859 255.704100 73.223816 4 1
43.849930 13.256682 -13.168177 23 1
84.795975 199.190670 2.969262 8 1
63.261860 237.636150 -77.515831 10 1
58.839176 257.334720 -63.070980 10 1
-91.767265 273.465480 14.652068 15 1
-129.965990 187.766200 80.927010 29 1
-63.683060 285.709900 28.974731 15 1
17.415976 304.163150 -79.563583 11 1
-114.920590 133.909190 63.737976 27 1
-61.618526 70.904999 -28.931936 21 1
-119.061510 130.892070 50.016968 27 1
-119.769750 172.686390 -21.862947 14 1
-15.154324 149.387770 14.189674 0 0
128.840840 234.624970 -4.004812 5 1
-24.953743 201.230410 70.197739 17 1
39.187729 274.912660 55.278038 4 1
-77.273727 292.166080 67.966522 28 1
44.589569 111.391500 57.375156 3 1
-51.048973 312.492830 -45.661922 7 1
-19.380335 101.252600 -56.459679 22 1
41.571716 260.165860 63.392799 4 1
-59.944103 88.896034 -70.016899 20 1
-10.682264 106.975850 -36.877209 22 1
39.312206 283.432070 -32.163589 10 1
50.711624 250.862750 82.072777 4 1
2.154893 282.302430 19.074808 0 0
-136.358260 183.948870 59.922417 29 1
79.591522 275.813290 -3.361690 5 1
-23.398298 310.605770 32.386261 18 1
120.251090 265.202270 10.657082 5 1
84.387291 282.514100 -14.180881 5 1
-120.840770 138.195070 27.864668 27 1
-79.063400 208.969790 -2.629975 14 1
103.878400 260.570860 -16.548885 5 1
-93.895370 268.486820 31.799976 15 1
-53.318802 291.865360 34.273243 15 1
-136.238310 180.173260 96.445045 29 1
-80.123894 273.476440 14.328590 15 1
-116.884290 166.233050 -30.316408 14 1
39.394905 285.812650 -43.522156 10 1
-7.792566 139.137500 9.913403 0 0
-102.738430 264.846920 24.755318 15 1
-88.043922 287.057530 34.091595 15 1
62.656734 279.842440 30.093220 4 1
22.204094 22.822111 -15.041188 23 1
65.730118 196.873720 -11.190896 9 1
149.107590 196.181500 -0.818454 8 1
-14.039677 316.712280 -50.019928 7 1
43.408455 272.709440 35.772831 4 1
-126.904230 130.799180 46.562656 27 1
-13.427143 284.801820 62.828369 16 1
104.312790 287.875580 12.601342 5 1
-26.362070 248.493000 28.790672 0 0
-15.165041 95.892036 0.206978 0 0
108.599730 196.387830 -8.687626 8 1
58.862606 265.570590 48.408970 4 1
94.352463 292.999970 13.788165 5 1
-37.220436 198.042510 70.008728 17 1
-4.940549 146.673340 19.901894 0 0
-73.227348 129.580140 74.147713 30 1
-139.950470 178.423930 73.595612 29 1
97.940399 275.579860 4.787599 5 1
-2.436864 301.092770 32.795719 19 1
-82.023773 137.986430 55.194649 30 1
-3.935864 57.832378 4.620314 0 0
-114.278120 136.852310 46.734127 27 1
24.434248 303.299380 -50.674740 10 1
-25.465784 12.013019 17.359692 26 1
63.925262 253.862730 70.313751 4 1
-70.735222 293.237760 83.907082 28 1
-117.563930 182.703090 -2.316401 14 1
64.641655 275.183140 41.435802 4 1
99.418541 198.173630 -19.951729 8 1
-57.320641 208.277980 66.249580 17 1
-7.753458 323.341000 58.829308 19 1
-3.415455 180.740630 7.285082 0 0
100.077380 263.092860 -3.776778 5 1
-3.183550 310.388670 43.527378 19 1
-38.836964 223.872130 43.016098 17 1
77.178772 177.018830 46.890217 6 1
64.043396 175.544740 -64.146912 9 1
110.916420 247.058500 -9.143627 5 1
-27.752514 194.333660 80.607712 17 1
-33.208668 108.910860 -40.811146 22 1
-84.021446 283.444000 42.524029 15 1
-18.849806 266.510280 80.475121 16 1
-70.319420 217.611050 50.207977 17 1
88.500168 237.143280 -57.766052 10 1
-102.698940 183.981720 -31.900240 14 1
63.811321 249.021270 79.363747 4 1
11.179441 314.174190 -41.144043 7 1
-42.737782 207.634840 60.412285 17 1
41.223766 264.091950 -44.533897 10 1
-7.447593 50.737999 -7.741816 0 0
45.882240 279.763430 22.695824 4 1
-69.491821 144.131090 37.377941 30 1
-101.940310 138.375230 66.609520 27 1
-25.740236 107.449340 -8.232220 12 1
58.770500 234.532810 106.049800 4 1
5.681131 262.127440 83.808182 16 1
-52.331627 102.626850 102.257300 30 1
-111.448050 197.367610 14.978559 14 1
28.264864 278.956790 -95.427681 11 1
65.402664 251.135100 -46.071537 10 1
-98.239082 261.374300 107.509090 28 1
-58.526413 100.891720 -53.265854 20 1
1.935030 228.312610 19.608561 0 0
111.726310 264.807530 -2.726942 5 1
-73.386909 141.857770 21.035931 13 1
-93.593597 263.188420 3.125617 15 1
-91.605881 225.218120 56.898418 29 1
-48.029194 196.364790 24.956894 0 0
55.622875 280.887050 14.769107 4 1
35.986282 281.450230 -53.880032 10 1
-75.896294 293.146090 39.902767 15 1
-95.228882 285.446900 82.350052 28 1
62.872936 192.309950 27.300396 6 1
-28.728933 276.128750 76.993416 16 1
67.512680 177.478240 44.225746 6 1
91.756310 92.210762 46.107044 3 1
-14.751948 196.465180 75.335510 17 1
112.671770 277.459110 9.153479 5 1
46.571434 268.943940 66.403427 4 1
0.683722 250.767850 96.597679 16 1
-112.576930 243.941440 127.253430 28 1
1.058673 61.726379 0.180489 0 0
-29.479958 181.075970 88.973618 17 1
158.614580 190.874940 -5.995937 8 1
-76.178040 205.803960 -15.743340 14 1
-78.666611 287.860960 28.043619 15 1
50.028130 247.342210 -50.553745 10 1
38.193802 103.169640 56.323605 0 0
31.032137 270.280460 67.085152 4 1
18.395239 285.614260 -102.485490 11 1
-131.136800 127.976620 33.090046 27 1
-83.584732 289.970120 72.876266 28 1
123.530020 248.685210 -5.287938 5 1
-13.088692 267.519590 86.895935 16 1
-92.191177 145.451810 60.241371 27 1
-155.690430 161.924620 90.793312 29 1
-38.913261 110.749820 -46.432735 20 1
92.612442 168.684220 -68.216850 9 1
76.495735 171.640000 54.289085 6 1
2.749136 168.213670 10.819484 0 0
-134.532320 119.167080 55.310368 27 1
-8.522518 188.497220 84.395546 17 1
49.402527 279.329190 7.978698 4 1
-46.723782 107.296650 99.452148 30 1
-4.126377 38.020897 -0.351197 0 0
-70.625839 219.229860 18.219587 14 1
-25.610695 291.545720 54.671677 16 1
-40.463173 269.195830 39.589191 0 0
76.016953 137.757930 79.809616 6 1
50.056553 261.016570 58.509987 4 1
-79.872620 140.132030 24.670815 13 1
67.158226 271.870030 52.470005 4 1
13.385883 266.881900 -120.140110 11 1
-35.437740 278.923310 80.236107 16 1
-87.204414 277.137790 4.975106 15 1
-73.782509 283.227840 91.380127 28 1
51.054897 245.474330 98.761536 4 1
-3.483600 290.528560 11.388612 0 0
-13.877390 103.498460 -2.077728 0 0
2.775056 176.113340 7.607560 0 0
-101.285000 222.859040 51.302994 29 1
88.949081 274.451630 -2.140045 5 1
-83.410332 284.952970 97.629509 28 1
6.172442 94.189232 2.323438 0 0
-152.158220 106.834850 56.647663 27 1
8.962066 109.367710 1.613748 0 0
59.724937 288.622130 -8.396932 10 1
-11.425926 100.824330 -52.820004 22 1
-109.387210 208.874070 61.417309 29 1
85.495316 285.179600 7.642756 5 1
-7.950346 319.522060 46.199768 19 1
0.635979 85.293488 1.541608 0 0
-111.180490 216.272920 50.252579 29 1
-87.476295 275.698360 89.527138 28 1
24.569019 274.391720 -106.450320 11 1
113.562960 198.056400 -24.618891 8 1
-120.944870 203.305040 75.874313 29 1
-34.972485 215.891160 60.547150 17 1
-102.503330 225.487720 37.937439 29 1
47.525688 107.326970 79.307449 31 1
65.264549 264.262450 52.181290 4 1
116.026220 257.170470 3.032077 5 1
-60.946301 144.065520 48.841820 30 1
-72.692474 276.504670 19.035187 15 1
-102.583340 220.526860 66.155716 29 1
91.941078 280.865170 6.101112 5 1
-0.877266 304.534790 26.225203 1 1
-105.523370 279.062320 97.800789 28 1
-86.070343 277.438690 37.226471 15 1
30.011024 237.835460 -3.262276 0 0
74.456306 292.644900 1.629752 5 1
90.917274 267.763310 -15.388927 5 1
90.844429 147.697950 67.296898 6 1
38.564770 286.239530 -18.402716 10 1
96.885559 196.675160 -4.825264 8 1
4.391352 246.486680 14.119592 0 0
18.405605 203.918520 -2.431899 0 0
-65.808716 213.933140 57.919647 17 1
-47.972893 289.617070 56.584309 16 1
-58.075443 83.047050 -75.994156 20 1
-127.230670 192.122960 66.620369 29 1
60.708652 160.131480 68.531616 6 1
-8.007842 276.342560 69.839241 16 1
8.533432 116.427180 9.389336 0 0
-85.793297 214.940770 15.202242 14 1
124.571980 190.625840 -20.492348 8 1
94.318619 196.547180 -37.415936 9 1
-48.968349 97.090164 -60.786366 20 1
-79.711952 132.166990 67.753151 30 1
87.290192 162.764020 -74.844872 9 1
34.914680 256.607060 88.431602 4 1
88.624939 194.970780 -4.342594 8 1
51.538048 249.709840 -62.955059 10 1
36.486919 264.652010 76.540916 4 1
14.982760 16.356750 -4.534232 23 1
-3.607461 29.440361 4.979709 0 0
-105.821880 258.508330 109.723360 28 1
-5.323986 236.034060 109.951520 16 1
58.643208 197.338550 20.922176 6 1
-96.623604 108.240780 -9.346640 13 1
45.158039 280.009120 -56.306358 10 1
-122.094600 132.985930 35.073605 27 1
88.174232 174.801210 48.593178 6 1
78.117790 267.519070 -36.596111 10 1
-76.554169 133.756070 59.119068 30 1
57.302895 190.611330 33.025784 6 1
77.629272 152.012770 69.996941 6 1
-3.437344 11.740475 -3.868189 0 0
-64.777122 205.830930 66.212997 17 1
-46.168297 105.682670 -55.245228 20 1
-28.152845 205.559100 64.534958 17 1
48.554157 105.914550 66.562309 3 1
5.450496 65.772308 10.422943 0 0
97.321114 182.179150 39.642918 6 1
-40.244423 292.960020 51.725933 16 1
92.575348 199.365510 -25.948288 9 1
36.795742 267.150570 56.163975 4 1
-133.254430 119.967320 70.131744 27 1
24.682446 284.230620 -90.238770 11 1
-97.382652 98.986427 -22.018988 13 1
49.394794 104.856390 95.333206 31 1
-100.172980 216.386750 58.371185 29 1
55.612244 171.627060 60.996372 6 1
-17.463251 314.128660 29.586277 18 1
126.510120 208.478620 6.298663 8 1
3.822985 250.525620 6.931080 0 0
-51.104294 83.351746 -78.786240 20 1
68.876999 194.075680 11.759939 6 1
-46.907242 105.825420 -30.050331 21 1
51.793407 275.800510 47.486607 4 1
70.642021 274.885070 -26.084448 10 1
74.956444 193.395550 -23.920904 9 1
90.383522 291.030240 -13.587237 5 1
-36.242508 100.558650 -36.354527 0 0
-3.672624 208.233460 16.120491 0 0
76.237625 160.472850 60.826565 6 1
-54.191917 87.873108 -40.671593 21 1
-71.601242 213.100040 -3.402752 14 1
-0.609560 126.627730 10.093023 0 0
80.351746 188.241230 25.757126 6 1
11.961660 302.208370 -93.376053 11 1
73.768227 267.620060 -45.540104 10 1
85.795822 175.769880 -55.462410 9 1
107.724720 246.751770 -18.242180 5 1
-59.403492 129.979140 78.436729 30 1
-3.586581 197.413530 75.933739 17 1
-110.619880 177.670210 -24.063150 14 1
-67.348572 283.701420 14.526824 15 1
-118.513470 204.446690 88.210884 29 1
24.151482 214.056290 -1.003525 0 0
-71.886490 122.363160 -24.004715 13 1
-53.695110 138.002670 68.428589 30 1
63.539043 110.492830 85.493568 31 1
21.825401 291.210450 -93.663422 11 1
-91.388771 198.046250 -20.376137 14 1
160.126040 185.926760 -17.554260 8 1
87.988869 288.379210 1.541056 5 1
-105.377590 205.247850 23.527037 14 1
2.174422 15.212747 3.290032 0 0
-92.691925 261.259520 112.360710 28 1
95.831657 202.554350 5.114111 8 1
-94.417633 116.721450 3.450117 13 1
27.237644 226.885730 -3.167091 0 0
-45.186451 214.434830 51.593536 17 1
65.396652 288.216190 -0.572617 5 1
-52.856403 224.990490 40.249065 17 1
47.737411 270.738740 -27.506905 10 1
-32.746399 166.068150 19.265827 0 0
-68.766922 294.164920 40.792213 15 1
56.994854 276.555270 -26.363739 10 1
-110.181180 268.822660 108.378850 28 1
86.738708 194.193130 -25.345318 9 1
-6.519275 214.975890 21.095461 0 0
-41.029907 290.738490 81.702194 16 1
-19.644159 291.679960 59.720734 16 1
-70.589012 287.440120 77.354065 28 1
78.824631 282.776030 4.096779 5 1
-51.158108 95.291191 -38.623764 21 1
-27.740005 289.187930 68.578232 16 1
59.821285 280.106170 -12.720364 10 1
139.055630 198.519040 -5.354858 8 1
54.664406 251.348980 -56.288895 10 1
-83.969749 266.074650 116.823710 28 1
-91.509399 108.541920 -19.366377 13 1
27.483644 83.251083 40.575569 0 0
-57.245831 75.398514 -36.134739 21 1
-148.674100 168.821180 77.988068 29 1
-114.046350 191.404130 9.284401 14 1
-102.875310 270.217290 98.894218 28 1
14.689171 187.626560 5.354317 0 0
-4.879933 185.325390 12.894466 0 0
31.448544 93.370140 49.997414 0 0
-37.105671 267.080780 33.573570 0 0
70.060699 233.553100 -72.477890 10 1
-98.938965 256.512880 19.472248 15 1
-110.897510 213.949040 66.826828 29 1
-88.571854 144.385450 47.737083 27 1
33.544285 295.945160 -35.964741 10 1
102.940710 204.045730 -22.130924 8 1
87.538239 244.542980 -53.015121 10 1
74.206657 176.820130 -59.882153 9 1
48.819824 238.992540 107.594090 4 1
75.716301 193.881440 -15.159232 9 1
-93.526245 261.017580 16.975481 15 1
126.119050 252.900850 7.134988 5 1
147.730760 190.811580 -13.601854 8 1
48.519279 276.707980 -34.751621 10 1
-54.462460 121.841580 87.810013 30 1
25.625029 300.135890 -43.390316 10 1
-82.739258 274.853270 96.459000 28 1
0.263442 119.260020 -0.579742 0 0
35.366386 276.933010 -44.082447 10 1
-82.243813 113.034100 -28.269522 13 1
147.614550 183.219910 -37.442867 8 1
116.844710 193.670960 -29.432459 8 1
-121.389290 211.379910 37.523777 29 1
123.048710 238.314030 -6.003628 5 1
-159.976240 94.156204 57.470608 27 1
92.773491 202.820630 -8.519584 8 1
69.459373 239.050770 -63.760807 10 1
34.451290 262.628940 69.909859 4 1
-27.100765 157.920440 13.788020 0 0
106.942000 204.577820 0.739038 8 1
-155.391360 157.835880 96.931587 29 1
-70.091026 295.728000 61.113850 28 1
-2.975328 3.036372 3.555722 0 0
21.251568 309.522000 -54.512566 10 1
-133.310590 185.210020 72.535706 29 1
59.910107 268.523100 41.513588 4 1
75.605743 185.235320 2.346267 6 1
65.395683 241.088130 92.184456 4 1
143.012270 189.207020 -24.550705 8 1
-59.059330 292.563050 47.770351 15 1
21.818205 306.567870 -68.801292 11 1
-78.874458 289.575410 45.292450 15 1
64.467834 267.192780 -30.287163 10 1
45.853073 252.797680 92.611359 4 1
-112.573650 205.763090 82.449272 29 1
-12.474722 254.597640 90.925949 16 1
69.297333 191.016220 -33.926224 9 1
58.324318 95.503357 104.541470 31 1
-94.135109 130.153980 23.265778 13 1
-93.432030 289.345370 88.821541 28 1
71.170937 258.141570 -53.882374 10 1
-8.971573 288.639620 20.069174 0 0
-17.076651 210.183110 62.830532 17 1
-133.039490 192.597320 51.136024 29 1
-10.641052 271.355470 81.465424 16 1
-15.239066 190.867340 79.650719 17 1
79.889435 256.470280 -51.320976 10 1
-110.384790 245.707290 12.321558 15 1
55.220417 256.724030 79.712532 4 1
-19.008615 22.204758 0.067070 26 1
64.097450 261.988370 -35.257011 10 1
71.135857 189.591540 -3.719245 0 0
65.158264 250.546690 -65.257866 10 1
-69.873093 288.635160 96.633583 28 1
-109.684270 188.038280 -9.603772 14 1
46.884655 275.240420 -21.911118 10 1
-101.857300 140.056430 39.809422 27 1
1.961946 6.135244 -2.420399 0 0
-113.088700 129.632800 69.240608 27 1
-101.486070 188.160400 -19.535629 14 1
55.787045 270.406100 -45.128925 10 1
25.533615 14.380938 -0.478877 23 1
23.185486 276.884980 -99.841103 11 1
-148.721210 169.202500 91.676247 29 1
32.979607 301.247470 -73.423279 11 1
-51.161678 94.772827 -72.042786 20 1
-7.138473 94.509293 -56.339375 22 1
-4.190867 240.548570 104.635890 16 1
62.839672 255.621720 77.162918 4 1
3.177906 37.145874 1.280601 0 0
-99.117615 282.340880 95.555466 28 1
-105.668260 172.428890 -34.297741 14 1
5.239535 102.559350 8.135562 0 0
79.455414 158.317810 -79.745468 9 1
-95.290718 272.561860 108.163870 28 1
-53.682571 201.082440 73.757980 17 1
-48.963921 100.725260 -44.975483 21 1
11.353270 289.340610 -25.121193 0 0
97.324257 274.151060 -18.475891 5 1
-18.125401 262.015440 96.167503 16 1
-117.929440 208.405930 57.842464 29 1
53.489597 279.074310 -3.191728 10 1
-125.440490 241.183580 131.617720 28 1
-158.151230 153.026520 108.228650 29 1
46.595215 254.116650 -49.617821 10 1
-77.665680 134.959030 9.854562 13 1
58.421242 112.874630 43.208855 3 1
-36.056931 106.895960 18.350870 0 0
68.061035 170.326770 54.314701 6 1
55.039772 270.333590 58.994629 4 1
-99.706764 97.600952 -10.667232 13 1
33.332623 304.633090 -57.755764 10 1
0.035422 132.609850 3.658407 0 0
-97.310974 107.624620 -1.343950 13 1
-90.909653 277.860020 103.432330 28 1
-27.375961 317.789250 -51.115738 7 1
82.871544 177.689560 -62.510139 9 1
40.574261 283.757450 13.748302 4 1
-0.329454 318.965030 -33.330723 7 1
-24.280422 316.365970 -57.375652 7 1
37.739151 278.318790 26.210579 4 1
3.125782 273.863920 17.849651 0 0
-104.208330 193.312000 -7.716745 14 1
46.640011 269.455440 41.341278 4 1
-80.686745 283.843810 7.547940 15 1
17.850897 320.815520 36.588219 1 1
-87.265633 127.671660 3.194092 13 1
15.291278 298.651550 -83.750725 11 1
-71.258163 138.073590 2.202385 13 1
19.247686 267.057590 -114.298360 11 1
-45.896152 116.946050 92.745728 30 1
-23.984446 271.338750 79.137939 16 1
-116.313420 165.552410 -39.474739 14 1
-25.213947 244.018940 33.933483 0 0
-151.669400 163.805040 102.815310 29 1
56.029045 193.035890 -33.873390 9 1
-80.413841 215.864470 27.912550 14 1
-129.587300 187.970780 95.586998 29 1
-39.168316 195.618160 78.130852 17 1
-28.673351 199.522380 76.151787 17 1
-2.003709 211.775190 25.248007 0 0
42.331501 254.607300 79.644661 4 1
30.527342 286.741850 -41.551781 10 1
-23.784405 8.229021 25.354975 26 1
-24.493324 109.915390 -37.694595 22 1
-11.082291 124.845180 -7.580388 25 1
-4.787093 283.199620 19.536480 0 0
70.543007 109.337810 43.886543 3 1
0.737489 79.520592 8.078127 0 0
-6.882594 16.395626 10.194582 26 1
3.455387 310.432400 26.526289 1 1
-76.115982 222.824710 33.921127 14 1
-155.521100 103.878090 51.223480 27 1
-0.000897 149.894560 23.430983 0 0
-74.541946 217.446210 8.264564 14 1
-125.057630 247.917540 125.234430 28 1
-69.326157 216.008480 2.842521 14 1
78.900749 166.398830 58.599583 6 1
3.280794 48.095867 5.108943 0 0
-116.185960 249.625700 125.767910 28 1
75.085350 293.393890 -9.406587 5 1
33.576374 298.815190 -42.691242 10 1
50.146851 264.761690 -64.915596 10 1
20.339462 302.511020 -60.121265 11 1
70.990601 256.518130 -41.723083 10 1
-20.314323 280.189180 67.195602 16 1
-14.448999 222.376160 26.198774 0 0
-89.827751 133.873690 27.139776 13 1
-1.442087 71.784866 6.461400 0 0
-49.150753 287.411680 42.386971 0 0
65.337059 148.507610 76.369652 6 1
75.865562 103.271220 51.702904 3 1
27.104488 295.880190 -76.207367 11 1
-58.848206 94.231400 -64.276207 20 1
-62.598614 297.922120 27.361259 15 1
23.640823 109.398200 62.460796 2 1
-16.021051 9.232846 27.771883 26 1
0.895032 260.159030 88.932625 16 1
55.689358 106.427790 91.325905 31 1
79.511734 155.652050 64.387321 6 1
-59.787792 289.500000 33.108341 15 1
-68.401718 207.845000 60.776337 17 1
-45.210926 107.975990 -41.247314 22 1
-89.215073 207.896970 6.641603 14 1
-105.782490 223.482420 43.891224 29 1
-81.800468 276.924800 109.755910 28 1
9.490524 318.441530 32.807236 1 1
-69.476883 286.048520 7.762212 15 1
-97.345581 219.455900 75.719559 29 1
-3.119215 25.339428 -0.546422 0 0
-27.491205 267.423890 97.281013 16 1
84.951324 295.760930 -6.021765 5 1
2.523366 114.165430 3.364058 0 0
-35.921715 219.319600 54.755470 17 1
-2.023858 197.219760 12.399198 0 0
-2.321405 192.212690 80.109543 17 1
-70.761955 291.223360 26.354469 15 1
-78.896217 130.960910 -4.335043 13 1
38.827206 292.874540 -51.937634 10 1
89.907806 162.715480 59.918976 6 1
39.753868 282.855990 -59.615738 10 1
83.735939 191.369370 12.370488 6 1
-68.056023 212.735350 -13.545382 14 1
-106.647560 195.570180 0.721766 14 1
-15.763614 316.438480 -56.569084 7 1
52.095093 262.923520 -35.118931 10 1
30.303493 289.937470 -50.676167 10 1
-34.150555 6.047848 18.388126 26 1
111.337480 260.112580 -8.197039 5 1
68.176826 279.814730 34.393101 4 1
118.331750 238.359540 -15.146524 5 1
168.215840 168.745420 -31.986559 8 1
-10.036286 84.284149 6.592313 0 0
-66.265396 66.312012 -24.809126 21 1
-26.549084 316.478450 -36.844360 7 1
-56.446800 313.234070 -49.668781 7 1
122.399370 260.816770 4.491820 5 1
-3.251630 202.942080 21.063787 0 0
-77.054291 282.814240 104.264700 28 1
-19.251312 119.292070 -11.902149 24 1
81.461693 236.145000 -66.635292 10 1
83.986443 270.164090 -5.447215 5 1
-84.375717 268.167080 110.420320 28 1
-5.413284 317.185490 39.536152 19 1
-111.638390 191.245610 2.566344 14 1
-20.533106 109.055780 -4.210528 0 0
10.284098 13.434223 7.387341 23 1
-61.084152 123.423950 84.902916 30 1
4.476595 141.583910 8.162541 0 0
-14.534999 277.681460 75.763382 16 1
-41.690525 285.668180 77.120811 16 1
-59.869072 141.433240 58.626968 30 1
-23.377064 185.846440 83.100845 17 1
70.357323 263.173740 63.323925 4 1
99.141045 276.892610 -4.896160 5 1
-117.215650 178.715240 -13.104809 14 1
32.630672 105.690240 63.138901 2 1
-59.801834 201.653810 28.095310 0 0
-80.786308 142.537750 32.682285 13 1
-3.660752 90.551018 4.048966 0 0
-132.852400 186.666600 65.630905 29 1
-80.876122 285.426150 22.060329 15 1
58.288116 107.560710 82.357574 31 1
-68.062157 216.901670 29.067051 14 1
-73.810654 291.865660 90.131119 28 1
-73.304535 290.555850 14.570460 15 1
-102.508560 280.425450 89.208611 28 1
106.475020 252.050980 -9.687554 5 1
-10.127409 314.034300 -36.141254 7 1
66.713684 157.164340 68.338181 6 1
-83.614151 269.539580 19.194180 15 1
3.097287 30.045338 4.353302 0 0
21.276850 105.364640 69.774033 2 1
3.732328 278.743740 -21.227133 0 0
52.525730 266.220000 -29.307404 10 1
-1.139533 242.835770 13.010323 0 0
-94.504845 290.320770 77.703644 28 1
-49.001198 214.057210 58.354656 17 1
84.571777 168.758390 -62.411156 9 1
84.691391 224.250030 -69.353516 10 1
-47.552662 112.932170 1.289969 12 1
-45.252792 203.323880 65.091217 17 1
-38.693821 291.438450 73.618820 16 1
107.281730 206.888690 8.517860 8 1
-20.772251 15.704896 10.270003 26 1
-90.256889 128.652770 16.187056 13 1
-29.779915 210.044330 58.188999 17 1
-77.165977 298.412450 65.661545 28 1
56.795387 273.578250 -19.328842 10 1
113.271460 197.151080 -13.466001 8 1
-93.696609 225.738460 64.283424 29 1
52.812035 278.581270 -21.499723 10 1
80.386444 106.980600 38.908379 3 1
-9.645935 200.606080 76.335579 17 1
-114.724600 273.552730 101.783330 28 1
-31.298805 318.201540 30.112169 18 1
37.881020 107.911030 75.350243 2 1
3.655627 148.650280 10.048568 0 0
79.131317 180.547490 36.048325 6 1
-79.385269 124.460520 -16.413382 13 1
83.170799 140.583510 75.724480 6 1
-53.757687 96.471443 -19.673681 21 1
48.049286 277.531190 33.260864 4 1
9.495203 309.902740 -46.579876 7 1
-49.843086 96.576546 103.726530 30 1
-93.813591 275.008760 92.433121 28 1
137.767180 187.017940 -32.554531 8 1
-92.547134 267.162380 -2.987162 15 1
98.360512 203.128450 -1.313925 8 1
-10.236382 174.050430 89.634102 17 1
-89.679810 282.025240 83.532997 28 1
-32.799881 118.830810 -19.725809 24 1
83.072083 298.325960 15.922271 5 1
-5.682705 13.731867 23.075581 26 1
-28.921700 122.464320 -29.055830 24 1
-117.907390 210.020170 50.666817 29 1
-97.843536 263.364170 117.330040 28 1
-82.527893 200.956100 -25.804819 14 1
0.076322 306.858580 37.261013 1 1
-87.393890 114.904080 -16.791664 13 1
-89.287384 204.456830 -9.066304 14 1
-23.406315 317.254730 33.131668 18 1
106.483940 278.533140 11.204004 5 1
-116.427350 246.187550 9.696402 15 1
-24.009321 123.190520 -35.332890 24 1
-19.926830 102.297180 -43.662342 22 1
77.946045 246.427580 -60.268314 10 1
-29.328934 283.653500 78.082268 16 1
-31.805281 15.607651 4.726683 26 1
32.092167 293.794980 -84.773376 11 1
-63.443863 217.447250 44.111805 17 1
-70.989876 119.434340 87.339104 30 1
-2.757509 268.661710 15.090860 0 0
-98.486298 254.279170 120.398450 28 1
-35.987919 287.381160 58.773941 16 1
54.603157 155.347030 -0.186116 0 0
-10.717272 14.171030 4.732750 26 1
60.418022 266.186130 63.515926 4 1
56.181263 246.582960 87.491570 4 1
69.603874 176.342760 -3.295544 0 0
-72.301071 141.475890 14.555178 13 1
-39.259541 314.481690 -36.109097 7 1
-123.805870 125.091500 61.911839 27 1
-121.161710 203.573070 68.710617 29 1
97.661339 286.703830 12.409529 5 1
53.945717 185.966510 42.637775 6 1
-2.691472 267.670750 76.642029 16 1
-63.798740 69.341454 -34.999340 21 1
-32.407734 320.000640 39.180794 18 1
-89.465553 224.324890 50.216129 29 1
19.095966 281.377840 -97.094818 11 1
-146.425420 174.660900 72.328751 29 1
-34.594929 14.061971 13.029391 26 1
-30.240969 125.742930 -37.376808 24 1
-70.211891 140.216800 32.029026 0 0
111.348400 262.002900 3.193193 5 1
65.791954 166.953900 59.481476 6 1
-126.940300 191.246860 90.323326 29 1
-17.371929 312.322110 -45.969978 7 1
-4.462143 134.207440 12.870629 0 0
-57.756695 218.072630 48.014297 17 1
82.763084 193.256620 6.115782 6 1
-115.214290 188.853440 -2.526815 14 1
-24.367872 276.002720 86.464081 16 1
-63.402378 223.744600 12.310280 14 1
48.881218 255.122770 86.687233 4 1
-48.171299 89.096970 -76.929337 20 1
117.875250 249.216460 -10.328132 5 1
76.645630 190.962230 -33.406700 9 1
78.946266 293.958650 13.349253 5 1
2.410033 98.610184 -50.285240 22 1
-21.736572 6.591936 17.594524 26 1
-100.850050 219.508160 45.481403 29 1
-4.371090 319.295440 54.701954 19 1
-65.090126 95.682159 -61.264473 20 1
34.210907 249.158480 -1.606350 0 0
-33.096146 114.082340 -2.368076 12 1
93.202339 284.074250 -5.684177 5 1
36.094856 257.096470 -2.784935 0 0
-48.930454 195.600660 71.425842 17 1
-118.109420 256.004430 114.932300 28 1
64.909889 110.038330 47.473736 3 1
-34.647976 122.468250 -32.162037 24 1
19.477232 17.613140 1.312070 23 1
-17.821306 13.317415 15.558746 26 1
-116.984470 264.114930 111.618200 28 1
102.683140 270.942690 4.208017 5 1
77.422287 226.950290 -70.049561 10 1
-83.824066 134.976230 24.286381 13 1
-16.917360 99.221786 12.573593 0 0
-124.221070 199.345020 81.863701 29 1
-2.210208 217.114990 16.004442 0 0
-81.576775 290.107570 33.406864 15 1
-52.888374 95.773788 -30.012922 21 1
36.231327 18.684978 -17.516836 23 1
-3.250618 47.845284 -2.228661 0 0
-48.437325 131.542880 75.749199 30 1
63.426197 257.015500 64.652222 4 1
110.203990 269.775790 1.192167 5 1
-26.732727 220.320300 49.931389 17 1
-43.787170 222.586500 47.019947 17 1
-102.763820 214.902660 80.551842 29 1
14.396706 291.626280 -101.700590 11 1
-40.338474 99.066559 -76.487541 20 1
80.244774 267.548710 -45.531231 10 1
-19.228952 101.111970 1.608586 0 0
-110.081100 138.759190 36.335297 27 1
10.928391 115.342790 3.125754 0 0
-82.026451 212.339290 2.506475 14 1
-33.823990 209.036680 67.558685 17 1
-52.238796 106.705860 -44.871597 20 1
19.611467 93.038147 84.747459 2 1
-101.802530 215.309750 70.168938 29 1
38.632641 289.936340 -60.154026 10 1
20.529924 98.926643 80.834915 2 1
54.839317 184.500960 -55.554661 9 1
-14.201037 246.530700 106.768370 16 1
57.032452 181.841480 50.403698 6 1
-66.991982 134.807860 67.360550 30 1
-5.808591 315.537990 -54.232605 7 1
-103.636520 289.371580 85.164978 28 1
-4.464190 -1.482899 -0.783786 0 0
-23.475864 114.401720 -16.757927 24 1
-144.440080 103.868100 75.108490 27 1
4.412206 122.649680 4.959913 0 0
103.720150 200.579030 -8.917436 8 1
137.239120 191.831650 -22.175508 8 1
-1.785486 155.437180 10.008344 0 0
116.959510 203.791000 -0.127761 8 1
82.767487 191.220500 -5.065219 9 1
-20.113474 257.282840 101.983220 16 1
-14.199472 305.243900 29.096132 18 1
58.964279 266.957460 -26.206232 10 1
13.076035 99.208824 76.090332 2 1
89.432686 280.411830 -20.418324 5 1
14.584948 194.040120 5.499483 0 0
-33.900448 114.433200 -10.044943 12 1
84.566925 208.739240 -82.710014 10 1
18.323238 302.427250 -72.515083 11 1
-80.819427 291.296110 89.938339 28 1
-104.408130 254.765530 22.608442 15 1
86.920715 202.244800 8.267911 6 1
145.723020 183.086560 -25.810717 8 1
109.383530 191.576020 -24.609688 8 1
-107.611430 147.674030 28.828470 27 1
-80.540916 124.602580 78.977615 30 1
-110.026290 268.028050 102.034170 28 1
85.851738 155.955780 61.876869 6 1
-38.602840 212.014050 64.116493 17 1
-59.559826 214.242320 56.273270 17 1
-43.065063 92.321777 -80.972031 20 1
66.983307 170.270540 -69.242210 9 1
-78.675079 297.196380 73.468864 28 1
86.960213 195.241360 -14.431383 9 1
115.606650 242.968280 -7.712571 5 1
-27.025211 113.588680 -9.419483 24 1
-114.186150 135.751890 40.448517 27 1
53.861736 109.489160 53.457848 3 1
-76.256996 119.914140 -19.643410 13 1
-127.083520 199.029510 41.244583 29 1
1.174916 256.862400 0.355310 0 0
6.997249 176.967130 2.905793 0 0
54.565132 255.671360 69.228180 4 1
-89.795143 266.226750 7.689365 15 1
-0.336571 289.324460 25.166372 0 0
59.434097 253.293440 -46.628101 10 1
-48.914093 111.323430 94.884056 30 1
3.146626 238.125000 12.622529 0 0
1.594047 314.951510 -41.243755 7 1
-82.603165 284.939090 76.652275 28 1
-56.503010 298.237150 42.510323 15 1
73.821297 274.281040 -37.318798 10 1
74.550461 237.676560 -70.604149 10 1
160.050510 177.340940 -36.947285 8 1
-110.974330 207.635940 67.558243 29 1
81.856911 229.981540 -64.501595 10 1
-82.515060 270.245640 26.263882 15 1
-135.716690 185.875520 84.564308 29 1
101.448930 271.442810 -9.734034 5 1
99.196671 208.324940 -26.004787 8 1
-36.242363 202.954270 66.029861 17 1
59.276546 161.602580 1.133134 0 0
-48.256088 191.122020 78.935791 17 1
-75.713097 138.252400 45.545216 30 1
-24.129978 121.812060 -23.089617 24 1
29.617271 300.401280 -54.076466 10 1
81.906418 95.663689 57.973854 3 1
3.528228 158.930510 9.696696 0 0
-91.245560 273.400820 35.392712 15 1
24.387136 300.486820 -70.389870 11 1
-39.121864 188.398730 76.495773 17 1
-120.490260 160.893680 -29.890944 14 1
143.651920 194.279170 -4.398441 8 1
108.965730 201.949460 -27.402653 8 1
-89.745438 268.042080 101.307470 28 1
-58.133858 75.965057 -43.411373 21 1
-110.404620 256.092960 121.588440 28 1
-95.984322 197.735690 -15.029246 14 1
43.667809 258.596920 69.238701 4 1
-70.799393 147.832820 22.710775 13 1
-111.627790 278.902160 96.216110 28 1
-65.590675 291.053500 45.471844 15 1
-2.477372 145.459320 14.218094 0 0
-91.830894 144.667330 35.633076 27 1
-12.517016 250.655110 98.032814 16 1
-27.060434 214.248250 53.640930 17 1
-87.877838 107.895240 -26.389545 13 1
20.581676 18.391613 -10.668978 23 1
-66.719879 90.229355 -70.941208 20 1
-19.839596 266.107540 86.968307 16 1
2.502115 60.250214 9.429977 0 0
86.121140 203.111530 -3.167538 8 1
-84.583191 281.301670 18.651171 15 1
6.154594 317.523470 -51.958385 7 1
-74.745102 282.609620 5.874864 15 1
-62.873505 294.988800 38.411041 15 1
89.330505 169.076610 51.207859 6 1
80.278198 219.629530 -79.812752 10 1
-4.796887 175.800450 11.603432 0 0
36.821636 13.745601 -5.721721 23 1
38.926819 275.705510 48.947960 4 1
16.492611 15.137676 7.413558 23 1
-98.912529 121.138880 15.402312 13 1
70.154465 188.467830 29.864586 6 1
63.401203 278.152890 -24.662655 10 1
-17.266142 196.621600 81.121109 17 1
50.195511 245.025620 -57.885887 10 1
-14.517962 285.591340 14.480970 0 0
-1.370222 272.403230 72.206856 16 1
-100.766980 262.822390 15.330546 15 1
13.680733 293.799040 -36.024303 0 0
49.376808 284.034880 -4.982269 10 1
-6.605052 254.244690 87.882202 16 1
118.801760 196.419360 -8.207375 8 1
-31.272310 188.345430 79.634750 17 1
-83.425011 119.426610 -10.499545 13 1
-106.832050 139.173360 56.320755 27 1
-112.546660 246.955960 19.971121 15 1
-91.302971 272.647310 8.475060 15 1
118.903720 207.383900 4.979381 8 1
67.432907 189.124420 24.252382 6 1
-3.534445 280.662990 13.967597 0 0
-70.930695 277.395540 26.391987 15 1
-17.225773 99.973312 -50.629429 22 1
10.334770 66.304695 6.576744 0 0
42.305588 105.732670 66.738640 2 1
94.636055 263.128600 -17.733259 5 1
17.410322 307.459260 -43.437927 0 0
-66.228851 295.492070 71.865433 28 1
44.573002 280.006380 -25.678072 10 1
7.074940 17.499643 -0.181131 23 1
-67.512138 221.971860 23.812763 14 1
-85.596375 271.976140 1.731370 15 1
122.301480 190.828540 -26.956831 8 1
36.805420 275.832000 -50.673786 10 1
79.268555 240.854310 -54.554821 10 1
-0.792376 104.107100 8.216547 0 0
84.012962 291.131200 5.495973 5 1
114.378140 210.630570 8.237248 8 1
-30.336220 108.102430 -35.364777 22 1
-34.360672 256.087310 36.335602 0 0
24.303190 293.871610 -88.532028 11 1
-5.388354 245.803820 99.225998 16 1
-7.983496 282.363800 68.339119 16 1
9.842987 87.544907 86.137741 2 1
43.737534 258.594850 -53.628017 10 1
117.383640 193.083100 -19.845726 8 1
-139.731280 177.636280 80.608322 29 1
88.230164 192.901660 16.738241 6 1
-132.736790 188.153430 55.631729 29 1
7.372798 183.894180 1.566997 0 0
27.249645 100.978650 81.084129 2 1
158.357280 188.410350 -11.671367 8 1
-104.520830 219.927110 55.746574 29 1
58.620190 99.878998 99.736900 31 1
-79.280022 274.756500 103.857170 28 1
-111.169220 251.472720 9.614325 15 1
-50.707790 88.681847 -71.039070 20 1
-44.753399 317.080660 -50.846592 7 1
12.682011 72.898491 22.214382 0 0
-38.538116 210.587010 56.956314 17 1
-11.649532 106.244640 -42.940845 22 1
-109.377960 214.350490 76.753136 29 1
-86.429512 217.285920 27.941946 14 1
-34.818970 319.305790 -54.385357 7 1
120.831920 243.658840 -2.912558 5 1
29.495878 284.975340 -94.040802 11 1
97.080414 175.176250 -61.776409 9 1
-109.467530 249.893310 127.385890 28 1
2.372772 234.572430 18.456764 0 0
29.501291 13.990973 4.266602 23 1
-115.919400 243.189910 4.324519 15 1
-49.766441 144.619920 60.344456 30 1
82.239761 152.847900 -80.382301 9 1
36.045544 291.236420 -39.668484 10 1
17.300180 202.206630 3.389945 0 0
-11.293151 96.269234 5.401946 0 0
35.669296 298.751770 -58.434101 10 1
-45.209904 114.408580 -6.150700 12 1
-90.528107 117.228990 -2.585805 13 1
-67.788200 129.991740 71.282875 30 1
102.828030 279.589020 4.554738 5 1
94.611656 282.865420 -18.161674 5 1
-27.143299 100.152600 11.649469 0 0
64.621872 283.640750 24.394554 4 1
-65.040184 297.063080 64.367294 28 1
-96.031166 202.875430 1.446493 14 1
45.927151 105.583190 85.032059 31 1
67.851913 84.745163 113.900670 31 1
-2.420417 165.397110 6.848391 0 0
-109.956360 255.638180 19.758804 15 1
-41.293884 136.852890 73.405067 30 1
-69.272301 125.653820 81.012581 30 1
-107.260690 211.424470 88.356903 29 1
-34.079556 282.417940 85.098595 16 1
74.220070 285.709010 -4.076680 5 1
-112.896320 218.737700 41.432800 29 1
90.968735 203.791210 -17.568991 8 1
129.108150 204.153400 1.403751 8 1
58.820751 284.449950 18.729446 4 1
-109.561300 249.797560 0.087880 15 1
-69.469727 285.035640 37.553486 15 1
-19.235815 281.045320 73.711288 16 1
-2.138328 314.430210 -46.353569 7 1
97.153877 284.047670 5.567274 5 1
83.271400 192.185550 -35.157215 9 1
-76.692245 135.267070 1.791828 13 1
-44.877464 182.716380 20.193872 0 0
-103.172830 141.673800 51.749062 27 1
48.231415 147.554340 0.845808 0 0
110.669070 251.002400 -4.410318 5 1
81.635139 167.279400 -71.195068 9 1
-92.089165 122.361360 6.539175 13 1
85.271851 147.017060 71.320915 6 1
-3.224898 307.559690 32.088337 19 1
41.600197 262.374760 79.012825 4 1
-94.439346 220.835720 45.362301 29 1
-122.170250 197.706310 58.091171 29 1
-89.201324 291.392640 74.837318 28 1
-0.429304 43.451138 6.541561 0 0
-7.825442 264.347530 87.242615 16 1
54.809631 237.679930 -57.668652 10 1
-94.326920 148.868000 31.181263 27 1
-99.061554 262.098690 7.428910 15 1
-34.197540 295.932530 49.907749 16 1
81.941788 187.351380 -44.269775 9 1
-117.306350 203.742070 53.185417 29 1
90.029716 227.442670 -67.553284 10 1
-119.635090 239.356550 132.119670 28 1
97.994217 164.296170 -68.259048 9 1
-118.711880 208.303240 42.209435 29 1
92.681976 189.454960 -47.666737 9 1
51.213470 269.886410 -58.146809 10 1
-101.766070 258.246890 -3.803349 15 1
2.378897 22.278942 -0.928904 0 0
-103.108600 260.552580 118.865660 28 1
-79.867332 217.502110 44.783020 17 1
-126.768180 193.335690 60.177082 29 1
37.066273 257.690580 79.934219 4 1
-10.928357 310.034240 39.141899 19 1
-73.988716 217.212250 27.594507 14 1
-22.768101 315.735170 -45.297962 7 1
-5.718999 322.371310 -60.061684 7 1
-157.604060 91.516068 67.399239 27 1
137.362660 203.177370 1.444561 8 1
-81.023712 217.170650 18.268198 14 1
-28.069496 285.416110 61.652069 16 1
-56.415424 87.152092 -32.509548 21 1
43.270836 277.922820 17.226149 4 1
-26.912123 119.321960 -18.262712 24 1
127.152430 190.568630 -36.844585 8 1
-87.684738 123.801540 -4.680523 13 1
2.551529 244.998200 97.104362 16 1
-90.973755 192.178710 -22.690634 14 1
-61.109657 223.021070 38.207012 17 1
-13.666268 321.770200 -60.066879 7 1
61.304096 275.078860 -30.803514 10 1
13.711038 281.960630 -104.557220 11 1
-37.669857 110.096720 -2.779209 12 1
-72.606140 109.299590 93.981010 30 1
108.411020 257.804260 -13.589525 5 1
53.217556 113.574910 46.350372 3 1
82.960930 256.443150 -44.584686 10 1
-38.636799 316.889190 -50.039745 7 1
1.664433 169.302670 4.211984 0 0
-71.364571 135.058690 -8.543121 13 1
163.635450 180.475100 -22.865675 8 1
-56.319714 202.305620 65.801727 17 1
43.240429 277.560490 43.170918 4 1
-35.036804 199.420720 75.835594 17 1
61.437527 192.413800 -22.922752 9 1
-21.547161 157.676040 16.206619 0 0
-56.910557 94.234993 -70.197868 20 1
61.348118 273.448700 46.477024 4 1
40.898712 271.527340 42.302284 4 1
-104.663040 258.038270 12.655614 15 1
-45.072788 190.263890 25.150648 0 0
-69.550919 140.148940 51.722591 30 1
-99.072327 272.486270 30.236219 15 1
-114.878160 206.239940 93.150887 29 1
26.780315 12.620459 9.599059 23 1
-51.810043 206.196350 68.812920 17 1
