-31.722857 248.686610 -85.044312 35 1
0.843824 220.956890 -12.402147 0 0
-64.301300 299.481230 -68.592590 9 1
-63.182095 160.658540 -84.393875 25 1
-6.814428 238.770110 -3.542163 0 0
69.997604 158.171660 8.367768 5 1
-53.016140 295.923250 -51.019920 9 1
-14.603985 271.776950 -6.944771 0 0
71.899170 328.626220 -12.317300 13 1
11.782765 242.369860 61.619312 42 1
-5.919904 125.182650 -22.682024 0 0
-58.045586 157.344820 -60.883251 25 1
-13.016477 277.531280 -79.223694 9 1
-81.516243 294.569310 -39.431118 9 1
-34.756641 287.106170 -91.475533 9 1
-46.815289 251.694470 -17.413258 0 0
33.531757 263.295870 -61.792706 50 1
-10.449126 152.563740 -20.901457 49 1
-23.671410 27.684542 22.619316 31 1
29.614445 317.428410 76.010658 14 1
-55.598061 151.631360 26.196308 19 1
-32.549671 243.870150 -94.900497 35 1
30.316801 165.226910 13.788831 51 1
70.041847 147.749270 11.582908 0 0
-4.516839 140.015700 -36.603703 0 0
49.795765 279.540470 -94.899841 45 1
-94.925713 293.056030 -31.419712 53 1
11.057769 233.124130 -7.697392 0 0
73.574524 161.479020 21.890657 4 1
29.049538 273.782140 -122.688090 45 1
39.948090 248.157030 34.675129 11 1
-8.683969 145.666780 -0.934041 0 0
-77.538307 125.255610 -70.468246 25 1
91.969971 345.266390 38.906368 12 1
-7.611313 308.278560 -13.719318 0 0
-31.787209 178.387820 -80.942993 25 1
-90.424591 88.916512 -52.475662 56 1
29.377474 215.814440 -70.414742 39 1
-13.906333 231.910170 -110.496730 36 1
68.829948 167.278200 -8.898329 5 1
-103.059490 273.550660 -13.470563 53 1
18.719704 184.214370 64.795555 26 1
-72.221428 131.119570 -52.085865 22 1
-9.207811 199.082210 100.405480 40 1
-65.650833 209.329560 50.931358 55 1
2.448280 171.160390 118.561240 40 1
-19.297678 189.018250 0.023248 0 0
4.235401 240.737120 -91.907196 36 1
63.417538 279.634800 -104.575040 45 1
-27.589079 230.541920 -104.915270 36 1
-39.641960 191.209550 59.623356 40 1
-50.229069 171.729110 -120.670170 16 1
50.217041 261.172240 -41.978611 50 1
-2.822266 268.028380 -108.457880 9 1
28.138882 29.448330 -8.291101 41 1
-67.896828 213.838850 110.409030 54 1
-3.643989 168.649370 -0.936798 0 0
-89.120934 94.219261 -36.199841 56 1
31.048849 170.418140 107.238780 28 1
64.334984 206.066020 -164.760530 45 1
-13.160764 174.600520 -6.804491 0 0
65.204086 239.867490 29.421652 11 1
73.230789 133.654940 54.192787 29 1
-70.150772 132.092410 -17.440226 18 1
5.312102 322.181090 42.135132 15 1
35.665691 337.172300 36.049641 14 1
-63.118706 109.567920 -15.411119 24 1
-20.100033 147.171170 10.392243 0 0
62.652615 259.114440 -139.606030 45 1
-39.024235 288.558010 -76.297714 9 1
-77.889954 284.452580 -7.667685 53 1
54.884899 281.167880 -86.684853 45 1
85.524689 155.400100 16.597013 29 1
-47.718544 266.263310 52.435970 6 1
47.212902 273.660800 -111.107750 45 1
64.793457 247.556400 -58.161625 50 1
69.852303 166.191730 -22.440332 5 1
-33.726421 179.312930 -116.899080 16 1
-19.945583 61.178116 13.068669 44 1
52.455563 155.607330 38.372799 29 1
-51.080200 218.598740 60.138237 55 1
-75.544403 160.520770 -132.595290 16 1
-11.906978 214.438460 75.628525 42 1
1.287866 262.474210 -79.696312 35 1
-20.862957 285.973080 -78.461945 9 1
-3.464362 307.964870 -3.601690 0 0
15.134501 336.634950 -1.729465 17 1
-16.729898 137.521130 -25.266802 0 0
27.712927 279.371580 -131.333220 45 1
-7.356791 213.250550 12.667390 0 0
-23.888935 157.463990 2.592040 0 0
65.979492 126.717830 55.457375 29 1
7.298882 240.594130 -61.672832 37 1
2.473527 110.193700 -3.127872 0 0
13.996288 226.702270 -68.866119 0 0
-72.692673 202.857320 64.253670 55 1
-18.674608 240.947010 -94.733177 36 1
98.282684 339.995120 55.327789 12 1
9.439272 182.662230 87.402145 28 1
-4.871963 139.694240 -53.949600 47 1
-105.054590 304.727020 -42.143288 34 1
-23.396444 336.471830 -21.047142 23 1
12.201210 164.700840 112.174370 28 1
4.243949 333.975400 7.074221 0 0
21.479652 249.746930 43.136131 42 1
23.735483 278.381130 -102.936780 45 1
-37.423363 167.770020 -79.775124 25 1
67.631767 259.640010 -69.057121 50 1
-43.463867 210.357190 62.842487 40 1
-17.628529 257.962190 -102.540520 35 1
111.494810 149.234950 20.317362 4 1
-77.400879 104.942830 -30.860840 56 1
-0.369929 49.267616 3.535218 0 0
10.838962 343.489590 53.897671 14 1
-77.023384 205.359300 44.586838 55 1
-6.439583 71.845284 -13.872089 0 0
5.362904 321.611050 4.682064 0 0
0.562161 150.458500 -1.333079 0 0
-3.305490 185.177400 110.325100 40 1
88.043007 348.603000 51.853737 12 1
-7.391130 235.080550 -15.233940 0 0
-19.072914 283.001310 -15.294970 0 0
-153.330260 276.538640 -86.708847 34 1
-32.759426 293.153050 -68.012115 9 1
61.438576 250.060260 75.375908 8 1
-103.131900 266.257110 -1.487096 53 1
39.663517 339.715210 50.908024 14 1
65.536133 237.878100 -149.707440 45 1
-32.024139 181.915070 1.959517 52 1
38.740879 267.420720 -137.801970 45 1
-35.605965 267.689820 63.640030 6 1
14.650937 194.287160 4.484584 0 0
57.858086 125.179250 62.054268 29 1
15.444094 220.080400 -53.491756 0 0
-23.109631 256.136140 -84.865891 35 1
32.229889 174.976040 93.821777 28 1
-33.082005 223.538990 -114.328060 36 1
-26.051931 267.292940 56.421886 6 1
0.945029 184.860950 5.817029 0 0
29.225101 22.181168 -17.777447 41 1
-76.199112 137.617030 -77.430237 25 1
4.487546 124.662600 0.386078 0 0
41.844479 259.868930 49.620316 8 1
-26.868509 281.404390 -92.709282 9 1
-72.282631 281.802280 -32.034554 0 0
-50.392902 148.739520 -11.125451 18 1
-73.424637 119.028920 -42.652489 22 1
-30.072618 209.548630 68.281769 40 1
-73.942444 155.414960 -140.772450 16 1
3.790928 230.216740 61.318081 42 1
17.145164 153.316090 -120.155310 20 1
67.758575 275.616760 -112.033280 45 1
-9.045938 91.593170 -14.853914 0 0
46.263470 255.841510 76.752640 8 1
-15.665500 219.399060 -7.354271 0 0
71.504890 226.962250 23.875706 11 1
11.458570 258.131440 -22.729166 38 1
-7.691677 250.287900 -5.942367 0 0
7.238785 247.584300 -18.488426 38 1
38.964584 258.772000 -142.239400 45 1
-74.983246 92.654953 2.160963 3 1
34.985443 333.775570 -6.945164 17 1
21.491535 245.777980 -69.540398 0 0
-158.286870 262.768520 -99.866806 34 1
-6.565413 237.862320 -61.758213 37 1
-24.565559 294.678960 -14.260285 0 0
-18.577145 222.139660 77.585106 40 1
24.024725 223.790660 23.207613 0 0
4.859202 246.141200 50.881573 42 1
-44.927067 170.899870 -67.026855 25 1
104.222010 155.633000 19.813299 4 1
25.105026 160.079880 109.072590 28 1
-18.511194 271.802000 -87.924324 9 1
64.205650 152.485900 19.621431 29 1
-18.179804 178.097580 11.461418 52 1
-83.341331 280.277770 7.007348 53 1
-40.259922 177.974300 -141.202180 16 1
48.973763 251.491130 86.446182 8 1
-109.157350 301.436000 -67.658463 34 1
-104.845330 308.259400 -83.588692 34 1
-99.290489 281.729030 -7.153778 53 1
49.113655 250.670470 -139.508500 45 1
-6.132725 154.687870 3.892629 0 0
-30.057320 230.438350 -121.277020 35 1
-76.231880 196.193510 136.208760 54 1
16.689205 168.667680 -97.485008 20 1
19.888157 335.281650 62.326057 14 1
-10.072845 270.769260 -102.895520 9 1
-3.589901 178.805820 -15.819536 0 0
56.847046 246.889450 30.956213 11 1
52.787720 342.469150 43.070290 14 1
-15.295187 192.998280 105.065010 40 1
62.617085 327.283570 -12.900924 13 1
77.303947 138.575150 37.889053 29 1
13.660569 345.325290 8.346150 10 1
-28.309851 199.302050 95.789597 40 1
-0.689661 118.545330 -6.697958 0 0
22.664322 127.653340 -123.183070 20 1
-60.186359 140.967760 -7.229435 18 1
64.767754 269.992740 -127.366660 45 1
4.255161 270.646820 -67.820007 35 1
-48.480518 168.023570 -84.538544 25 1
-64.321350 288.305240 -39.544060 9 1
45.225212 330.895900 -25.796732 13 1
57.721493 346.285890 14.027077 13 1
59.203701 143.304820 48.513279 29 1
-95.966507 270.698820 9.595182 53 1
97.469299 155.071300 29.402918 4 1
-25.643660 179.225890 -111.268440 20 1
16.646067 36.654537 -12.212352 41 1
67.841583 141.856870 55.910946 29 1
-94.930702 105.036560 -12.115698 2 1
-52.792107 167.964780 -149.817660 16 1
0.370923 151.084210 -44.776146 48 1
-48.480610 182.670910 -107.577600 16 1
-9.933059 158.531200 -5.462786 0 0
-107.912830 257.018460 11.733233 53 1
80.338791 230.883180 -42.886631 50 1
1.675292 62.713181 -0.058216 0 0
35.515388 259.798740 77.294319 8 1
38.288979 339.018370 14.357302 14 1
-95.628311 195.492140 19.182695 55 1
15.096451 158.653580 48.476860 0 0
50.930378 255.994260 65.704758 8 1
-23.169485 232.838960 -18.088875 1 1
-5.378752 270.294920 40.692272 7 1
-9.542411 222.415340 20.240135 0 0
-70.345116 206.525450 122.547390 54 1
-17.865173 169.878540 -15.290449 0 0
-49.942295 216.572970 101.556710 54 1
-58.911663 152.038800 -82.612434 25 1
-73.404243 151.511840 -88.363449 25 1
53.720398 277.030300 -102.861370 45 1
-14.730026 29.286051 10.386416 31 1
20.659719 222.925320 -5.303898 32 1
-52.869968 145.316880 2.464278 18 1
-17.224188 170.160130 16.116173 52 1
-1.662948 175.551770 10.312637 0 0
-5.333909 168.086140 -24.342918 0 0
66.557526 144.457080 37.663818 29 1
-7.188859 240.667890 -50.025337 37 1
4.885461 237.556140 -31.876595 37 1
-106.777300 97.426956 -16.532558 2 1
83.966881 344.562350 44.624828 12 1
20.117039 234.182050 -6.712337 0 0
7.416708 327.606840 15.314764 0 0
-65.017708 132.234100 -0.766337 18 1
-104.050380 305.675900 -59.355244 34 1
-39.702080 211.081160 79.215202 40 1
-113.350400 304.775790 -81.086510 34 1
-81.284286 96.902428 -24.095348 56 1
53.798885 242.417210 22.705324 11 1
7.418417 345.201390 21.602026 10 1
-117.298490 242.001280 7.774362 53 1
1.127986 236.514040 -72.332672 36 1
3.523798 271.799440 -52.874043 35 1
-42.916969 153.782120 17.732508 19 1
9.170678 263.970280 -95.559593 35 1
8.707982 234.071270 -46.338665 37 1
21.107635 246.172520 -15.968091 38 1
8.259716 117.076610 11.176031 0 0
19.491982 317.304630 74.710587 14 1
-7.066107 173.477690 -107.764110 20 1
28.253250 341.139920 25.529852 14 1
-52.502644 297.704440 -37.852463 9 1
-6.496726 174.265110 22.756319 52 1
17.280230 210.426440 15.862998 0 0
30.595549 340.340210 -12.226741 17 1
17.489527 226.415880 5.552407 32 1
-13.080024 331.968350 26.399048 15 1
-21.971460 34.498394 5.820428 31 1
-9.946353 324.681760 42.752148 15 1
69.674416 118.502340 58.381237 29 1
72.687477 337.881410 -6.999175 13 1
21.569815 138.213410 -118.808010 20 1
-13.652658 182.163800 3.172098 52 1
-23.283813 169.470870 -106.449110 20 1
53.432915 335.507510 -14.116420 13 1
-74.007057 73.546455 20.507914 3 1
23.803249 253.627700 -74.138458 0 0
26.132568 182.516660 78.751740 28 1
-48.245087 126.005000 -37.220222 0 0
-9.502682 48.170376 34.472481 43 1
32.826942 181.619770 52.431404 27 1
-149.285130 283.980620 -80.741379 34 1
-131.294040 240.977450 -2.913963 53 1
65.692238 321.705020 -28.454020 13 1
26.259192 229.090240 -18.960192 33 1
-52.781990 160.722810 -74.166061 25 1
25.748821 248.007930 57.729359 42 1
-91.634727 200.324520 27.869572 55 1
-111.484700 277.639590 -12.331903 53 1
-136.769470 293.432460 -76.935349 34 1
-8.854428 266.050380 51.270435 7 1
-41.338715 200.744980 87.119835 40 1
-57.496754 221.714690 48.289883 55 1
-1.474894 272.835140 -29.159389 38 1
-80.392784 95.090759 -43.657867 56 1
-42.212700 288.860170 -64.755798 9 1
71.196823 136.075960 44.344410 29 1
19.566668 170.373730 114.092000 40 1
46.223137 157.100850 62.234173 27 1
32.539410 207.144710 -81.790443 39 1
-23.541386 280.970920 -69.072037 9 1
-131.376680 285.550540 -100.734230 34 1
-40.391701 295.097260 -57.325821 9 1
-27.397560 211.134780 82.989265 40 1
5.246962 184.503450 77.230408 26 1
0.614665 141.737200 -3.691230 0 0
-31.422779 229.206340 -12.718882 0 0
3.101565 44.180267 -5.453257 0 0
43.599720 265.737400 -76.613106 50 1
0.354563 73.404518 -0.647584 0 0
-20.369429 275.487790 59.300732 6 1
-3.245246 267.360780 -95.573486 35 1
-82.029945 305.074130 -57.167866 34 1
45.739777 260.349180 -83.576393 50 1
-6.615177 233.627550 -24.649754 37 1
-70.477623 144.966130 -77.070648 25 1
-38.645927 128.515470 -54.162735 21 1
-91.044228 287.143340 -13.874194 53 1
51.654858 271.679320 -120.893390 45 1
60.168247 113.237410 70.003922 29 1
36.023796 263.714080 -52.537018 50 1
-3.667568 292.169680 -12.008107 0 0
56.272724 243.753050 -143.157100 45 1
38.932625 230.676090 -39.056351 33 1
-17.733446 201.831530 -9.896365 0 0
12.572395 241.692260 51.367310 42 1
-27.812395 108.322690 -25.433834 0 0
-17.622889 321.591460 -18.371393 23 1
-19.001455 217.729600 69.280853 40 1
-12.914195 187.387500 111.925900 40 1
97.510391 338.412630 41.047611 12 1
-37.818485 177.255690 -132.562810 16 1
-28.648418 237.258030 -110.993850 35 1
-74.962379 290.835750 -31.792013 53 1
-138.117860 279.724330 -93.694313 34 1
6.672323 184.559880 60.171650 26 1
-15.960906 330.744200 -20.729118 23 1
111.599830 150.753850 35.044537 4 1
-38.752243 118.456310 -35.174324 0 0
11.693144 177.361450 114.100730 40 1
53.378094 151.426440 28.005602 29 1
82.954124 311.093110 -34.718067 13 1
-2.632219 222.988280 67.653442 42 1
-4.099845 51.369915 -8.096758 0 0
24.482222 349.968840 24.838253 14 1
-7.355954 322.528690 -9.556733 23 1
-51.887386 151.802280 40.547043 19 1
-63.365112 96.535927 14.156795 3 1
-15.536540 210.365160 10.959362 0 0
-3.217616 239.081480 -37.423809 37 1
-52.473595 272.635190 64.415344 6 1
62.600723 261.216060 -125.566310 45 1
79.119408 350.795590 38.748936 12 1
-7.676543 192.264540 -11.064111 0 0
-17.997213 122.833980 -19.738443 0 0
66.601883 250.840040 -69.378769 50 1
-13.910982 205.379900 64.931664 40 1
7.757104 217.805310 1.252429 32 1
-117.392450 300.855410 -93.728516 34 1
-52.007072 137.928940 -53.040623 21 1
-4.323725 159.081700 34.083103 30 1
-1.559728 211.451460 82.518288 42 1
-13.682249 186.260210 69.044411 26 1
-1.644482 335.273380 13.467903 15 1
-34.491753 182.003250 74.053146 26 1
-25.774563 268.161440 -60.156258 35 1
-11.794026 107.798590 -22.410755 0 0
-1.911143 204.267530 99.744591 40 1
56.549812 327.332180 -38.430420 13 1
-62.942265 167.234470 -136.093930 16 1
-12.394329 280.933170 -9.177019 0 0
-32.010666 257.875370 -72.472580 35 1
-41.460415 226.378560 -112.049040 36 1
-69.675491 295.060580 -41.457016 9 1
-61.420670 268.771880 71.202171 6 1
8.228492 191.719640 -2.577094 32 1
-22.964174 150.607880 -71.434868 0 0
13.795450 151.567750 -128.306920 20 1
68.011185 316.870360 -42.124550 13 1
75.727615 153.371780 28.897856 29 1
1.654574 160.623020 21.666624 30 1
-79.699783 133.860320 -67.127525 25 1
27.284916 172.012310 87.159889 28 1
-8.635824 141.832240 -9.768204 0 0
-17.954531 35.629868 -1.838820 31 1
11.239121 212.570210 -11.629879 0 0
-2.269298 196.248920 0.189374 0 0
50.228912 238.938780 -155.991240 45 1
31.068502 331.959140 55.034790 14 1
10.693089 215.396420 -47.418106 0 0
-62.724052 208.128050 59.389606 55 1
3.389078 129.141490 10.207195 0 0
-11.224801 69.484955 1.045231 46 1
13.260895 179.429090 73.574623 28 1
55.763802 137.386780 55.500622 29 1
-99.634361 196.268570 52.957077 55 1
-10.206742 225.218770 -3.163640 0 0
16.836655 239.305300 -45.796570 37 1
-5.595742 3.367194 -0.269341 0 0
-66.655548 141.606410 -64.240402 25 1
50.175888 346.104370 20.863398 14 1
36.395409 347.376460 15.784061 14 1
100.561200 335.099030 48.474384 12 1
43.304443 341.598940 -0.804685 13 1
62.017288 236.095950 19.606510 11 1
79.224808 350.132540 30.087238 12 1
89.332321 343.829800 30.521761 12 1
-95.646690 307.989960 -60.669491 34 1
125.056110 140.971710 27.570412 4 1
-11.912197 283.963200 86.059494 6 1
-35.572304 232.585860 -92.386848 36 1
4.366827 251.180440 43.532608 42 1
-19.133160 167.177730 32.360657 30 1
21.751530 335.783390 46.145447 14 1
-0.915326 242.901000 -65.951355 37 1
-59.494209 162.618350 -146.554930 16 1
5.679456 231.977390 -38.438534 37 1
-42.892960 241.491270 -14.318417 0 0
0.489806 184.292020 -3.336183 0 0
-22.898083 165.207370 -88.896072 0 0
-33.271603 344.752470 -4.611251 23 1
-78.138489 119.213060 -59.355515 22 1
-29.596455 294.078670 -55.445518 9 1
27.750822 267.046880 -49.289921 50 1
29.713079 264.129270 -79.795494 35 1
41.545250 328.511870 67.775688 14 1
17.516865 267.020230 -83.584633 35 1
64.506378 163.103870 -15.176650 5 1
-126.814090 294.252870 -88.187981 34 1
-12.359686 264.404940 -92.931808 35 1
-0.570809 89.280365 0.916385 0 0
20.655405 22.865496 -19.117931 41 1
-1.962176 212.137080 93.044296 40 1
12.273466 332.635740 10.138636 0 0
-34.359756 266.225220 48.091221 6 1
-25.864780 347.271790 -11.105902 23 1
-0.396435 200.072880 -11.422084 0 0
-39.742062 296.071110 -41.771557 9 1
-74.599869 286.329010 -15.365559 53 1
-84.344322 100.026950 -16.388454 2 1
44.735691 336.516690 19.686888 14 1
37.334930 339.059200 27.853916 14 1
-14.923104 248.680450 -43.563938 37 1
-62.529453 215.014510 100.555660 54 1
-34.806808 154.731890 14.865768 19 1
-58.719841 293.047120 -34.156792 9 1
-16.411003 207.704390 82.465866 40 1
-62.063522 167.185910 -122.651600 16 1
51.219517 263.125370 -67.376930 50 1
74.193947 243.370540 -65.545937 50 1
-79.841766 209.742360 53.743992 55 1
-25.154648 279.325870 83.385445 6 1
-46.486683 209.161960 90.292191 54 1
10.964267 237.847640 -69.998047 0 0
-83.313232 215.369770 99.672119 54 1
57.554413 157.446610 21.621775 29 1
-8.972305 141.340520 -46.521576 47 1
-7.957436 230.169220 60.927254 42 1
-43.014690 291.614500 -30.378281 9 1
-13.015826 154.878770 24.291729 0 0
-55.710278 213.828660 50.981129 55 1
-6.862311 35.991722 0.045126 0 0
-64.906792 269.517460 -28.593836 0 0
19.768486 329.532750 -0.729490 17 1
-27.133495 188.408280 62.309742 26 1
63.281483 351.179690 28.224535 12 1
5.737626 264.344640 -18.547272 38 1
-46.892925 295.784060 -63.206490 9 1
30.812805 323.148280 68.502075 14 1
-51.030174 170.205470 -133.710050 16 1
-4.815700 106.091260 -1.657376 0 0
-37.703094 158.503890 -10.568087 18 1
-67.574493 96.377022 3.998259 3 1
47.955898 251.198390 34.780777 11 1
77.169685 153.616500 12.095153 5 1
54.049450 338.547000 -4.862657 13 1
84.111053 166.088880 8.472662 4 1
-43.709335 243.787890 -72.064697 35 1
1.346342 191.352400 106.860380 40 1
-85.291283 124.468600 -67.149536 25 1
-6.835171 210.317410 -12.012930 0 0
-110.157160 284.809020 -21.626970 53 1
-8.241491 181.241330 73.664047 26 1
-33.651070 161.867430 22.438871 19 1
4.492688 238.675290 63.817059 42 1
-49.382004 206.959530 73.655685 55 1
14.495725 234.324480 59.543324 42 1
39.031490 270.054140 -110.959650 45 1
-75.126663 108.039700 -45.706684 56 1
23.072914 173.892290 107.155410 28 1
72.722710 242.309050 -48.738049 50 1
-89.229797 276.277100 -1.582525 53 1
62.292171 262.988460 -81.493187 50 1
-69.661469 210.957870 41.456024 55 1
4.992179 228.901380 -52.312786 37 1
39.869610 272.365660 -82.250710 45 1
76.725792 161.076460 3.289562 4 1
-5.874298 62.099388 -11.367683 0 0
-16.139441 146.270770 -33.951496 0 0
-30.917820 326.070100 -9.574799 0 0
85.258812 349.566680 15.610244 12 1
63.232159 137.057820 3.923943 0 0
-47.916939 155.113880 24.351772 19 1
-68.447578 104.727060 -9.071820 3 1
5.970902 214.357790 90.761696 40 1
-109.987350 305.689330 -53.427662 34 1
-2.392480 318.529540 3.872645 0 0
13.359615 191.331600 -41.533012 0 0
-43.077591 151.223500 49.237514 19 1
6.046669 271.739010 -24.290596 38 1
-10.294943 261.308500 -69.926796 35 1
85.229080 156.826450 -1.405548 5 1
-101.102070 183.671480 134.266390 54 1
13.669595 183.969420 -34.917850 0 0
24.082792 231.324230 -73.538635 39 1
-23.427883 240.510860 -102.400850 35 1
5.077332 151.625050 40.175808 30 1
1.919527 94.161804 -8.224406 0 0
77.789101 163.860860 -21.290743 5 1
27.223454 177.964370 113.245280 40 1
-13.257467 272.649810 35.298897 7 1
-65.046379 103.168110 -0.359868 3 1
38.776096 268.011930 -124.138700 45 1
78.230629 234.996950 -55.395130 50 1
-30.941792 129.946950 -57.329979 21 1
-62.552837 207.549800 125.956730 54 1
-83.949585 207.914610 40.021389 55 1
-6.255117 58.669315 25.057369 43 1
-33.395729 165.477650 -95.092636 25 1
23.029827 245.193120 49.940636 42 1
45.470116 343.834320 14.006681 17 1
-6.894318 261.010620 -79.170013 35 1
53.110302 159.063690 46.976578 27 1
-69.729782 145.973750 -155.417510 16 1
-20.332373 154.270020 29.512016 0 0
-96.773125 95.517349 -5.720967 2 1
30.991148 222.432010 -65.656364 39 1
-2.335419 236.370060 -94.594688 36 1
-47.945110 85.407700 -12.358054 0 0
-1.885329 127.902990 -8.880228 0 0
-141.515640 294.546020 -69.125450 34 1
3.669075 166.730680 -38.471912 48 1
50.904060 263.655180 -122.862220 45 1
-84.717354 282.149630 -11.915564 53 1
14.843017 254.959060 41.954487 42 1
66.311264 220.343060 -155.099720 45 1
15.536564 244.038390 -5.991266 38 1
64.845512 252.162640 -143.761280 45 1
53.226986 332.208070 -22.840364 13 1
-8.141069 211.929990 87.524208 40 1
-83.653191 285.205900 -21.717051 53 1
27.478411 144.874980 -110.785050 20 1
-4.561178 175.964890 -27.122116 0 0
1.723436 176.039550 -5.560984 0 0
-40.624840 202.294800 78.755302 40 1
26.553085 236.724330 -31.014467 33 1
27.150284 331.215580 -7.644600 17 1
-15.780056 136.586380 -53.811817 0 0
32.346889 171.121370 71.308357 27 1
-76.976875 216.622740 31.293104 55 1
87.870888 154.226210 -27.694586 5 1
58.279430 338.003050 10.683637 13 1
-7.739167 130.906600 -42.095905 0 0
5.340775 170.573790 -99.991409 20 1
-96.502777 92.932983 -44.937237 56 1
39.667076 246.389270 -150.846050 45 1
-59.877407 144.346100 -68.038490 25 1
14.140898 163.399400 -110.966710 20 1
7.663825 263.168730 -68.354187 35 1
6.861429 190.925020 -36.493530 0 0
-0.298844 165.612780 -18.317621 0 0
-64.472244 297.494510 -49.307907 9 1
-42.903244 230.594040 -101.181110 35 1
54.684349 253.640910 -56.563667 50 1
-12.809535 116.402150 -13.592716 0 0
11.227467 169.299620 103.435360 28 1
-64.765411 129.193620 -48.508038 24 1
34.900822 210.571230 -74.040123 39 1
29.341812 134.690280 -121.570940 20 1
-5.876441 284.248230 -12.942674 0 0
-34.494125 187.280300 54.555595 0 0
34.024799 347.291320 23.654551 14 1
8.478139 169.935970 16.169687 51 1
25.536676 258.196500 -58.345676 50 1
38.008053 337.402740 -15.056835 17 1
16.676437 341.928100 38.411987 14 1
14.713136 259.628970 -75.493332 35 1
1.355157 238.003430 -5.222790 0 0
11.120265 29.471588 -16.292446 41 1
-4.231714 21.188286 0.439503 0 0
-101.110830 272.924530 3.304398 53 1
-13.902401 144.714360 17.352472 0 0
10.068303 204.168720 101.554990 40 1
13.002943 206.344920 -46.833607 0 0
17.493921 236.810550 -55.970058 0 0
62.093758 233.059660 -157.065580 45 1
-11.308365 183.696620 81.671356 26 1
-15.329375 154.934540 -10.442168 0 0
-43.325253 292.305820 -50.140392 9 1
76.986717 320.053310 -23.745277 13 1
-100.604670 192.831380 40.599636 55 1
-21.878014 186.688810 78.713089 26 1
-62.579880 137.296330 -16.312857 18 1
-13.631766 144.303480 5.893907 0 0
-56.455658 210.633410 85.160950 54 1
2.088684 164.546830 -26.073557 48 1
45.270821 336.075260 59.136253 14 1
13.322315 152.552860 43.182842 0 0
63.980419 148.499920 53.207874 29 1
16.944902 233.566990 -17.841042 33 1
71.961365 249.614700 -54.912292 50 1
23.923496 335.528410 -14.465883 17 1
-49.019379 291.866850 -70.094536 9 1
18.727661 166.350630 25.212263 51 1
-11.276055 282.620540 68.853958 6 1
-57.060513 116.214970 -6.597027 24 1
21.051437 105.814620 1.012049 0 0
31.671612 212.913300 -87.570244 39 1
-48.983944 218.259630 -109.435640 36 1
22.983223 153.287020 -113.286740 20 1
59.784561 153.916530 34.327019 29 1
-9.136375 317.226100 -15.438453 23 1
-18.395227 287.122070 -63.667805 9 1
-56.222893 100.941860 12.865305 3 1
-100.747270 306.172360 -76.701881 34 1
-27.709433 218.074250 68.879860 40 1
60.608280 117.301270 63.012871 29 1
-29.267160 68.816895 -8.835307 0 0
-26.051666 280.894620 -82.706322 9 1
44.366737 335.969120 45.420330 14 1
-16.983042 277.887820 -94.650726 9 1
8.571960 135.056000 26.134869 0 0
-132.974400 300.319340 -61.649307 34 1
-54.522091 261.689360 -20.480116 0 0
-30.013895 290.902470 -75.275871 9 1
-66.504616 143.469670 54.427254 19 1
-64.109467 297.318180 -59.843315 9 1
96.896896 157.353240 12.915604 4 1
-24.280365 258.705690 -69.484482 35 1
-38.608631 237.028370 -19.680698 0 0
-16.591766 203.721210 93.843292 40 1
10.977934 348.668640 15.168898 10 1
-3.733009 242.756000 52.661579 42 1
-89.302437 97.555038 1.232238 2 1
55.253578 256.495420 -69.534714 50 1
-86.734161 103.069980 -5.020177 2 1
-83.838493 210.757570 111.162510 54 1
-3.911001 166.095000 -127.147120 20 1
20.452938 265.332000 -72.988358 35 1
-51.164970 131.163130 -31.542519 24 1
-13.798717 218.317170 -23.010460 0 0
60.496387 251.251140 -48.936954 50 1
-7.872827 246.404220 -58.361187 37 1
5.911815 320.419460 34.274887 15 1
15.477517 133.448320 -126.435710 20 1
-91.764229 192.469850 131.351410 54 1
12.556854 206.589250 -6.312061 32 1
-18.948709 67.067757 -6.273726 0 0
-23.584070 257.365540 37.954296 0 0
71.542358 353.279600 19.739391 12 1
15.598310 186.258930 109.467450 40 1
-19.415974 148.771220 -79.220047 0 0
-68.571991 104.024730 -31.265659 56 1
23.509737 272.943120 -95.442719 45 1
-9.993409 330.134580 -11.514105 23 1
-26.318651 287.566040 -61.353710 9 1
7.044517 195.925450 14.933086 0 0
-10.871309 230.362370 68.812767 42 1
-15.902904 211.041490 89.727043 40 1
-23.800179 238.167040 -24.047091 1 1
-25.475567 249.706300 -100.621090 35 1
-56.258148 214.058120 69.794868 55 1
-99.758698 285.304380 -21.269732 53 1
-76.835121 210.855620 97.448425 54 1
-39.697136 237.776690 -80.834267 36 1
-88.252708 200.327970 124.849150 54 1
54.132259 152.835720 70.303261 27 1
-35.426010 243.375810 -23.699154 1 1
-45.831596 148.366940 -4.589422 18 1
-4.324460 227.335860 -14.838264 0 0
-2.567989 153.874800 10.980320 0 0
-24.122923 153.009640 14.041347 0 0
2.992771 161.491210 -125.287780 20 1
-55.355236 291.715120 -44.277168 9 1
12.088615 195.766270 104.992160 40 1
-14.020748 130.558400 -12.215643 0 0
37.544209 254.176850 53.162312 8 1
-12.942314 252.195160 -11.631432 0 0
-7.258407 299.277920 -6.900580 0 0
-86.385994 84.652763 -61.185360 56 1
-112.302920 266.128630 -1.602143 53 1
-115.111650 255.058060 4.618454 53 1
61.631184 244.404340 12.392550 11 1
-8.051396 176.260930 14.996941 52 1
118.393750 150.987150 16.674616 4 1
48.583809 331.035060 -35.434441 13 1
35.171299 235.737660 -27.516033 33 1
-10.691577 196.852290 8.889554 0 0
-11.564360 188.881650 61.856274 26 1
-1.144038 185.742000 72.614967 26 1
29.598604 359.692500 27.287201 10 1
55.003147 253.975270 72.884186 8 1
-5.090265 170.277040 -115.041480 20 1
-1.815785 112.130740 -11.225170 0 0
3.384176 236.722750 -52.621616 37 1
7.687982 153.226560 -11.876676 0 0
2.787820 145.696850 -51.695126 47 1
5.192979 239.822510 -78.444778 36 1
-17.656567 169.982970 -100.837380 20 1
-35.699848 177.644360 -109.201460 16 1
-82.130737 95.102730 -51.446583 56 1
-13.062106 186.016430 -3.817056 0 0
64.379677 250.961930 -40.342930 50 1
-83.890800 200.239640 52.623795 55 1
57.869137 236.020780 -149.172900 45 1
-30.266932 353.772520 -10.103607 23 1
-64.155968 114.463830 -21.614422 24 1
16.267469 355.842650 34.413326 10 1
-9.557725 137.029800 -28.797865 0 0
-14.862582 139.027040 -67.151794 0 0
72.284653 151.508740 4.793825 5 1
9.812899 149.583220 30.846901 30 1
-59.852287 124.141000 -32.483990 24 1
86.366684 158.168950 32.889965 4 1
-72.387398 126.205660 -58.254620 22 1
-0.417195 179.386690 -91.617142 20 1
-17.228609 269.401250 -105.912800 9 1
23.007948 324.043370 65.835457 14 1
43.802551 262.304990 -52.042713 50 1
-48.869385 225.748340 -92.543732 36 1
-14.063632 275.236420 -14.408249 0 0
64.183960 162.593990 5.424778 5 1
8.625234 185.258640 7.962328 0 0
-30.569668 157.282030 28.575670 19 1
8.862709 173.284440 -26.088734 0 0
51.680649 343.225770 9.208122 13 1
-8.008702 143.713120 11.467823 0 0
34.521927 251.773900 30.033386 11 1
-5.798027 117.389360 -0.826843 0 0
-1.174061 223.241210 -1.752935 32 1
45.480503 171.171300 71.410812 27 1
-16.740129 246.909910 -89.444328 36 1
21.211826 185.552510 88.821175 28 1
-56.241909 267.172790 83.895309 6 1
-31.314032 297.770570 -43.148312 9 1
82.642944 145.324810 34.436184 29 1
21.531473 166.087220 120.371900 40 1
-41.336399 265.247920 57.506927 6 1
9.682387 183.510940 17.428453 0 0
-33.931328 133.296480 -75.035942 21 1
56.834812 218.822330 -162.992070 45 1
-38.570045 213.877850 71.981407 40 1
74.793091 328.498720 -19.945057 13 1
79.206284 157.879850 -11.137457 5 1
-30.674328 168.040500 -103.606220 20 1
-57.766762 174.027980 -120.138490 16 1
49.689110 265.172420 -134.743880 45 1
2.077203 166.532610 -114.750340 20 1
-17.274939 206.605120 -16.078686 0 0
5.918730 200.846770 2.285832 0 0
35.945950 164.430560 94.133858 28 1
35.818069 369.341030 43.190872 10 1
38.237774 260.024810 -77.158554 0 0
83.982094 158.319790 9.295020 5 1
-125.484230 254.848010 -1.411716 53 1
0.537953 41.004459 1.207112 0 0
-19.485603 130.492610 -19.990948 0 0
-34.991138 174.040190 -94.134552 25 1
53.937748 151.059040 46.404400 29 1
3.421783 30.895750 -4.915977 0 0
-21.122633 248.081630 -108.502030 35 1
-46.538906 172.258850 -127.672020 16 1
-54.715191 136.253560 -45.756367 22 1
62.303074 256.372500 -131.671890 45 1
-1.260093 318.111540 43.149078 15 1
71.968475 245.576950 -41.702724 50 1
40.455765 341.033750 -8.077991 13 1
-26.091143 242.535690 -90.728821 36 1
-50.741287 272.800660 55.589134 6 1
-3.260237 328.978360 17.755129 15 1
9.528566 157.726360 34.899963 30 1
-74.516708 96.304993 -10.561629 3 1
25.018562 28.350189 -15.399231 41 1
-85.569176 92.056152 -28.903578 56 1
-32.936924 250.264650 -74.729942 35 1
-26.991825 150.320400 0.092729 0 0
9.431211 268.659090 -88.894798 35 1
-43.142994 133.941100 -57.730145 21 1
8.512861 144.676180 -63.516579 47 1
-29.848286 333.946320 -2.128824 23 1
-151.165300 266.030820 -99.070389 34 1
-16.904062 222.821960 22.729969 0 0
64.191269 171.053680 -24.595737 5 1
-10.399176 129.156970 -5.336634 0 0
26.016384 180.867660 95.828819 28 1
-14.542665 304.707760 -14.023759 23 1
-55.767666 155.219420 33.456726 19 1
50.895870 151.867740 58.106079 27 1
-15.039436 219.372250 -15.443683 0 0
-78.223106 207.851210 62.166420 55 1
-56.779663 211.502640 120.049020 54 1
11.733584 176.117800 -0.599224 0 0
33.688862 161.811460 19.858614 51 1
8.414481 140.541230 -4.247892 0 0
62.773567 265.812710 -134.573870 45 1
-125.657220 247.313100 0.792866 53 1
-40.506535 153.587840 34.129368 19 1
-3.900975 190.461550 8.036136 0 0
41.696198 164.633000 7.944717 51 1
-9.427041 58.642651 15.410800 44 1
-7.801660 66.484810 -5.303107 0 0
13.682283 220.617780 -13.708701 0 0
-8.724034 56.397610 7.113204 46 1
-4.522283 97.121994 -11.289316 0 0
12.672170 269.477020 -99.682755 9 1
-35.831364 197.309880 62.422993 0 0
-8.907044 266.958250 -9.519739 0 0
-23.385485 282.405700 62.189037 6 1
-21.555994 340.764560 -12.620912 23 1
41.220051 258.209690 65.343285 8 1
-98.790855 99.542763 -15.905521 2 1
73.856140 254.135450 -70.142036 50 1
9.784582 267.531040 -29.701193 38 1
-65.605385 217.005140 50.267105 55 1
16.912508 118.418960 -130.056990 20 1
-26.583960 264.886750 48.805222 7 1
-22.121370 159.560970 18.105532 0 0
-8.551504 240.887210 -82.919296 36 1
-10.248353 162.678480 10.448458 30 1
-58.837978 82.238060 30.026308 3 1
43.047073 165.330800 52.367855 27 1
-51.856113 174.157750 -140.369020 16 1
-65.789330 64.189896 31.619183 3 1
-19.121979 203.071040 58.425671 40 1
-2.783566 163.937520 27.002544 30 1
-77.777313 198.795170 128.863140 54 1
-99.590317 85.318855 -57.874481 56 1
-66.259537 262.935730 83.182030 6 1
-3.337826 175.118360 115.407420 40 1
-15.633018 310.647060 -8.865106 23 1
-64.710388 127.459180 -37.581192 22 1
-4.653923 329.280330 39.606834 15 1
-10.501723 232.728490 -6.527009 0 0
-25.127790 219.575760 -19.684401 0 0
-14.629031 162.921420 -14.941904 0 0
-42.738117 211.058620 -110.523720 36 1
-56.953831 118.282420 -21.318771 24 1
20.061083 229.112960 -23.899200 33 1
-53.960430 146.399060 55.468845 19 1
-12.340093 159.643080 -23.188608 49 1
-17.037794 24.412207 19.644381 31 1
85.987755 229.956670 -48.411709 50 1
14.493643 183.833970 79.726799 28 1
-42.457050 265.959780 66.752525 6 1
8.934261 213.777940 -54.914204 0 0
-89.852676 201.254430 43.853161 55 1
44.462296 261.974670 -61.354362 50 1
20.750031 180.077680 102.653380 28 1
-44.140709 220.003420 -98.017761 36 1
35.066196 250.855620 39.987301 11 1
-20.783001 214.244320 -9.751350 0 0
25.585070 170.477220 16.706434 51 1
-4.230155 238.561460 63.485897 42 1
53.531990 255.841520 -36.064129 50 1
-67.411858 101.018040 -22.400381 56 1
69.148788 131.170430 60.853729 29 1
-13.100556 114.554790 -26.083649 0 0
65.019531 259.414730 -61.849438 50 1
-4.846860 186.703900 58.964935 26 1
118.809040 142.722430 35.497681 4 1
-45.749104 171.663650 -95.645409 25 1
-14.771156 221.223220 14.503980 0 0
77.288986 159.700180 -37.548519 5 1
-43.059586 273.190430 41.751831 6 1
-104.140720 93.589783 -6.090625 2 1
21.889513 359.784000 37.713764 10 1
19.743185 209.123750 0.444839 32 1
-17.982965 268.844510 40.513462 7 1
-16.150537 268.742220 -115.606540 9 1
-24.343565 273.043640 51.242504 6 1
-23.857025 223.034060 -1.098065 0 0
63.683678 273.835880 -118.207570 45 1
13.999876 198.273300 -38.386200 0 0
39.488632 113.603760 3.560292 0 0
42.757282 340.329470 -26.124544 13 1
58.824371 333.913060 -0.015287 13 1
-55.645020 136.062000 -3.425663 18 1
-25.371851 161.603420 32.045425 0 0
-41.422989 165.469530 -94.847221 25 1
3.141192 268.229950 -75.100220 35 1
21.445158 143.738100 -125.582500 20 1
-27.886768 176.063610 9.985456 52 1
10.437467 337.283110 4.204281 17 1
36.625145 257.708070 -65.884155 50 1
71.208420 157.312130 15.848578 4 1
-12.710104 197.355880 -14.312628 0 0
-22.435413 333.263850 -8.128334 23 1
-13.987436 268.160130 -68.742485 35 1
21.571190 227.930740 -79.829712 39 1
-69.610329 204.544220 57.403687 55 1
-5.148739 84.647301 -3.051249 0 0
31.099388 259.670040 61.343075 8 1
-68.948425 292.414310 -56.714321 9 1
23.538597 156.159960 122.158030 28 1
15.950652 327.134310 72.950661 14 1
-22.841581 193.012650 104.592900 40 1
-21.137539 215.407840 82.151047 40 1
-27.350386 14.431380 15.712993 31 1
12.904354 181.383770 99.978432 28 1
-16.379230 243.224670 -35.995190 37 1
7.327367 201.409070 -45.103161 0 0
-70.227066 209.715070 66.217102 55 1
-54.164989 295.874570 -58.478916 9 1
-17.751093 206.074040 5.161348 0 0
67.157013 332.040770 -17.081886 13 1
38.256599 331.859010 -21.108870 17 1
1.743223 100.508580 -3.731210 0 0
46.769661 244.094160 37.059811 11 1
10.358560 330.915860 21.737978 15 1
10.202937 258.364720 -90.475677 35 1
-64.130196 216.890460 36.888073 55 1
2.297953 164.196410 14.438896 0 0
2.374602 158.092150 37.351425 30 1
-81.731834 112.541550 -58.218513 22 1
62.732758 233.936190 33.375072 11 1
67.324448 230.765110 18.777447 11 1
-116.090720 271.212590 -9.780811 53 1
-11.326221 129.404800 -31.861610 0 0
33.440090 327.508970 62.194168 14 1
-2.377017 145.735140 -11.167371 0 0
-68.108093 74.074654 25.119049 3 1
-15.946194 200.788970 -20.630980 0 0
25.685862 229.163680 -6.832073 33 1
-62.193047 267.958440 78.691673 6 1
-8.226624 32.192234 12.720469 31 1
71.196457 147.427190 29.436008 29 1
-109.199740 86.575005 1.686953 2 1
-61.271942 175.406050 -111.661990 16 1
10.292991 332.960080 67.490067 14 1
35.631187 256.836240 23.710045 11 1
26.458998 256.802980 39.117699 42 1
-74.518112 99.748688 -26.029493 56 1
-49.206139 130.465740 -20.616047 24 1
-81.900108 280.412780 -0.798049 53 1
-20.272671 140.400830 -31.175356 0 0
5.943356 175.231430 102.302110 28 1
-49.513657 215.765550 109.700540 54 1
-2.088777 132.276440 -0.695781 0 0
69.197296 159.356930 -8.725931 5 1
65.274918 153.894470 12.240805 29 1
-99.242516 310.601410 -70.718765 34 1
17.568729 224.856720 -60.668255 0 0
5.151071 38.928829 -12.549628 41 1
-109.080510 263.117980 4.740571 53 1
-14.601139 161.852420 29.803955 30 1
-5.723670 151.496410 -29.848606 49 1
37.633801 339.938690 42.669270 14 1
21.941553 330.967010 68.615974 14 1
19.056885 246.225370 60.456867 42 1
0.448494 60.325596 -7.036680 0 0
14.440206 249.384950 -18.076714 38 1
-46.508549 136.337910 -44.410095 21 1
24.414845 331.657650 51.723568 14 1
0.797504 163.431950 -11.194840 0 0
90.591751 154.953290 25.946953 4 1
-17.625031 159.680850 6.459671 0 0
-3.661122 155.657270 -20.141241 49 1
-93.850037 96.307083 13.046714 2 1
-18.699034 231.602050 28.392660 0 0
48.595066 330.591130 -11.377699 13 1
-80.041245 200.128740 62.382835 55 1
2.469206 121.840290 9.257848 0 0
34.280338 341.247740 4.526491 13 1
-59.550098 159.949980 -77.652580 25 1
-30.169147 341.445830 -13.874177 23 1
17.820494 26.521338 -24.908546 41 1
33.146275 269.301910 -93.000122 45 1
15.098050 33.174427 -5.428647 41 1
-44.031670 212.216490 99.105316 54 1
32.643063 361.788240 34.503971 10 1
73.256142 243.069050 -31.283815 50 1
5.371476 176.664630 14.424062 0 0
-1.402486 160.717010 -35.731503 48 1
3.277198 1.920497 1.449365 0 0
16.100372 196.319820 11.563082 0 0
-127.064010 298.251650 -68.719711 34 1
-21.629999 280.359680 76.961494 6 1
34.673134 235.070300 -34.921177 33 1
-2.537674 146.623370 -39.658794 48 1
29.346867 337.440520 -19.097723 17 1
-11.239130 258.597810 -106.715610 35 1
-115.317460 305.295590 -69.174850 34 1
-9.896677 168.256560 -4.925149 0 0
-35.342197 229.404040 -99.332756 36 1
-1.830712 234.209790 58.042976 42 1
-20.763130 172.162600 7.944833 52 1
2.735827 189.596250 11.790256 0 0
66.476730 342.738460 2.065155 13 1
-39.584263 132.123750 -47.559242 21 1
4.657356 185.440400 109.742430 40 1
-17.563494 232.126250 -117.852690 36 1
-6.227450 117.942580 -23.966961 0 0
12.360579 338.191220 48.921867 14 1
1.717701 186.313260 65.320770 26 1
-30.645710 186.204930 -131.412450 16 1
103.279790 340.255550 36.682594 12 1
-20.299438 170.226410 -113.482200 20 1
25.062651 363.249150 32.057716 10 1
-5.892031 184.804290 2.437608 0 0
-6.055013 177.163440 -9.090629 0 0
-10.109892 53.554569 29.310337 43 1
-57.953880 261.792110 89.243324 6 1
-121.762770 293.990020 -80.386467 34 1
-43.910789 228.143130 -87.677170 36 1
-79.186844 118.106730 -47.118900 22 1
-49.906494 217.491930 93.000526 54 1
4.499321 108.845740 4.928571 0 0
-20.344770 245.617220 31.964296 0 0
-34.317635 313.017060 -4.592758 0 0
10.084002 131.843000 3.831637 0 0
-105.522720 307.887080 -66.959549 34 1
69.250282 153.771320 25.470703 29 1
-49.583096 269.075930 80.568123 6 1
30.719110 276.184200 -103.429440 45 1
-25.899565 21.689131 11.007440 31 1
-25.436781 283.317080 69.579865 6 1
-96.545158 172.400570 141.070850 54 1
15.810849 142.891590 -131.330430 20 1
-120.271350 305.253660 -60.185455 34 1
26.984163 278.175990 -116.137810 45 1
36.953465 168.971940 56.055046 27 1
-70.684250 129.691480 -9.400868 18 1
-56.794319 129.921420 -37.194366 24 1
-53.764610 121.731320 -10.537640 24 1
33.809521 174.853450 85.307510 28 1
-4.522072 171.774640 -17.638264 0 0
-7.850411 101.169060 -6.176131 0 0
-20.528811 139.434660 -58.597767 0 0
-12.657907 177.578450 -98.030922 20 1
3.019763 14.947420 -0.145974 0 0
-57.194016 148.402620 44.256321 19 1
31.449860 163.514040 110.828380 28 1
50.627819 343.898130 36.238029 14 1
-11.231977 41.125801 40.431110 43 1
-59.440113 270.474430 63.994568 6 1
-25.307913 218.749530 76.887039 40 1
-67.280930 136.119090 -54.072620 22 1
-47.980038 158.844730 12.457173 19 1
20.249477 129.599620 -130.696550 20 1
24.141520 176.264920 82.125618 28 1
42.687061 343.030550 31.940664 14 1
-4.285160 265.391970 -63.279514 35 1
-2.828690 184.246110 -32.201935 0 0
-4.109222 266.244450 -83.423927 35 1
14.603108 176.852620 90.694458 28 1
-21.083582 131.178770 -6.520413 0 0
-17.610256 279.665500 84.550011 6 1
23.708782 234.633210 -14.898281 33 1
-64.632942 206.619930 74.972267 55 1
-91.209084 305.644740 -65.980209 34 1
19.879734 235.430940 -69.230980 0 0
-61.226475 213.208830 64.389259 55 1
89.863708 155.890110 -15.879713 5 1
60.989944 326.634430 -31.025501 13 1
-57.572960 152.068890 -75.458000 25 1
-69.483276 292.513610 -23.878113 53 1
22.412539 236.373610 -78.501640 39 1
-16.141386 265.159970 -9.915297 0 0
-11.303193 273.631710 -96.323547 9 1
-7.916799 107.751690 -11.314650 0 0
-53.708656 158.574890 -66.812653 25 1
-16.001125 255.849730 -86.969574 35 1
-46.930992 218.861210 52.775135 55 1
18.319193 262.833310 -89.507950 35 1
-92.692093 88.317192 -32.304173 56 1
32.655624 218.540990 -58.391315 39 1
15.089201 341.386380 14.793694 10 1
-5.504517 51.847229 -0.878707 0 0
27.960119 340.194920 -2.732872 17 1
-37.869625 177.785140 4.371766 52 1
-23.920452 259.806460 -76.890182 35 1
56.719566 148.869520 64.829910 27 1
99.992874 156.328860 36.333794 4 1
124.922810 141.851390 20.297220 4 1
-84.517159 301.265410 -51.540745 34 1
-37.807823 173.682110 -114.911350 16 1
61.522133 338.488190 -5.131817 13 1
-24.394533 277.348820 -108.765460 9 1
21.401514 212.517760 21.420914 0 0
-35.606155 173.828120 -85.050034 25 1
-54.817638 168.489580 -92.024025 25 1
-90.033577 182.497530 144.136990 54 1
78.848045 233.618940 -36.368614 50 1
46.677464 164.444950 58.748428 27 1
-14.018067 179.600270 -16.129526 0 0
96.413765 166.052310 8.293564 4 1
-71.522507 105.215450 -18.205194 56 1
-13.677748 173.211990 -120.446030 20 1
-55.488018 263.122830 73.431732 6 1
66.790398 355.810030 36.796803 12 1
-95.920036 280.306210 -0.938469 53 1
10.297411 344.974090 45.474258 14 1
64.094093 170.565200 -4.571183 5 1
-82.283737 211.190630 32.675381 55 1
-55.821999 273.239440 50.498940 6 1
11.740648 350.934450 22.157543 10 1
26.861572 334.394710 60.767750 14 1
34.833290 162.930110 101.086760 28 1
-33.870480 231.428040 -19.950628 0 0
-142.408390 274.212130 -104.404170 34 1
63.640045 331.627990 -5.734308 13 1
-67.958473 291.403200 -47.475689 9 1
1.579355 77.022026 -6.811955 0 0
-105.515120 268.122130 -8.819518 53 1
13.404770 163.363720 119.890900 40 1
-22.144291 234.692350 -108.001530 36 1
-78.967354 291.319950 -45.319946 9 1
38.349918 176.629210 54.959419 27 1
59.738438 143.705310 56.478386 29 1
85.590462 349.269930 33.564823 12 1
71.973480 167.661040 -15.732871 5 1
-3.303458 170.076980 -101.516480 20 1
-11.929023 137.692180 3.665865 0 0
-35.730659 208.940540 84.951927 40 1
-39.045284 339.917240 -5.151849 23 1
11.255400 224.249360 2.017673 32 1
50.802135 130.669620 2.545697 0 0
-50.215977 168.333450 -100.406780 25 1
-38.559021 232.344990 -106.856740 35 1
55.485317 137.432240 7.147762 0 0
-0.123870 275.975950 -35.581539 38 1
0.235598 244.501420 -76.211807 36 1
44.315170 262.906490 -139.782030 45 1
-21.427851 152.977720 -84.654442 0 0
-97.990623 285.117370 -13.718615 53 1
-93.144508 201.393650 50.648361 55 1
-5.824961 152.870510 -3.468930 0 0
47.275845 249.091170 23.635809 11 1
-47.941532 177.282470 -116.785000 16 1
10.507944 98.152863 2.189417 0 0
38.721310 274.697600 -98.229492 45 1
-30.713045 132.297360 -65.650284 21 1
38.572048 256.254610 71.888176 8 1
45.380138 338.733280 -13.001487 13 1
80.790993 160.162660 19.582108 4 1
-5.536245 126.939930 -15.765762 0 0
-3.074298 159.673130 15.774248 0 0
78.242287 160.445720 27.279041 4 1
-2.719749 49.682411 36.905491 43 1
-4.134177 186.487920 -8.811914 0 0
78.228859 314.512420 -30.013926 13 1
3.814510 238.826600 -39.996780 37 1
-3.221594 328.878300 32.536446 15 1
21.591936 156.306270 -106.009460 20 1
25.314592 164.682400 103.404790 28 1
-81.976593 207.737290 118.027570 54 1
-104.137890 93.574432 8.238443 2 1
9.949141 336.481900 -6.734189 17 1
-39.506817 151.991700 1.891205 18 1
-18.852221 28.217779 4.488743 31 1
-101.868880 191.784530 47.536732 55 1
77.387276 155.813310 -1.873613 5 1
79.560783 351.686490 21.287222 12 1
-129.868640 293.995850 -74.197762 34 1
-14.635842 150.633800 -72.972740 0 0
20.800991 359.866910 25.558575 10 1
64.789474 139.621490 45.341648 29 1
73.035507 139.693500 50.427021 29 1
-4.476631 166.935500 14.156975 0 0
-41.747684 174.240650 -104.450840 25 1
-13.325686 264.856870 -100.644200 35 1
34.525887 169.745860 62.842308 27 1
33.142220 262.899350 -69.274292 35 1
4.724394 88.678848 -4.429472 0 0
1.478239 194.956390 -41.165977 0 0
-55.780918 210.200820 112.925900 54 1
3.967474 232.500440 68.491158 42 1
-37.658791 239.429810 -92.748772 35 1
8.290619 345.559270 30.168999 10 1
19.124626 341.887510 -13.477622 17 1
-72.739601 213.199160 91.128128 54 1
-55.689278 217.030640 88.896896 54 1
8.032414 161.377670 -2.290577 0 0
66.515404 142.668580 7.807429 0 0
-61.574333 222.302900 40.696114 55 1
16.046129 40.282196 -6.144650 41 1
10.007710 151.870000 -122.317760 20 1
-87.144699 291.486880 -23.332232 53 1
-4.276940 270.126560 -71.572021 35 1
56.809113 241.958500 36.823540 11 1
-78.464539 212.325580 41.967812 55 1
15.995331 173.286440 55.078072 0 0
10.666944 148.033310 -6.241324 0 0
-49.092609 234.126140 -82.910103 35 1
-0.492476 235.642140 -64.651657 37 1
-59.167507 70.954277 36.999580 3 1
77.935188 129.814620 50.553699 29 1
94.718063 155.671130 -29.198515 5 1
-32.779915 284.423800 -78.447357 9 1
-28.222517 170.915700 -93.744896 25 1
-18.028631 130.361330 -34.020889 0 0
49.333443 255.176120 -133.898670 45 1
-11.394761 210.369080 -18.660883 0 0
28.011501 141.328460 -119.553250 20 1
57.879715 151.800250 16.555380 29 1
-23.108646 280.016630 -10.292858 0 0
-29.097988 204.956910 86.049103 40 1
125.882220 132.096650 29.211712 4 1
-133.818600 291.305210 -85.271950 34 1
-23.798479 245.238750 -32.499878 37 1
-34.035351 197.563170 99.712822 40 1
52.602676 229.351680 -161.582370 45 1
-11.246168 87.314957 -20.012390 0 0
-61.762653 157.126460 -156.527050 16 1
76.037910 142.208130 43.792988 29 1
9.795471 222.936100 -57.991497 0 0
22.864006 154.255630 114.478840 28 1
-11.684982 231.189760 0.260076 32 1
-1.593769 96.311752 1.065892 0 0
-21.766142 160.662290 -83.644508 0 0
63.785416 246.090150 -148.005460 45 1
59.858681 152.349750 58.119270 27 1
0.905556 326.123870 22.773584 15 1
-91.625160 100.148650 -15.941666 2 1
-1.811146 271.682310 -60.518490 35 1
18.301876 259.736210 -22.556938 38 1
10.788548 171.443410 110.295460 28 1
-95.809830 96.262321 3.554759 2 1
38.857109 265.495030 -131.042630 45 1
32.979904 172.390460 100.344210 28 1
32.421974 258.057650 -56.945583 50 1
-69.071976 210.624730 116.584930 54 1
-65.909607 284.000890 -34.004631 0 0
-66.687546 154.784500 -87.243179 25 1
-3.956532 28.327805 1.030516 0 0
71.817886 163.817810 -3.570405 5 1
-13.893368 121.542040 -25.953871 0 0
-11.333397 140.799580 -39.175564 0 0
55.545223 261.849370 -77.317024 50 1
66.906067 261.670590 -75.734848 50 1
18.584196 174.296260 11.799614 51 1
-19.207788 98.637024 -22.178011 0 0
-89.336060 308.961610 -56.985111 34 1
-149.314000 276.445710 -92.452698 34 1
-82.760666 78.719673 8.751073 3 1
63.638138 163.066560 -1.627501 5 1
-116.456990 260.295350 -0.474418 53 1
24.105829 178.489180 62.741657 27 1
-37.408619 209.290730 66.337090 40 1
-49.249138 216.302470 -101.678060 36 1
0.227897 55.916958 1.450691 0 0
-41.939018 268.320890 47.075745 6 1
-5.892151 242.042510 -43.162411 37 1
72.642166 159.983370 -24.022066 5 1
41.886452 342.912870 -19.345501 13 1
-11.528319 167.313570 -19.521585 0 0
10.464373 184.234890 114.053180 40 1
2.777190 326.477840 36.818089 15 1
-16.653782 210.061490 59.255806 40 1
-38.362080 220.235990 -109.637220 36 1
-69.184151 163.655260 -134.703670 16 1
-41.621094 217.107390 63.180447 55 1
23.264214 262.425170 -63.409924 35 1
6.158257 267.799130 -82.317932 35 1
-15.726064 265.664760 -77.064552 35 1
4.211452 117.087260 -1.714969 0 0
68.423714 317.814670 -35.227970 13 1
16.773214 335.890530 -10.013501 17 1
21.387331 186.729430 81.641968 28 1
-66.607422 212.975490 86.088860 54 1
-64.448135 149.280990 -76.120728 25 1
-100.982450 190.898770 32.098568 55 1
15.394727 347.322330 33.753880 14 1
-97.965790 302.175720 -57.606861 34 1
14.502415 186.092500 90.739166 28 1
-7.592322 157.565600 27.997490 30 1
12.326809 268.056820 -66.682411 35 1
-3.078788 232.519130 -5.097640 0 0
81.220230 152.330080 21.119267 29 1
-24.704031 264.904300 39.928844 7 1
-34.822559 269.403320 56.787758 6 1
-15.835955 145.931030 -66.391998 0 0
80.359985 240.974900 -58.235874 50 1
78.785706 155.426650 -31.807400 5 1
-20.104033 183.165370 68.550964 26 1
-87.667465 104.203190 -11.915538 2 1
-84.064522 110.006510 -64.255005 22 1
49.418846 249.878140 71.076332 8 1
3.165206 160.084640 -117.682460 20 1
-0.362281 241.876210 -49.606724 37 1
-36.894150 351.520750 -7.739043 23 1
-59.139122 151.469860 -67.116364 25 1
-0.179134 248.377670 -7.683980 0 0
22.378094 32.893833 -10.642227 41 1
12.544411 256.541320 -16.010475 38 1
46.160278 274.815430 -90.880898 45 1
-2.633249 198.170580 104.259840 40 1
15.614119 218.788910 6.105732 32 1
-10.868512 234.372380 -116.223280 36 1
-2.362184 237.815860 1.685868 0 0
-26.645378 153.058520 7.488595 0 0
-3.716164 237.323590 -105.473440 36 1
23.008459 182.656050 70.010109 27 1
-27.071337 185.557690 -125.512530 16 1
22.582718 273.593440 -88.607399 45 1
12.861170 259.742650 37.345776 42 1
-20.237301 57.422527 23.360846 44 1
-85.502487 207.779220 20.136797 55 1
17.917543 180.234130 59.183723 0 0
35.129448 261.210600 48.298134 8 1
