-145.655090 598.069090 -90.942474 6 1
1.000286 335.816590 -64.534149 53 1
-42.006035 322.162410 -41.860344 0 0
21.389559 465.050630 -193.255050 41 1
85.574158 219.863590 29.461130 48 1
-190.219960 740.564880 -39.553741 23 1
-208.776320 722.901000 -2.677903 23 1
-60.241535 391.047820 -30.788252 0 0
-109.248770 667.127870 -72.541206 63 1
20.575266 471.244510 -162.008670 41 1
-33.376003 386.373380 138.575960 26 1
-74.630913 250.590710 104.283690 14 1
-25.504419 438.425720 166.386140 11 1
-115.763000 306.229280 -116.816040 30 1
-180.275130 648.399480 134.280720 12 1
32.454048 637.576970 -89.000481 62 1
49.725727 230.861590 -69.071838 36 1
-23.135393 537.284360 233.837600 56 1
-116.229330 605.514530 -63.593082 6 1
-138.652600 447.940000 -99.421875 58 1
-138.833680 583.391850 101.340550 4 1
-28.679518 273.001890 -44.545792 0 0
-30.240429 555.228330 157.426900 56 1
-12.215796 492.982330 -80.353752 46 1
-59.681446 503.446590 23.573236 0 0
32.689186 539.510990 -76.224052 32 1
-65.990601 451.895110 -0.671969 0 0
-137.712330 506.653320 -44.913609 43 1
-53.230904 322.918980 16.946234 0 0
30.252428 519.275760 -94.969734 46 1
-126.223440 234.633880 159.207430 13 1
52.129112 444.146880 89.629097 28 1
-25.070642 470.233030 -48.809937 0 0
-58.845676 475.546600 -172.949650 37 1
-109.752120 671.227110 136.294980 12 1
27.357986 435.071290 73.102989 28 1
-46.559956 276.601470 -13.538414 0 0
-24.610144 134.179280 13.662817 0 0
11.039544 229.441960 -77.747482 36 1
21.110126 213.579500 88.628128 19 1
-12.062319 57.310299 -5.058780 0 0
43.246616 516.373470 -111.228400 46 1
-94.066673 698.718990 -10.223467 0 0
-34.699673 244.210920 2.218336 0 0
-56.249397 664.994080 -81.160797 62 1
59.743759 180.938030 104.823940 19 1
-25.611467 435.667630 -117.501420 0 0
31.632591 483.565520 -101.637770 46 1
36.677032 480.336000 -160.018130 41 1
-7.791831 419.765080 57.248768 0 0
-42.751698 295.373080 13.708998 0 0
-39.862953 662.054140 -158.421880 45 1
-11.617590 547.924870 190.424260 56 1
-127.704350 212.444560 58.726357 20 1
-34.914310 341.605620 -51.402885 0 0
-51.468697 306.030640 -130.939250 31 1
-80.646271 291.198180 -31.550829 59 1
86.963387 208.362880 -61.069801 36 1
22.433756 434.961790 -139.710240 41 1
19.763687 232.416690 -120.974250 33 1
61.353283 435.655240 -106.527710 50 1
18.079924 430.740360 -161.010070 41 1
-68.000473 663.899110 62.691235 2 1
-189.554890 623.310180 -31.108437 64 1
59.985394 396.156100 173.276700 25 1
0.540971 411.754270 30.372520 0 0
-35.861256 491.691930 -57.374386 46 1
31.419762 423.240880 18.241581 55 1
-34.131252 472.454220 -194.934630 40 1
-85.803375 667.104980 88.470192 3 1
-79.091148 464.620180 -5.867813 0 0
100.634670 427.297030 -186.295650 38 1
23.855654 339.024170 -66.994331 53 1
-35.685139 178.492460 35.179379 0 0
-28.677622 152.640520 -21.782930 0 0
-61.232960 190.952060 106.801140 17 1
-124.011520 615.749940 1.718063 4 1
-32.754444 320.686890 65.264374 52 1
-88.786705 281.611600 -10.017979 59 1
21.879311 474.534240 -184.142000 41 1
-48.785664 360.019620 16.561045 0 0
-146.460490 426.686250 8.953105 57 1
-136.056380 643.228270 175.149920 12 1
-41.319073 498.133210 -81.340103 46 1
4.641891 487.788730 -149.647050 41 1
-16.745914 542.462040 94.403717 7 1
36.353397 526.178530 -5.357889 47 1
-47.092834 476.773620 -178.098750 37 1
-40.527653 547.039120 221.834340 56 1
37.449257 433.565670 -178.730350 41 1
-103.581750 663.083920 80.076057 3 1
-65.437164 605.012270 4.911221 0 0
-96.705177 766.168210 -32.604671 0 0
-37.407017 491.211520 -153.945140 37 1
-64.794624 482.398250 -161.046630 37 1
-127.188870 438.179720 14.948293 57 1
-31.318848 310.644810 -104.443070 29 1
-152.052510 467.984650 26.573698 57 1
-123.427840 541.882750 86.894409 8 1
-129.233410 599.875490 -82.458633 6 1
-12.996712 76.935249 -0.686438 0 0
-118.750900 446.069270 97.175957 9 1
-71.341858 506.102720 -166.243230 44 1
81.370003 437.036250 -156.293090 38 1
-114.498270 444.028080 -48.184868 58 1
-14.550840 468.179810 -195.159010 41 1
-55.560829 216.213170 54.240810 0 0
-83.038605 496.144530 -59.556236 43 1
31.806705 177.471880 110.144800 19 1
-152.780230 709.825620 -69.521912 34 1
-73.418465 284.780980 -145.687160 31 1
-119.236470 662.521300 -89.198563 63 1
-201.354400 616.438350 3.343314 64 1
-159.656460 730.164250 -61.883854 34 1
25.487709 504.202670 -92.649910 46 1
10.114701 639.801030 130.303710 2 1
48.940968 516.254700 -73.820435 46 1
20.520178 330.202450 -150.703080 16 1
-40.150173 512.817020 -148.886950 44 1
20.274620 390.340760 139.745590 25 1
-95.911652 199.668790 98.176315 17 1
-6.585997 419.981110 -223.224640 39 1
24.517584 509.473020 -19.222883 47 1
-66.427437 655.245670 71.534698 2 1
-66.685547 524.947270 32.879574 0 0
27.331379 351.017360 -131.447720 16 1
-18.366014 226.542980 -141.275710 33 1
-2.634290 234.804520 -128.433820 33 1
-28.260044 296.923550 7.501951 0 0
-39.214169 625.012820 9.935740 0 0
37.581127 434.712980 -134.381130 50 1
-11.499275 194.875600 -2.078984 0 0
-46.346256 179.676500 10.949291 0 0
-34.560677 290.772400 -49.377365 0 0
-57.058071 347.168910 86.336967 52 1
-69.108253 672.370610 -2.666513 0 0
34.493702 452.196900 -190.156370 41 1
-55.812809 237.574550 -114.045170 35 1
2.359528 447.833530 -155.744080 41 1
-44.548988 253.979080 -79.936508 35 1
-10.831764 235.600390 -108.799550 35 1
-149.240490 481.611020 25.834816 57 1
43.512321 245.730290 26.829903 5 1
-95.075981 433.310150 -89.387459 0 0
23.009438 334.205260 -171.690000 16 1
-14.876221 234.298800 -131.259810 33 1
-181.343800 411.143070 -62.010815 58 1
-166.808820 431.897670 -74.094353 58 1
-136.932880 591.316710 88.993011 4 1
-82.577446 640.019590 -188.871020 45 1
33.542698 429.254240 44.797611 28 1
3.731790 379.338930 122.463250 27 1
-29.570362 340.087860 -77.613358 60 1
-123.084790 598.058290 -99.557907 6 1
-41.824631 387.473180 128.517960 26 1
-26.189627 416.637120 -50.751034 0 0
-52.310513 389.256590 17.045111 0 0
-128.146270 275.265260 28.054159 51 1
22.212442 399.521700 117.674900 27 1
51.004086 389.239260 191.183590 25 1
-109.063750 515.657960 -30.941380 43 1
-135.653520 609.523860 -48.360062 6 1
-147.218550 412.302150 3.279766 57 1
-159.365980 326.142210 -120.581090 24 1
-87.503311 542.962590 113.318950 8 1
-52.934731 479.788300 -98.923447 44 1
-195.017810 620.784000 -48.593559 64 1
0.939179 290.982360 -121.341360 29 1
-133.570270 451.762020 -52.338436 58 1
-132.323040 662.589780 -79.653412 63 1
-14.564085 498.624940 -102.611200 46 1
-166.281430 512.263000 -43.350639 43 1
66.842949 393.029050 195.750020 25 1
-119.889680 219.442340 49.295628 20 1
-118.425860 728.395750 -20.862226 0 0
-52.210983 199.638660 44.025414 0 0
-76.842552 434.391720 -43.498711 0 0
56.290115 458.878970 -169.793590 41 1
-33.088558 167.234530 15.730381 0 0
-45.377052 683.051150 -86.290855 62 1
-6.154998 458.565490 -221.905590 39 1
-79.414948 440.827480 -8.928904 0 0
-81.788277 432.015930 -21.325880 0 0
-138.549470 580.216060 -16.280453 0 0
-158.449340 637.564390 168.078540 12 1
-232.706880 575.342220 -41.822723 64 1
-44.581234 471.291200 71.421494 54 1
19.489506 513.661010 -97.203651 46 1
-26.540796 425.770870 -234.449080 40 1
-43.879929 428.242430 -168.209990 42 1
-14.727593 648.178100 -111.611950 62 1
-22.973358 424.150970 44.144798 0 0
7.738420 428.436890 -178.652340 41 1
-50.602219 303.108920 67.005714 0 0
-24.218315 327.133700 101.251310 52 1
-56.625076 465.415800 49.163242 54 1
69.120872 416.442050 43.322117 55 1
-8.142073 220.386050 -147.135010 33 1
-15.422896 489.793430 -61.356842 46 1
-130.174910 597.388370 68.334442 4 1
-80.841995 622.114750 -196.987320 45 1
-55.398659 442.592930 50.257015 0 0
-82.826241 309.415100 34.711941 51 1
23.278934 762.036680 12.095037 1 1
-148.536940 478.923340 -8.033168 57 1
-89.304741 226.002030 -5.453709 20 1
-33.006241 416.926610 -108.133550 0 0
-32.717785 264.415920 8.733784 0 0
-72.035973 353.117490 81.743011 0 0
78.446945 433.294620 -104.407460 50 1
-61.550106 424.242030 -166.895260 42 1
-75.700920 420.236050 -7.370013 0 0
-102.281190 272.875670 -0.696378 59 1
-124.648470 656.212280 137.507450 12 1
44.484787 498.768010 -98.256851 46 1
12.155005 178.382490 153.187120 18 1
-109.676640 423.772460 41.174545 57 1
-195.055630 426.298220 -53.964001 58 1
-262.915310 548.891660 -38.138054 64 1
-40.881004 481.008540 -92.087990 46 1
-40.801113 167.744450 38.837547 0 0
65.614197 244.511610 -37.815155 49 1
39.991081 441.917790 -155.711500 41 1
-107.392220 279.222720 -19.162067 59 1
27.688900 236.370420 -40.842461 36 1
-99.275993 435.322390 153.237050 10 1
1.996993 438.210140 75.587509 28 1
67.619431 447.820010 85.878937 28 1
-42.187004 141.129580 20.314156 0 0
-58.142620 663.384090 114.182660 2 1
-59.572647 399.250700 -42.374046 0 0
30.352734 182.428100 125.711880 19 1
-119.971860 292.602480 49.247608 51 1
-133.980300 702.619450 -76.612122 34 1
-145.866350 332.178380 -111.775440 24 1
-100.981700 430.352910 170.185260 10 1
-198.092590 722.244930 -11.176186 23 1
-66.468315 606.695010 -221.545720 45 1
-41.821789 228.060610 54.435482 0 0
-20.725992 141.622590 -27.311619 0 0
61.376537 430.345370 -119.899150 50 1
-129.180510 666.757390 123.008930 12 1
-107.522640 322.486050 -104.139270 30 1
-189.932080 330.459780 -83.410393 24 1
-37.904167 251.630970 -38.577614 0 0
-25.943707 663.362610 -118.620380 62 1
-52.273212 636.331360 -186.445650 45 1
3.120523 547.641420 176.779910 56 1
-26.783897 108.681350 -5.701019 0 0
-104.786670 436.035000 -27.831322 0 0
-31.126593 191.188540 -46.689861 0 0
-137.480700 484.382750 24.446821 57 1
-62.634148 422.432740 -77.233910 0 0
-71.536293 490.461460 -141.065120 37 1
53.524349 434.485110 -155.439590 38 1
13.575010 449.993500 -204.821150 39 1
5.831154 537.799260 193.324260 56 1
7.461935 461.447850 -188.957240 41 1
-143.421190 641.228940 15.904586 3 1
-114.469340 291.990390 26.864357 51 1
0.940442 478.626160 -41.349911 0 0
-43.976627 392.588350 163.679170 26 1
-176.884290 417.879910 -35.203712 58 1
-1.735768 387.100800 142.481860 26 1
-79.856850 686.187380 -75.439697 63 1
-93.845009 292.272610 -31.869150 59 1
-140.669860 400.565920 -8.143896 57 1
-102.622440 284.382170 -81.684181 0 0
-10.546729 240.921370 -85.925377 35 1
-153.552490 485.196230 7.148734 57 1
-49.412464 191.534130 -42.133018 0 0
-76.209335 245.953950 -110.763280 35 1
-9.572174 688.842960 10.114251 0 0
10.153389 428.844360 -215.959380 39 1
-59.913544 351.643400 -35.163345 0 0
-150.706530 453.466370 14.864636 57 1
-100.265470 297.899290 35.742462 51 1
17.770887 428.264280 30.240711 55 1
-97.003639 252.018250 97.111557 15 1
5.526678 515.755860 -39.774872 47 1
-155.559720 652.187380 53.014969 3 1
-69.594475 507.568730 -107.616710 44 1
46.532730 521.161930 -11.615592 47 1
14.463738 260.612490 53.392498 5 1
-104.088900 506.199190 -82.610870 43 1
40.768074 228.703000 -80.672195 36 1
-79.246826 282.606900 -44.456181 59 1
-140.819550 532.849850 105.785600 8 1
-42.644032 561.562870 189.681850 56 1
12.695117 547.192810 116.392270 7 1
-77.889870 186.965350 107.183360 17 1
-170.120790 496.274720 -47.392090 43 1
-26.230728 673.029420 12.047536 0 0
-19.325378 211.153850 123.773410 18 1
-67.352905 276.645360 -21.415943 0 0
-149.915510 423.369350 -13.755097 57 1
95.389862 389.553500 16.180273 55 1
-30.556255 289.656490 87.740936 0 0
-12.229753 650.081850 108.370580 2 1
-148.316380 657.307740 -41.476971 63 1
-81.040283 218.223110 94.745178 17 1
-141.266170 657.935910 -86.169182 63 1
39.848358 747.988280 11.093172 1 1
-137.507480 410.556120 -14.673594 57 1
-0.419455 763.583370 12.050302 1 1
-86.679031 430.686980 -109.317450 0 0
28.294230 389.897550 99.579987 27 1
-110.229700 182.404390 103.916870 17 1
-0.432673 410.308410 43.506004 0 0
-68.925995 434.865300 -6.700819 0 0
21.603100 482.392300 -61.916626 0 0
79.331665 443.707000 109.188710 28 1
48.137764 315.327480 66.464806 61 1
-140.997970 658.693240 143.472930 12 1
-46.854519 311.904080 -16.194239 0 0
-154.888530 603.354250 -55.681759 6 1
-156.236680 321.565090 -143.420520 22 1
-37.214497 674.362920 -101.867120 62 1
-7.381890 321.132970 -83.633408 0 0
57.909122 292.333800 97.959633 61 1
-16.266178 473.441190 -162.220260 42 1
-37.579823 488.234340 -70.339111 46 1
39.345661 760.156560 -1.460647 1 1
19.845936 232.088390 -92.088966 36 1
-104.120090 642.781430 -193.738720 45 1
-148.091930 420.227050 -111.803530 58 1
-52.465336 330.444890 93.409012 52 1
-155.641890 443.264890 -112.869650 58 1
-12.046751 295.076750 -126.102260 29 1
-157.491680 653.148560 145.835540 12 1
-83.721710 261.840360 121.742770 13 1
-74.219963 314.984220 -2.817816 0 0
-156.507840 456.483220 -30.051418 58 1
-61.540771 560.237790 -13.770112 0 0
-3.945286 341.158450 -91.249962 53 1
-142.489320 450.847290 -73.560875 58 1
-36.419090 288.679080 -114.418180 29 1
-10.688936 552.596620 76.992744 7 1
-61.431873 395.250520 76.648262 0 0
-57.744873 266.878360 132.139540 14 1
-108.659670 513.370420 -59.322224 43 1
-74.226997 613.094790 4.348409 0 0
47.171528 530.383120 73.901787 7 1
-66.490036 440.978670 129.269500 11 1
-128.140560 326.242370 -113.750830 24 1
-130.524140 468.890380 15.217858 57 1
11.458331 414.975560 24.727991 0 0
-26.403669 307.119290 -17.021923 0 0
55.800854 200.129360 97.594048 19 1
-67.122345 491.865510 -91.941727 44 1
2.051502 181.637820 -4.083761 0 0
17.116350 460.722690 -156.712040 41 1
-65.422020 286.647640 -154.192030 31 1
-72.169769 492.342190 59.807247 54 1
-69.926659 535.654540 7.977798 0 0
46.962090 525.228880 -24.295414 47 1
-3.319368 201.699040 -159.891270 33 1
-64.810242 388.433380 -6.429803 0 0
-9.872656 429.204930 -34.159863 0 0
-57.132412 227.591290 87.333611 17 1
5.054373 445.943120 40.181526 54 1
18.983652 445.937010 88.795898 28 1
-98.132034 184.891010 102.216380 17 1
-2.052638 441.135530 -164.983090 42 1
-77.738541 411.754240 -89.748451 0 0
-35.613167 309.734920 68.438385 52 1
75.884705 529.006350 -70.462509 32 1
-51.069927 486.437560 56.853447 54 1
-18.389006 444.823880 155.839310 11 1
12.628295 536.027950 -13.054770 47 1
-46.112030 565.614810 178.151990 56 1
-12.675082 561.358220 173.978910 56 1
-31.600576 640.833370 3.824027 0 0
-29.605444 422.805450 -119.898410 0 0
-15.306436 506.700410 -68.134544 46 1
50.158077 696.537170 -32.392868 1 1
-89.710144 230.308610 12.835846 20 1
55.479488 535.517330 -67.632637 32 1
-166.926940 636.577510 45.299767 3 1
-97.538849 503.995180 -55.871723 43 1
-113.617300 608.600040 63.711704 4 1
-118.993340 435.658110 -15.110375 57 1
30.169710 641.848750 -100.740480 62 1
-30.661526 199.811100 89.946327 17 1
-30.538294 350.092380 -32.554153 0 0
-17.956430 469.720890 -58.081329 0 0
54.284370 238.506180 -20.589994 49 1
44.715481 463.395050 -168.842760 41 1
-17.673094 410.253970 -34.246853 0 0
-8.267620 212.075240 90.047729 18 1
-69.171638 278.985200 -54.461987 0 0
-120.015240 504.111910 -52.748329 43 1
-163.396710 471.446720 -19.862415 58 1
24.307894 397.660000 -110.925320 0 0
-100.047290 509.070220 -151.231260 44 1
-32.233822 130.266690 28.289034 0 0
-93.683311 443.601470 -51.641109 0 0
-92.076500 451.215270 -30.971611 0 0
-184.374040 459.398160 -64.781555 58 1
43.049629 492.459990 -118.772590 46 1
-1.749485 170.143780 168.521970 18 1
-161.815720 341.106630 -94.000031 24 1
-128.929460 514.997620 -39.573380 43 1
50.886234 303.086030 81.637901 61 1
-31.451527 222.096410 5.841517 0 0
0.202840 504.613370 -85.628662 46 1
-28.985779 250.949420 -63.479202 35 1
-16.215788 501.283050 -88.786072 46 1
-102.105810 701.964290 -2.426934 0 0
0.494867 635.644290 124.242660 2 1
-149.636660 328.730710 -83.063148 24 1
-39.159042 215.672200 89.686813 17 1
-121.403950 407.258210 -75.624687 0 0
-94.550537 493.839080 -144.737430 37 1
-200.215990 735.769780 -19.124029 23 1
-92.852753 300.508390 16.283314 51 1
25.533203 481.995450 -147.178530 41 1
-46.271904 193.628540 -11.791841 0 0
65.636803 221.960720 -80.630951 36 1
-60.784821 471.048100 4.961824 0 0
-66.798607 669.136900 -118.959980 45 1
-25.342983 542.475520 210.198330 56 1
-157.698040 592.809810 57.764133 4 1
-20.541351 296.486880 -54.243484 0 0
-108.750440 229.054610 49.344749 20 1
-42.282211 336.480470 91.666542 52 1
-56.188457 434.595310 -210.518750 40 1
-79.213463 667.513240 1.827118 0 0
-74.351196 403.451510 5.395728 0 0
-211.596360 424.725620 -37.464085 58 1
-120.030790 452.025480 9.844550 57 1
-16.241011 316.269590 73.415787 61 1
-95.687668 521.398380 -42.819183 43 1
-64.921692 364.451170 -30.284462 0 0
-54.194271 422.092130 -45.254620 0 0
-27.937931 443.369660 -167.694840 42 1
-60.298828 330.590700 141.486770 52 1
-12.650072 453.851590 -189.083130 39 1
-93.825211 450.622380 -73.210320 0 0
-63.961964 489.730260 9.565793 0 0
-51.066444 421.304630 -117.925900 0 0
-117.906550 566.032840 -18.523983 0 0
-4.511954 428.498260 -183.967640 42 1
-20.382191 209.329850 -156.029210 33 1
63.005447 435.742650 136.214830 28 1
-25.019190 416.070100 -65.984039 0 0
-61.124477 705.123110 -6.208745 0 0
-72.513420 398.940400 114.294790 11 1
56.481636 444.592680 -123.845520 50 1
-23.380949 464.630040 -135.391220 42 1
-136.863300 415.188870 -72.805893 58 1
-33.375908 140.167970 8.366933 0 0
-118.435860 665.967530 98.584892 12 1
-11.325997 348.462550 105.958220 0 0
-150.695850 506.320980 -63.371128 43 1
-11.447712 443.206020 -232.900630 40 1
-35.067299 218.993940 -31.672749 0 0
-132.302200 648.635310 154.009540 12 1
61.130592 335.126800 -72.269615 53 1
-48.366905 321.545440 65.145851 52 1
-148.236220 473.648500 -18.388447 58 1
-137.962040 728.174320 -57.200306 34 1
-23.022371 655.237240 6.851924 0 0
55.939617 435.182250 -141.474080 50 1
-20.940805 138.815260 45.540501 0 0
-26.656248 271.010620 55.444309 0 0
-79.934860 296.975280 -142.792650 31 1
-46.724148 308.837370 49.914619 51 1
-13.714561 180.334920 -6.187835 0 0
10.313022 764.603450 25.737057 1 1
-11.582632 460.413540 -35.314213 0 0
-150.792590 646.062500 30.539227 3 1
-29.292103 448.572300 63.128933 0 0
-28.467415 534.396060 -23.305902 46 1
-26.795757 325.881590 85.086418 52 1
-22.232704 469.089020 51.131443 54 1
61.656849 230.521270 -3.722252 49 1
-50.394154 323.723820 -14.721062 0 0
1.039770 491.492830 -115.909510 46 1
-157.010560 651.924320 -70.930168 63 1
-42.783768 509.429990 -111.841070 44 1
16.970081 406.950380 -211.478680 39 1
-79.980431 505.416720 -140.753880 44 1
-46.132095 192.405150 105.668000 17 1
-47.145893 439.415190 -0.203994 0 0
-86.832741 666.486210 -84.081169 63 1
-58.930809 291.490260 21.066872 0 0
-31.115372 467.295900 86.970802 54 1
-51.317924 379.916990 147.876510 26 1
-63.378258 500.065250 -52.131359 43 1
-38.408134 650.560420 11.073693 0 0
-94.512810 304.020230 27.583975 51 1
-23.653021 558.850590 148.260390 56 1
-29.830992 338.391240 -100.623400 60 1
-54.051987 350.633420 73.194092 0 0
34.468826 319.293090 -167.909040 16 1
-111.682910 549.885680 105.693120 8 1
-72.966293 734.075130 -6.148905 0 0
6.035541 520.507320 -22.108248 47 1
-20.226595 173.381100 13.671957 0 0
-75.962990 246.579560 14.450218 20 1
-5.912157 721.663090 3.055770 0 0
2.654049 487.865510 -62.220936 46 1
21.018904 426.762850 9.006441 55 1
47.432537 535.603150 -96.155533 46 1
-11.281502 477.730010 -183.150210 41 1
-51.613686 503.114110 -170.979460 44 1
-32.553753 271.258700 -18.353937 0 0
57.431835 447.160680 -111.027620 50 1
30.328972 221.193530 -134.855440 33 1
-80.400803 501.419980 -82.755630 43 1
-146.679930 739.355350 -62.257030 34 1
-180.116590 430.472290 -65.795097 58 1
-61.571186 581.495850 2.956421 0 0
-93.686264 561.104550 61.436806 8 1
-75.346024 350.719480 -95.616119 60 1
-30.124128 479.827610 -173.594420 41 1
-209.917980 605.211490 6.082515 64 1
-49.242661 279.662080 69.101875 0 0
-128.873140 603.073300 -60.136917 6 1
-66.217087 679.433470 -111.947940 63 1
-55.879829 479.139430 -59.059120 0 0
-73.529068 352.834350 -20.276848 0 0
10.073313 337.200840 -81.390625 53 1
13.343783 474.597230 -104.554010 46 1
-7.424684 477.435670 -59.230602 0 0
-25.192438 548.422420 100.982690 7 1
81.601349 431.669860 140.956020 28 1
-31.261452 383.387120 -60.885120 0 0
79.536713 405.150360 28.546177 55 1
-156.726300 432.720060 -105.309360 58 1
-135.558490 607.925840 -16.636143 6 1
76.848236 532.875310 -109.184600 32 1
-12.809417 659.238830 -81.538673 62 1
-70.428947 634.484800 -194.963900 45 1
-21.057276 338.875340 -85.166595 60 1
-108.022030 654.920530 36.602623 3 1
-5.899753 530.953310 216.343870 56 1
-7.962074 445.031430 13.256327 54 1
-137.847240 601.579470 23.276516 4 1
-16.295036 165.058110 54.621941 0 0
-76.115860 491.716130 -72.610474 43 1
-130.513110 266.256710 -43.361591 59 1
-48.011906 651.911930 124.740160 2 1
-118.606920 660.207400 152.370480 12 1
-52.309692 337.133090 -23.003345 0 0
-175.579680 336.429380 -88.547432 24 1
40.585419 435.218780 129.958440 28 1
-79.441284 408.556670 -19.474230 0 0
-83.991379 198.869110 98.604408 17 1
-64.095322 602.753230 16.014080 0 0
-233.299210 586.623660 5.846721 64 1
8.175320 210.345120 105.781640 18 1
97.469505 403.818300 17.614452 55 1
90.754013 412.251680 -100.547580 50 1
-64.111786 630.563540 2.191570 0 0
-171.873980 470.525360 -11.925389 58 1
30.802124 531.721620 -17.150063 47 1
-106.520890 664.757390 -91.163048 63 1
-89.955360 363.763120 -55.293549 0 0
-63.384403 721.225220 -16.693800 0 0
42.524078 470.223480 -181.125050 41 1
-80.177925 385.352290 63.517918 0 0
-196.504030 442.534030 -40.231686 58 1
6.550694 428.542360 -111.190980 0 0
-178.659760 754.285640 -2.131120 23 1
-3.796637 407.548920 -222.307210 39 1
-24.130653 167.059340 -3.713449 0 0
-179.463040 312.260860 -160.753600 22 1
-52.588726 205.814290 94.201454 17 1
-56.437656 306.007630 -107.571590 30 1
-16.454393 657.872250 88.321404 2 1
16.649759 546.284730 83.217232 7 1
52.393166 465.973910 -101.451970 46 1
-195.038860 740.231260 -5.891922 23 1
22.669718 333.617860 -139.184270 16 1
17.530252 429.882840 -204.768340 39 1
-52.924114 251.292390 -66.804054 0 0
-40.819004 493.806850 69.485657 0 0
-40.938885 340.856450 -82.223381 60 1
-35.299702 655.070130 76.537300 2 1
-37.601604 191.040100 8.987609 0 0
-27.662270 153.485150 7.976184 0 0
-10.308599 179.534000 -23.451757 0 0
38.670639 345.126430 -37.483551 53 1
-4.122178 193.611560 120.765990 18 1
-53.924370 338.390930 123.304560 52 1
-18.254745 215.845570 83.761833 17 1
-99.982613 669.723880 116.666470 12 1
-90.209206 257.933350 -67.746368 0 0
-200.526060 281.265900 -205.545350 22 1
-123.600290 400.859380 -0.662274 57 1
-102.636700 434.425290 -125.504040 0 0
-175.866580 451.104710 -39.370823 58 1
14.955343 319.409030 55.734722 61 1
-98.316147 678.073360 -55.600140 63 1
-5.166379 374.182340 20.881699 0 0
-127.507170 321.232850 -142.339860 22 1
-83.307304 431.846280 167.275920 10 1
-107.495030 276.679140 10.545112 59 1
-104.471160 659.718930 -173.875210 45 1
-69.947136 274.869810 -42.734993 59 1
27.348513 320.309600 -181.437930 16 1
-45.354179 611.053040 10.954244 0 0
25.549484 631.813290 138.945510 2 1
44.519722 391.693180 169.888950 25 1
-9.045703 505.722720 -38.162239 46 1
-21.080641 214.342510 109.916300 17 1
-89.301765 667.049380 -162.653340 45 1
-53.115963 437.345460 64.302567 0 0
58.281624 436.352810 115.758130 28 1
-207.887860 334.342680 -91.840630 24 1
-25.128323 255.057370 -46.684570 0 0
-60.915291 226.871200 22.138102 0 0
5.085215 491.185760 -73.511101 46 1
-14.021398 516.408630 -29.771740 47 1
-62.654850 415.220580 79.897522 0 0
-36.640701 476.517400 64.836060 54 1
-184.082030 442.490910 -30.691725 58 1
0.844472 239.718980 -81.284180 35 1
-81.867699 227.950490 3.599876 20 1
55.095211 480.917880 -110.288960 46 1
-12.159057 483.751710 -164.328830 41 1
-25.144428 120.835920 -18.194820 0 0
-63.146992 510.230260 -146.203250 44 1
-50.780445 556.679140 73.138611 8 1
86.098541 400.966710 -1.350762 55 1
34.338863 515.928220 -22.904568 47 1
0.090612 641.886410 108.651210 2 1
-64.266083 265.194850 -16.824860 0 0
-41.864048 201.682570 3.823715 0 0
-41.752621 274.564910 141.910680 14 1
23.463602 200.230590 97.121948 19 1
19.251743 485.732120 -104.842010 46 1
-80.452812 308.673980 45.760689 51 1
-118.071880 507.273960 -73.454193 43 1
-0.535673 653.197940 93.397942 2 1
-67.637482 569.478270 14.944662 0 0
-1.290326 470.736720 -189.609660 41 1
-2.121405 450.809690 -203.585130 39 1
-67.372292 647.984190 0.863115 0 0
-51.856613 497.038540 -100.844830 44 1
-41.983757 439.906680 -160.147600 42 1
-73.714836 327.735260 7.787873 0 0
-17.573154 418.301910 -207.999340 39 1
-177.165300 395.411100 -60.455986 58 1
-125.529990 656.026180 161.912890 12 1
-186.260150 415.497890 -25.685053 58 1
68.723305 406.545140 24.950718 55 1
-61.819420 757.911500 -18.822222 0 0
47.281658 421.143430 18.454536 55 1
-44.925827 225.866490 85.431763 17 1
-49.174454 549.044370 86.412895 8 1
16.510796 469.107880 -43.911465 0 0
-147.110700 433.774870 -60.584938 58 1
31.865906 341.820530 -126.640430 16 1
-87.646927 260.583500 132.211230 13 1
12.020381 759.848140 12.443892 1 1
-31.863930 424.138760 -62.199951 0 0
4.444195 546.332460 66.778786 7 1
-19.930393 245.631760 -76.199158 35 1
-30.722631 386.781070 -83.369522 0 0
-87.417145 506.617710 -61.741615 43 1
-99.847626 287.216340 -93.926201 0 0
-4.227828 212.680440 -56.426838 0 0
17.455626 426.964870 -184.386230 39 1
-81.890244 512.205080 -123.300250 44 1
-123.642460 448.053220 -65.005089 58 1
-9.401841 675.189580 -75.089554 62 1
-90.748932 283.432250 1.384598 59 1
-163.186460 433.695830 -85.730522 58 1
-147.078020 601.562190 -67.201324 6 1
27.060108 341.235990 -149.012630 16 1
-37.785400 425.939270 -147.762150 42 1
-1.844564 314.617000 65.184502 61 1
-70.269241 380.186550 -35.503677 0 0
25.328932 234.164980 -58.615974 36 1
-49.673409 573.309690 155.532780 56 1
17.531853 451.318700 99.334503 28 1
4.289680 438.198120 -220.423130 39 1
-19.281551 309.493470 51.173717 0 0
75.714798 436.918490 -174.314830 38 1
-137.042310 659.807560 -51.465206 63 1
-62.041935 306.636540 32.810871 51 1
-18.673088 407.577970 -45.746487 0 0
9.806810 244.497820 -49.686775 36 1
-95.341400 249.798810 111.967670 13 1
-163.928330 592.379640 44.851677 4 1
-49.680531 283.521090 -51.959206 59 1
71.205040 235.045990 -21.889643 49 1
-189.895750 733.681950 -29.214262 23 1
84.149353 421.291660 -174.129350 38 1
-61.739788 661.085450 -148.904740 45 1
-44.839657 167.056110 -4.140559 0 0
48.215763 418.390110 43.483349 28 1
-13.812418 298.792910 -66.097878 0 0
40.568356 631.347720 -114.647540 62 1
-50.288692 555.332150 164.592180 56 1
57.880219 220.123060 -48.217972 36 1
-79.314354 431.931850 134.189560 11 1
-56.145878 611.174680 5.465366 0 0
-94.647224 645.004150 -178.646480 45 1
-56.558762 470.750370 33.214474 54 1
74.873032 422.973790 -100.881680 50 1
95.763908 315.400970 -38.064800 53 1
-8.570382 554.014950 154.321720 56 1
-95.494614 512.076110 -128.640460 44 1
-58.108067 531.250610 40.442924 0 0
-157.942730 450.950290 -52.800297 58 1
-45.396648 437.988590 53.639862 0 0
-93.308578 179.498140 110.871320 17 1
-24.005939 336.585140 86.444336 52 1
-33.628624 446.390170 168.062930 11 1
-176.547710 626.941890 160.431840 12 1
44.841000 513.815800 -87.746452 46 1
-115.354100 347.042720 -136.684520 21 1
-36.562679 446.761990 142.636540 11 1
13.492186 247.582550 37.001190 5 1
80.667336 543.107300 -38.748466 32 1
-139.287280 476.503050 41.098755 57 1
-33.653740 375.233180 141.096650 26 1
-54.091835 236.622760 31.724855 0 0
-91.983788 306.179140 52.689770 51 1
-94.812981 333.432070 -121.180760 60 1
-239.844530 572.845700 -30.744709 64 1
-68.065887 691.911130 -1.976846 0 0
-35.549969 183.419940 1.147071 0 0
-64.324654 551.922550 78.453041 8 1
-60.615234 651.324950 -63.850704 0 0
-35.685318 511.348970 -128.626340 44 1
-38.874775 649.601930 -178.614140 45 1
-62.471409 293.290590 -35.302166 59 1
-7.167178 196.789510 79.029953 0 0
-42.954918 265.011260 63.174175 0 0
9.954952 339.325930 -126.164670 16 1
-139.585370 447.943180 -43.790440 58 1
-70.897652 282.957430 8.964100 0 0
37.366634 532.253480 13.591995 47 1
-99.220406 409.140050 50.715206 0 0
-36.139606 230.897890 -52.770813 0 0
-141.811890 651.639650 -61.156174 63 1
37.351578 197.138150 108.739970 19 1
-28.691734 209.307880 -37.846466 0 0
-85.209312 653.751950 73.442413 2 1
10.951757 504.804600 -113.198660 46 1
-112.405870 386.677950 -69.479431 0 0
-37.781704 312.011780 31.250275 51 1
-178.985750 332.041960 -105.942250 24 1
-91.376747 505.666140 -97.600067 43 1
-213.651280 415.640440 -44.752495 58 1
40.720119 526.645390 95.944702 7 1
29.409254 391.055910 133.149780 25 1
60.721519 696.883730 -21.857597 1 1
-132.313630 444.878420 -35.112358 58 1
44.267593 531.973940 28.417915 47 1
-133.722500 645.643190 32.793732 3 1
-64.076790 330.378110 78.943810 0 0
-172.990720 607.463440 -51.324848 6 1
-30.451342 246.429720 -24.199638 0 0
-92.174217 677.617800 -93.085060 63 1
-62.834259 343.774110 -107.658280 60 1
-121.789190 376.199430 3.594403 57 1
30.707870 470.268430 -105.764970 46 1
-22.574562 254.879290 -28.842731 0 0
-22.804207 387.486880 128.516360 26 1
-114.311640 444.100220 -71.335968 58 1
-48.605480 423.174710 -156.679230 42 1
1.512083 419.655120 -213.223340 39 1
62.492146 438.875730 81.862679 28 1
-24.196892 212.381700 0.811487 0 0
-77.851624 773.880740 -2.714562 0 0
-25.730824 92.310173 4.917367 0 0
-9.718542 637.458980 120.446450 2 1
3.405198 468.591000 -63.018074 0 0
-66.502342 265.945680 114.220950 14 1
-205.930220 612.775760 -40.445686 64 1
-108.868500 669.489010 103.732960 12 1
89.967583 390.674900 -0.330847 55 1
-36.693665 547.882810 208.444600 56 1
70.932335 534.585690 -55.517391 32 1
-35.692219 195.486630 22.369732 0 0
-174.580340 313.340150 -150.715960 22 1
-86.550179 242.966630 18.288979 20 1
-63.219555 539.816960 -13.118146 0 0
-50.506981 442.052890 -192.115170 40 1
33.074539 233.291790 7.007390 5 1
-129.612120 663.585820 109.743140 12 1
15.460445 202.137790 124.918640 18 1
-31.715044 522.676090 -30.994324 46 1
-42.401630 484.334960 -167.424330 37 1
-108.232600 508.353120 -16.237844 0 0
-42.579102 320.555600 -55.205379 0 0
-31.230062 447.564970 -73.496399 0 0
16.847675 201.249690 -158.612690 33 1
-51.292480 331.397400 -55.836823 0 0
16.826378 470.473140 -147.334900 41 1
-130.458530 515.439270 -59.856232 43 1
-95.845924 481.518490 -152.151180 37 1
-124.631270 721.841920 -72.244507 34 1
-21.324623 268.109470 75.045074 0 0
-49.866417 451.286160 38.390125 0 0
-150.068970 662.189270 126.585810 12 1
20.044445 254.345980 46.284451 5 1
-55.876205 679.096500 -87.038643 62 1
-3.236521 656.457890 -112.561390 62 1
0.688128 493.850370 -93.778862 46 1
73.605721 434.934600 -121.033920 50 1
-64.361961 679.532840 -68.779671 63 1
-120.626270 471.254760 3.938643 57 1
-24.515152 649.594970 94.371834 2 1
-35.389904 518.290470 69.818542 0 0
-80.138237 624.027830 56.020084 0 0
90.589661 524.935910 -93.551460 32 1
-216.915210 699.756770 -10.035872 23 1
-96.868362 788.351680 8.911112 0 0
-130.277150 610.848750 9.473632 4 1
40.306389 505.158200 -28.401611 47 1
12.740559 624.692630 146.501220 2 1
47.413933 385.867340 204.098950 25 1
32.918228 311.802250 91.964027 61 1
10.081607 445.483220 78.708122 28 1
-134.900240 478.840420 -2.761041 57 1
-92.901909 240.734180 42.844135 20 1
28.288031 344.163240 -96.053436 16 1
41.743938 435.515410 -124.271190 50 1
70.111900 424.619630 -167.574110 38 1
-47.133160 281.444310 9.977749 0 0
21.425007 487.584050 -117.155670 46 1
-35.809212 363.168270 -50.787193 0 0
-104.265070 312.714630 -100.399900 30 1
-152.661850 646.735660 -52.665672 63 1
-49.626904 186.131350 -32.602657 0 0
-61.189934 294.592620 -14.313958 0 0
-39.025093 463.009700 76.410591 54 1
-60.149040 376.055210 6.919659 0 0
-205.168590 607.014400 -29.723309 64 1
16.531061 239.294370 17.524288 5 1
-51.836308 656.484560 91.777298 2 1
-47.410454 306.714630 18.160488 0 0
-148.624660 336.990140 -102.252220 24 1
-27.624819 175.405430 -25.427265 0 0
-67.907387 426.610810 2.070532 0 0
-0.526062 193.046280 -168.196060 33 1
-157.778780 317.303710 -188.714740 22 1
-161.797530 330.946140 -131.286960 22 1
-23.214722 381.432680 142.596740 26 1
-17.375000 525.586360 -53.389694 46 1
-35.354992 467.241420 -175.899170 42 1
-53.388348 267.658260 115.277890 14 1
23.014370 741.083250 11.519812 1 1
-28.675459 396.281220 -92.363609 0 0
-138.673080 432.797550 -21.267324 57 1
-175.767300 626.738530 -34.880581 64 1
-152.712250 607.507020 -34.171288 6 1
-139.129530 760.506410 -39.311680 34 1
-2.920459 647.227910 -97.199821 62 1
43.607964 235.448530 -60.925819 36 1
-83.087769 316.009520 -9.607578 0 0
8.835863 321.022670 73.266441 61 1
-135.830220 323.325380 -106.568530 24 1
-73.121834 780.738590 6.343226 0 0
23.557972 429.342620 40.031925 55 1
-229.412230 588.622560 -9.577130 64 1
-48.573177 556.564700 101.617290 8 1
-69.815201 431.994810 -65.740364 0 0
32.556736 470.862550 -163.546740 41 1
-80.408539 288.735500 -7.236159 59 1
-75.517029 662.480530 -152.049240 45 1
2.228857 669.996400 -77.789658 62 1
-37.046288 149.491640 0.263626 0 0
-59.407131 358.358760 104.351330 0 0
-199.699490 424.686550 -34.024445 58 1
-117.333080 428.331240 4.970873 57 1
-10.961119 158.513150 -15.730824 0 0
-141.172640 642.489810 151.133360 12 1
-75.422813 238.093460 28.914024 20 1
-78.439484 470.486510 -161.735290 37 1
-40.540028 465.758390 -79.828087 0 0
-44.606052 421.733370 -217.048430 40 1
-64.888084 343.833590 -25.251034 0 0
-42.961807 286.092860 -8.109908 0 0
5.075782 450.748840 -173.292790 41 1
-35.688404 467.524480 -204.519270 40 1
-25.594185 300.038970 52.435581 0 0
-36.906677 505.323760 -58.032871 46 1
-221.029980 599.332700 -43.589108 64 1
-30.185102 479.125760 -92.885925 0 0
-65.354309 441.100560 37.738876 0 0
33.667484 628.199160 -106.848200 62 1
-106.831830 440.979680 -9.287525 57 1
-26.828215 432.916440 -135.558270 42 1
-46.327015 249.499340 -6.884441 0 0
-113.926150 546.206180 83.851082 8 1
-26.788515 455.366730 -221.084790 40 1
-108.921810 350.329900 -149.082240 21 1
-1.139936 515.444090 -63.169983 46 1
-109.538980 443.588170 129.076200 9 1
11.526987 439.194920 -149.226290 41 1
-39.530125 173.395260 -31.442291 0 0
-119.893050 333.262210 -147.512330 21 1
-117.414030 437.310850 19.831133 57 1
-6.010000 526.965640 -45.877323 46 1
52.330479 536.954280 -51.708118 32 1
-163.901290 448.255280 -32.797005 58 1
35.239632 416.229610 26.944517 55 1
-176.242200 763.721370 -18.343027 23 1
-0.962376 431.051090 -41.918514 0 0
-66.796593 485.542630 -68.284111 43 1
38.112152 407.270970 110.895400 27 1
-23.123968 423.348790 -100.736730 0 0
-143.319270 658.386840 114.569420 12 1
38.711685 519.368530 -101.840250 46 1
-20.341961 446.315980 17.561090 54 1
-199.895490 620.065730 -6.893798 64 1
-83.441956 439.156040 -79.637604 0 0
-66.597397 306.669590 -96.257721 30 1
-14.365287 413.029210 -106.323780 0 0
-5.613047 208.764680 136.329670 18 1
-105.422890 233.941540 40.270077 20 1
-94.824516 493.731540 -91.942963 43 1
-23.522490 279.113590 -21.153276 0 0
-75.308769 299.943540 -112.342020 30 1
-69.971466 443.764680 -52.684582 0 0
44.158306 246.294480 -6.074749 49 1
49.853127 236.513750 -36.361912 36 1
47.361794 477.439540 -100.497980 46 1
-99.442825 661.438350 90.260040 3 1
-41.965313 315.772460 3.458412 0 0
-21.320818 108.873840 15.568499 0 0
-54.223991 403.142970 74.974373 0 0
-82.747391 343.956670 -112.943950 60 1
-45.988415 298.932890 -1.236477 0 0
48.110966 170.484070 111.820240 19 1
-26.380697 258.496670 46.988651 0 0
8.124991 494.228760 -33.282448 0 0
-158.353840 598.252260 36.058849 4 1
-31.628338 130.678300 3.508811 0 0
-118.135100 654.874450 42.422783 3 1
-42.029881 272.513890 -46.599220 0 0
-170.736150 450.242950 -63.706570 58 1
56.026005 335.852510 -50.688351 53 1
-23.425034 331.015320 -29.326624 0 0
-177.289440 452.894010 -25.405916 58 1
-24.319469 657.369380 -98.348862 62 1
19.933922 396.593440 98.248749 27 1
14.066115 647.222530 -84.495399 62 1
-75.010010 253.805240 57.394032 20 1
-33.344707 426.279970 -198.104310 39 1
66.699875 441.492340 -128.657810 50 1
-134.137920 588.546390 -103.647530 6 1
-12.498190 436.828950 -176.408430 42 1
-69.159012 256.769930 122.413520 14 1
-96.015770 302.570500 -113.062690 30 1
-57.650036 242.331040 -4.904700 0 0
-27.843943 279.022640 48.325741 0 0
-119.121680 542.086060 108.842900 8 1
-184.124970 442.431460 -89.518913 58 1
-63.803593 443.545010 145.966870 11 1
-151.243870 429.996670 -48.511372 58 1
-42.410610 661.361020 95.720291 2 1
-4.538803 710.781070 14.323847 0 0
30.663174 231.020250 -124.681540 33 1
-92.695793 625.968630 -202.190990 45 1
-63.352638 521.061040 -7.190475 0 0
13.260389 378.968350 158.475200 25 1
-217.093310 594.000670 5.252892 64 1
42.582535 425.650630 -5.042244 55 1
92.202065 426.658600 -167.447570 38 1
62.583000 440.827550 -157.611790 38 1
-18.322403 289.516480 51.011234 0 0
-73.709694 450.706180 20.122017 0 0
30.428074 205.970760 -150.922680 33 1
-175.189640 621.291810 -17.781553 64 1
-74.636726 498.984920 -96.402687 44 1
-5.489978 551.637020 142.611630 56 1
-2.248843 423.859680 48.998386 0 0
-30.890572 555.077270 72.149010 7 1
47.334507 505.622380 -67.663048 47 1
67.794472 218.313510 -59.414001 36 1
-85.661659 253.490840 114.818510 13 1
-63.150043 328.817540 -11.952061 0 0
-4.118723 330.526700 -72.385681 60 1
-1.144874 182.203260 161.038530 18 1
-73.660172 548.756960 -5.478223 0 0
-68.838150 336.986510 19.206448 0 0
-11.856802 426.033660 38.954468 0 0
-10.530906 458.486450 51.098770 54 1
-2.060429 498.108060 -151.927190 41 1
13.054086 232.290100 -130.972490 33 1
45.108009 186.293730 109.707480 19 1
-40.244179 403.634550 -78.544052 0 0
24.885857 534.027650 19.681757 47 1
-131.564130 503.625670 -55.836132 43 1
-63.455147 511.376590 37.674706 0 0
-10.609162 308.069030 57.541599 0 0
9.773976 635.987060 -117.940580 62 1
17.089764 184.466450 111.037530 19 1
46.747089 446.799440 -119.924550 50 1
-51.257290 203.406940 -3.475276 0 0
-143.151720 456.653900 -38.671532 58 1
49.866360 249.040420 -22.010082 49 1
-169.432360 640.856570 -61.457760 63 1
-48.887341 265.566650 125.487230 14 1
80.233604 541.321410 -51.182190 32 1
50.645977 742.138310 0.552358 1 1
-147.127660 595.000430 37.957413 4 1
55.444252 344.664920 -29.870523 53 1
-154.947510 648.942080 135.895580 12 1
-46.252377 678.449160 -67.445068 62 1
-26.986845 466.094390 -81.506584 0 0
-27.784657 503.166170 -68.305588 46 1
4.695439 212.669420 117.666850 18 1
3.562868 459.199550 -35.900665 0 0
-77.820374 665.859190 105.462180 2 1
-83.955055 613.481320 -210.000890 45 1
-75.225159 338.430970 -124.041440 60 1
-76.783463 420.857760 3.617638 0 0
-27.664623 560.331970 187.205860 56 1
-142.346830 330.004940 -128.471450 22 1
-41.696190 253.752840 -61.508976 0 0
-31.446049 239.040630 -41.773380 0 0
-11.554755 503.668610 -79.470886 46 1
28.643244 751.278380 -20.837889 1 1
9.577210 209.003830 -157.551830 33 1
-70.425964 296.292760 -132.368790 31 1
-176.456050 504.875460 -53.210632 43 1
-157.497310 471.734650 11.179399 57 1
-17.987871 493.057190 -151.625340 41 1
-116.873490 602.805790 -77.906418 6 1
-23.421797 458.639370 63.451153 54 1
4.139613 341.789400 -147.539550 16 1
-124.055130 275.587890 -31.221899 59 1
-73.657036 522.845520 6.501993 0 0
-2.390559 424.006650 -233.589860 39 1
-111.962300 657.014220 60.096947 3 1
-19.780874 194.562650 19.794289 0 0
-64.578285 221.335540 81.848419 0 0
-175.206340 447.870060 36.631207 57 1
15.755070 414.267940 -124.875600 0 0
4.120606 723.431520 6.187236 0 0
-10.283747 428.802640 -130.083280 42 1
7.282869 431.394470 -168.426270 41 1
-107.801450 507.444700 -42.077148 43 1
-71.578789 772.477360 -12.614834 0 0
81.420349 418.319550 -196.100020 38 1
-143.730040 437.246800 11.230499 57 1
-157.763990 634.350280 12.582504 3 1
29.119659 313.707980 72.807205 61 1
-145.301620 606.442870 -20.889879 6 1
-154.572860 445.669950 -90.156677 58 1
18.182842 504.384310 -84.543694 46 1
-31.072878 455.152590 92.532532 54 1
-7.721269 244.043290 -63.582470 35 1
-175.531330 434.392460 -23.540831 58 1
35.504429 440.756470 104.098390 28 1
-207.162920 712.571720 2.278931 23 1
27.841003 399.703030 106.545660 27 1
36.331238 239.948870 18.557306 5 1
-12.676823 557.797420 133.480210 56 1
40.571323 199.170440 97.513374 19 1
35.722126 439.295810 67.811218 28 1
-128.119610 742.414980 -35.762554 34 1
-64.192917 299.351500 -4.313412 0 0
-15.600082 313.820280 -72.818810 0 0
76.792862 433.735200 -184.400620 38 1
-28.213537 490.160190 -77.044044 46 1
-51.119366 246.839970 29.575411 0 0
-36.800846 324.773070 74.200661 52 1
-0.649224 435.405000 -120.612610 42 1
-57.774323 565.246700 14.262241 0 0
-120.399780 455.516270 -5.151796 57 1
-21.756933 558.330260 103.224610 7 1
31.224560 725.887080 -1.120695 1 1
-58.910408 487.580960 -151.738560 37 1
-58.462654 591.758970 14.088145 0 0
-24.698528 451.547970 -152.375230 42 1
13.794536 527.674870 -33.013805 47 1
-91.143829 499.193820 -71.935608 43 1
-63.771538 763.422300 -7.845071 0 0
89.659523 536.342590 -83.948936 32 1
-48.364029 347.090420 -77.930473 60 1
-31.980204 549.069400 82.451431 7 1
14.819465 530.568360 -3.324667 47 1
-60.810982 510.831670 -125.496770 44 1
-142.426380 649.235900 133.690990 12 1
-67.012398 258.162960 50.692524 20 1
100.965540 213.045670 23.967512 48 1
10.727125 387.319400 108.309350 27 1
40.816578 342.394590 -71.307487 53 1
-59.800690 494.519070 -178.525180 44 1
-111.808910 246.287800 95.441444 15 1
10.596128 236.542190 -112.059300 33 1
-2.532270 340.654690 -47.281387 53 1
-6.841702 416.680080 24.455399 0 0
-88.553467 515.710820 -48.183582 43 1
-141.538070 605.930540 -31.339615 6 1
23.522676 186.541960 136.774430 18 1
-73.067993 346.336150 -104.965320 60 1
33.435410 502.099030 -122.558140 46 1
-63.659248 665.524600 3.266750 0 0
-22.045429 450.135280 165.126970 11 1
-117.574690 244.218280 153.855900 13 1
3.576225 422.671480 23.188427 0 0
-69.609001 593.886960 13.777485 0 0
-232.280170 586.760620 -22.499172 64 1
53.801468 723.895200 -13.627681 1 1
49.191803 717.076900 -22.411663 1 1
-75.547348 552.585080 100.770680 8 1
-237.649840 571.565550 0.529271 64 1
-47.209610 317.931700 32.062630 51 1
-58.359859 468.875150 -59.258350 0 0
-2.258816 660.870790 -93.730293 62 1
55.472218 394.133850 87.181770 27 1
-149.487440 473.943820 35.055592 57 1
-43.822208 287.297300 56.404484 0 0
-37.974941 147.645890 -21.979662 0 0
-31.553539 335.560730 101.507450 52 1
-171.182480 425.295320 -92.033875 58 1
-144.553830 326.541050 -159.862520 22 1
-40.197399 159.046230 32.900723 0 0
-45.901878 200.614650 -37.348965 0 0
-26.235003 259.631160 -19.833885 0 0
74.457581 535.286680 -33.668015 32 1
-122.506550 278.958770 -42.507385 59 1
-192.670360 610.935490 -17.613596 64 1
-128.911900 417.587920 12.328732 57 1
-60.694157 425.744960 -52.893105 0 0
70.196190 542.772580 -70.260880 32 1
-106.103420 438.242340 -63.990444 0 0
29.499918 208.871950 93.059494 19 1
-131.838790 392.892330 -12.664610 57 1
0.735065 470.981600 -167.511030 41 1
63.410542 541.858460 -46.951778 32 1
-42.127022 279.667450 -26.501192 0 0
-79.395767 424.726750 -72.141693 0 0
-42.156715 452.178310 -218.414090 40 1
-46.205402 572.244690 137.952800 56 1
16.831211 458.012480 -50.994751 0 0
-54.958069 350.978270 16.897299 0 0
15.438827 495.397220 -92.083275 46 1
-167.189700 608.265560 -17.212578 64 1
26.897419 441.756740 -193.747280 39 1
56.531246 222.958910 -71.521873 36 1
-21.938185 241.971410 -88.668449 35 1
23.257256 466.476750 -172.289110 41 1
44.683922 440.001950 -183.189480 41 1
4.036942 449.262510 -39.578480 0 0
-142.344120 440.662990 115.039940 9 1
89.670555 401.208130 27.724257 55 1
-34.866360 505.590060 -165.722850 44 1
-14.831502 448.668060 -224.595030 40 1
-85.724869 424.879060 -119.896650 0 0
-12.551429 211.344360 9.847359 0 0
18.708326 440.953030 69.844276 28 1
37.662434 476.453950 -149.609420 41 1
-168.956480 423.515140 -39.379074 58 1
-117.485230 395.912230 -66.343971 0 0
-53.706890 420.939270 -174.708850 39 1
5.533972 404.310640 -226.542370 39 1
-187.974780 612.974370 17.204733 3 1
-112.777330 522.959050 -10.174897 0 0
-69.313599 688.362550 -71.517784 63 1
-46.361603 455.497620 -4.390212 0 0
-34.133621 257.236150 62.911396 0 0
-63.636856 328.248170 1.783481 0 0
41.665596 432.655760 -160.438080 38 1
-143.810580 742.823360 -41.702538 34 1
-47.706955 221.788930 47.599888 0 0
-75.641289 303.832310 29.507473 51 1
-179.089870 620.088200 36.981686 3 1
-72.020195 379.135410 1.872695 0 0
53.048409 471.602080 -174.279830 41 1
-150.861630 321.147430 -171.579060 22 1
43.142040 235.538800 4.571056 49 1
48.862831 313.399780 81.814499 61 1
-174.660000 459.763460 -94.995865 58 1
-144.021180 600.558290 46.398220 4 1
34.998024 353.371370 -122.501210 16 1
-204.710980 603.480160 -10.553427 64 1
-20.224529 429.970430 -44.984196 0 0
25.224510 499.468140 -52.167809 47 1
-142.183200 753.571170 -46.534824 34 1
53.027306 187.486010 100.178960 19 1
11.080587 337.264890 -62.116005 53 1
-86.926956 641.713200 62.111790 2 1
-218.874310 592.873290 -8.641499 64 1
69.658661 441.558960 -101.393770 50 1
-146.919430 653.827940 60.362831 3 1
17.974401 757.419370 4.195313 1 1
-65.169624 312.531400 40.861057 51 1
-84.603020 663.939940 77.890594 3 1
25.599926 418.004730 40.729889 28 1
-87.760254 453.571080 -3.119224 0 0
-148.556120 640.484860 42.892906 3 1
-128.558260 602.355040 -32.935417 6 1
7.081406 502.134520 -43.289848 46 1
-80.736221 310.000240 13.283042 0 0
-37.851517 311.611540 -59.513817 0 0
53.299873 230.453110 14.595837 48 1
67.822792 424.756200 150.413120 28 1
-42.186832 306.308260 -7.582361 0 0
-123.357630 657.287840 69.998825 3 1
-60.494892 356.445400 67.382576 0 0
-11.632769 429.088530 -220.512680 39 1
47.257519 709.637270 -15.225451 1 1
-61.500740 545.990170 13.264213 0 0
11.124456 415.054200 -200.213330 39 1
-9.048280 457.473140 -175.432130 42 1
43.353176 534.530400 107.660350 7 1
26.244480 731.702030 -19.348282 1 1
-249.369930 564.590580 -46.417965 64 1
6.251616 752.289000 5.078909 1 1
-0.332311 342.517180 -81.542145 53 1
-114.418300 313.166380 -109.041890 30 1
10.589180 345.203280 -105.445600 16 1
-89.147957 547.759580 103.968240 8 1
-58.288952 313.055940 -20.629288 0 0
-84.783806 672.503600 -74.742844 63 1
-77.292892 441.017850 145.238450 11 1
-180.586500 596.358340 -79.588860 6 1
-9.696852 440.209320 51.889751 54 1
61.993893 303.219540 79.946037 61 1
-155.536640 736.739620 -45.712517 34 1
16.458502 185.525210 122.279430 18 1
-34.334076 85.513840 -5.615594 0 0
-53.290001 439.624790 -181.531650 42 1
45.054230 427.535550 39.622593 55 1
-55.451115 216.513200 20.569714 0 0
39.549423 387.419530 188.034480 25 1
-9.878899 435.516480 18.748198 0 0
-72.593788 712.255190 -3.174457 0 0
-60.634460 479.191350 26.634254 0 0
-140.692630 326.529050 -139.635360 22 1
-76.671204 753.015320 -6.787442 0 0
30.420105 752.182430 18.813637 1 1
-39.134331 328.661560 135.446640 52 1
15.224942 317.074280 65.874405 61 1
-30.239569 566.222050 140.963790 56 1
-1.810250 638.385310 146.156140 2 1
-50.059635 332.522250 13.617250 0 0
-6.966113 644.373900 -117.483190 62 1
-52.535755 335.571080 29.961185 0 0
-60.218769 265.613100 61.018459 20 1
-28.075201 196.043470 102.593810 17 1
-47.266289 267.120210 -36.842609 0 0
-50.797382 352.283780 36.692417 0 0
1.144128 450.621640 89.683601 28 1
8.772954 654.983580 -76.639809 62 1
5.246661 472.207280 -156.371440 41 1
-188.443130 450.226070 -79.327507 58 1
54.466537 415.006260 1.065620 55 1
-60.868515 439.678800 -62.641483 0 0
-64.481155 303.167570 -144.527150 31 1
-8.179715 193.622470 146.503850 18 1
49.452171 628.346680 -97.256554 62 1
-79.027512 354.132540 7.674631 0 0
-157.817810 758.690250 -34.096809 34 1
-123.165020 663.184080 -65.652962 63 1
-110.222720 719.724980 -15.592529 0 0
-155.686600 342.507600 -83.984840 24 1
-108.360670 466.529050 -157.857970 37 1
-47.498718 466.350340 28.544786 54 1
-2.364915 545.481990 75.644012 7 1
11.749938 412.560610 -115.228840 0 0
66.867584 286.926910 90.189293 61 1
19.839663 536.499330 -20.564619 47 1
45.188526 504.243870 -108.263960 46 1
38.064220 530.127810 -79.239464 46 1
43.238201 329.069890 -170.182250 16 1
-5.160812 696.047490 4.070861 0 0
-53.246925 248.242460 14.138151 0 0
-153.708800 579.460020 90.521729 4 1
-19.685171 183.574600 15.415002 0 0
-75.172852 428.185910 -13.984566 0 0
-150.403790 441.950100 98.960411 9 1
-70.105728 309.367100 63.109161 51 1
-18.784391 492.654910 -71.988396 46 1
44.355545 493.605740 -50.510647 47 1
-215.196990 714.605040 -3.912805 23 1
92.067940 421.276580 -187.165920 38 1
-10.065758 99.865288 2.952683 0 0
-27.840405 478.181980 -156.274370 42 1
42.714321 535.648500 88.270386 7 1
-139.312650 437.380680 -109.947380 58 1
-186.200870 747.207820 -22.255171 23 1
