5.871220 139.974350 -167.385070 3 1
-14.452033 204.868090 67.385307 9 1
28.493176 168.906860 -62.829147 5 1
-14.716143 218.092090 54.278160 9 1
-93.621529 169.657230 1.141701 11 1
-38.476170 200.806200 -44.374142 7 1
33.843258 162.030560 -72.689445 5 1
-7.325006 223.420040 -41.498997 7 1
-80.649254 91.473831 -48.198051 29 1
-61.826889 90.529182 -60.285835 2 1
-23.246513 211.702800 51.703056 9 1
10.878568 227.403240 -94.339302 4 1
5.770206 160.141430 -20.145567 0 0
40.800259 155.959000 -87.629166 5 1
-89.641380 178.371520 -7.098135 11 1
-91.401787 98.696426 -54.578320 28 1
52.763672 137.916320 -92.146072 5 1
-102.514220 91.222832 -67.156281 28 1
9.842988 209.919100 13.954341 10 1
3.679282 59.635506 -5.119678 0 0
-50.713062 150.964940 -65.028976 1 1
-6.276169 219.945470 40.019882 9 1
-56.899456 203.589190 6.103857 11 1
14.497440 168.069750 -77.426208 5 1
-41.612000 188.938280 23.827208 0 0
-34.967606 87.144043 -10.631504 15 1
28.922226 21.901999 -28.546623 12 1
-105.437750 194.809570 63.406242 27 1
35.939175 106.538760 19.550606 0 0
-26.542391 193.774840 45.685043 8 1
94.368881 147.869090 74.912079 24 1
87.078911 147.318410 64.335953 24 1
19.436771 207.599950 -33.331394 0 0
67.742554 207.870640 -35.842491 6 1
-123.526490 188.369510 70.332588 27 1
20.735666 221.440410 -45.380962 0 0
54.083950 150.850340 23.651493 25 1
84.596291 157.418260 47.397141 24 1
49.620365 150.856780 -80.740784 5 1
-22.054459 35.787983 10.559995 23 1
94.033447 152.309880 55.759384 24 1
-15.790828 33.451469 19.069353 23 1
-38.007275 210.270230 47.792130 9 1
-114.149340 194.817690 57.436539 27 1
3.593705 168.671880 -9.507813 0 0
10.021164 224.876010 -70.181465 7 1
-66.973076 197.962110 -9.520481 11 1
-3.437208 150.219960 -154.092830 3 1
42.351696 150.449570 -99.228104 5 1
37.703102 227.961110 -82.306915 4 1
-107.236020 188.946080 74.507629 27 1
1.347480 198.503160 -7.577252 0 0
-56.428997 144.979460 -100.016370 1 1
-66.577019 88.116333 -47.868332 0 0
62.437496 146.465130 6.316532 25 1
-81.286095 184.058520 -5.006946 11 1
-20.809357 213.829880 -65.840591 7 1
49.785927 221.219480 -96.681267 4 1
-76.041000 77.863251 -24.969633 29 1
-44.086319 211.758990 29.924284 13 1
-21.328243 85.901260 -8.633043 17 1
34.475414 121.307260 75.201622 26 1
-36.273170 174.304900 17.699831 0 0
-57.363590 201.310180 22.013760 11 1
-39.703949 213.992900 1.737182 13 1
-33.766785 207.841900 -62.327999 7 1
-24.650354 204.314440 65.747658 9 1
-15.084312 92.731148 13.886281 14 1
47.446072 120.348820 27.414331 0 0
8.848558 168.737880 -138.706830 3 1
-12.742113 61.884956 -15.110439 0 0
27.065508 218.723880 -101.051230 4 1
-49.416027 87.072739 -72.324074 2 1
75.431503 154.975740 55.556252 24 1
24.766001 11.920418 -42.244923 12 1
-16.195021 188.055690 55.440876 8 1
41.010426 211.238360 -28.556763 6 1
2.475464 187.359590 -16.477770 0 0
-47.975273 184.344680 60.835064 8 1
14.310328 29.821527 -18.208092 12 1
-71.834763 195.014480 17.784729 11 1
-4.319180 191.659990 5.579324 0 0
-51.441017 149.098690 -82.319275 1 1
20.091570 220.464100 -109.043690 4 1
22.578136 162.589040 -82.008636 5 1
49.867722 193.402210 -133.263150 4 1
-15.659493 73.101006 -16.154963 0 0
-7.833103 207.761080 12.225380 0 0
-19.716936 215.210780 24.377522 13 1
-51.841755 91.350067 -59.773754 2 1
39.126244 135.497990 61.393700 26 1
-31.149403 32.582108 6.733819 23 1
-8.346085 124.144770 -9.178544 0 0
-51.842834 215.970690 10.324247 13 1
19.539959 150.940340 -160.753770 3 1
54.934460 202.941150 -118.112340 4 1
63.408047 156.387020 51.290222 24 1
1.723174 89.629639 7.288142 0 0
-31.362976 208.163010 -37.612560 7 1
-89.734970 175.015090 -20.842773 11 1
-19.828245 222.148740 -38.325100 7 1
40.248363 218.396270 -97.278221 4 1
12.725844 175.171110 -26.825979 0 0
-27.030819 160.383010 14.778146 0 0
-85.879608 71.536423 -26.432030 29 1
-77.262054 184.817080 3.751132 11 1
4.788571 201.587980 -20.230595 0 0
-20.518780 219.402770 35.857498 9 1
6.071473 172.468220 -125.932170 3 1
-26.371290 223.902920 2.353531 13 1
57.385677 211.527620 -101.781250 4 1
30.248314 223.182460 -42.143135 6 1
58.493896 205.178450 -32.476566 6 1
19.738966 229.976550 -91.645782 4 1
-48.705799 186.035460 -52.897285 7 1
2.752448 140.951260 -16.117983 0 0
-46.048698 212.828460 19.342722 13 1
31.053133 235.011510 -68.073875 4 1
58.223312 208.984220 -20.994980 6 1
56.219337 214.741590 -57.764442 6 1
25.070351 164.682100 -92.047577 5 1
-76.675171 86.405289 -29.245037 29 1
-33.437790 207.839570 13.794955 13 1
10.344776 171.145870 -95.054070 5 1
18.448137 226.416870 -58.564392 0 0
-2.045522 171.459930 -100.228700 0 0
-6.593869 18.941420 -5.864075 0 0
55.600845 137.514310 54.847088 26 1
-8.586428 162.700130 -87.040260 0 0
1.208167 112.537470 -9.568838 0 0
74.139175 200.754680 -37.765057 6 1
16.241608 215.587370 17.987295 10 1
-90.384354 193.826610 84.565781 27 1
-43.913223 195.884950 -54.772438 7 1
-58.657211 201.382610 41.668610 8 1
-19.799168 220.213320 -56.300922 7 1
-7.226147 138.485200 -164.219120 3 1
-46.016075 164.601760 78.899147 8 1
-41.653019 157.733760 -78.128738 1 1
-20.300943 167.973860 -125.004420 3 1
-71.957520 198.157550 -24.530886 11 1
-30.323601 208.111680 -51.642754 7 1
-61.285492 206.641510 -11.642406 11 1
-92.122726 175.870410 8.098272 11 1
66.157005 209.866240 -48.833527 6 1
-20.687916 155.234530 -147.726810 3 1
-76.937416 201.313430 43.494949 27 1
74.531410 138.279790 7.401075 25 1
63.494476 147.419920 17.434256 25 1
12.608232 190.162780 -37.252899 0 0
-113.307070 182.271000 83.803345 27 1
21.455902 163.900190 -104.120610 5 1
2.044343 162.739470 -140.845890 3 1
-65.662659 144.962170 -86.912636 1 1
56.545353 146.878190 32.032421 0 0
-102.536200 163.870420 -15.149815 11 1
24.051804 232.773500 -83.759422 4 1
-27.576513 159.965360 80.152573 8 1
0.765944 100.534600 -23.492550 0 0
-62.519829 194.926390 56.335033 8 1
76.109741 199.070370 -46.753544 6 1
-99.432747 164.156910 -3.545823 11 1
-77.831108 185.420640 -21.135633 11 1
0.702198 210.502430 -17.891005 20 1
9.132031 209.906220 33.591282 10 1
-43.892982 196.566940 -38.130379 7 1
-89.799950 83.692177 -36.146049 29 1
-15.828552 92.037895 -12.790751 19 1
-23.637854 177.336560 64.739296 8 1
-97.338966 163.730580 -27.947296 11 1
41.830948 213.578800 -110.373050 4 1
-6.585304 157.653310 -149.426640 3 1
-30.875633 163.548160 -69.327576 1 1
1.080163 43.768471 -1.667936 0 0
2.436702 91.945129 -12.489647 0 0
12.123399 158.729610 -153.845340 3 1
-111.401600 203.862610 50.414803 27 1
-57.529697 85.030373 -76.515884 2 1
-64.902245 131.601000 -87.554344 1 1
16.906870 211.475160 -48.268871 0 0
-103.356620 183.447340 91.522369 27 1
-1.029669 227.047230 -29.227409 7 1
-1.903198 132.039610 -52.975220 0 0
49.453159 220.680100 -41.801056 6 1
-9.177198 224.742710 -52.426903 7 1
58.897270 133.884540 -78.681763 5 1
-107.487850 82.752426 -79.026955 28 1
0.686549 127.661440 -4.761081 0 0
0.535903 166.127840 -89.625938 0 0
49.357468 149.581150 38.155231 26 1
70.487724 144.067140 30.528492 25 1
-121.258020 191.331100 61.771992 27 1
-2.789562 171.620120 -124.417660 3 1
-86.708832 198.007510 67.996262 27 1
-1.725361 6.123364 2.197017 0 0
-23.421019 97.939056 22.461834 14 1
75.405998 138.647110 16.652821 25 1
-36.577370 159.470030 -57.995010 1 1
38.505550 233.073750 -72.730705 4 1
-15.794931 169.876210 -77.308235 1 1
-38.919746 196.550090 -62.297112 7 1
-2.905627 79.487526 -6.194466 0 0
-44.835835 30.623556 12.474921 23 1
64.115189 139.024730 1.529801 25 1
-55.006432 191.377730 49.008392 8 1
-15.687387 172.113450 -100.295360 1 1
53.654209 215.576740 -27.377226 6 1
103.921520 140.867780 63.836185 24 1
14.513654 211.373980 -16.104252 21 1
-38.923096 75.186913 -30.653627 0 0
-11.189012 32.841640 0.661110 0 0
31.249617 217.812500 -17.475071 6 1
-5.276673 103.092280 -12.815056 0 0
-26.775721 170.659240 70.050278 8 1
-24.391985 191.504040 54.024860 8 1
-0.667962 116.536030 -1.824723 0 0
66.729362 199.594640 -32.760391 6 1
-9.369577 144.764660 -158.067750 3 1
-13.179384 216.178050 -70.968712 7 1
2.218909 115.763780 -31.022823 0 0
-24.291910 167.026440 -93.298126 1 1
-36.128487 211.203290 -30.496170 7 1
-87.001381 65.899094 -19.662514 29 1
-51.496723 83.374626 -37.791424 0 0
-128.478450 180.626370 75.523804 27 1
-24.497736 169.379030 -66.183388 1 1
-19.372808 146.759510 -156.521620 3 1
43.653202 224.286850 -63.858097 6 1
35.068787 218.322190 -27.364225 6 1
-73.058044 192.912430 26.241800 11 1
-33.368851 33.416721 -1.735710 23 1
-80.467377 181.187290 13.069591 11 1
68.848038 141.748610 21.554085 25 1
30.929636 151.170010 -107.519290 5 1
-77.114357 186.510190 -12.287924 11 1
-125.766200 179.076230 85.183632 27 1
10.595745 218.663090 -23.485979 22 1
-114.962600 184.920760 73.894577 27 1
56.960133 130.978710 -95.390366 5 1
29.545929 207.803130 -118.937760 4 1
-103.195710 204.686980 47.631996 27 1
-35.534473 215.739610 10.825098 13 1
5.042736 226.763150 -42.029617 7 1
7.305929 224.035510 -51.063763 7 1
99.930489 145.863620 56.080315 24 1
49.369930 155.648740 -72.008896 5 1
-24.618282 215.182600 12.659466 13 1
-93.914536 184.328120 8.483001 11 1
51.108624 211.212300 -110.294810 4 1
-6.608338 216.912280 25.455521 10 1
-23.022068 27.926579 26.604008 23 1
-69.124847 133.240480 -98.180519 1 1
8.670845 147.840760 -165.236540 3 1
-2.568950 69.426254 -4.287825 0 0
-13.740300 165.972400 71.789238 8 1
7.699904 23.097303 -43.561279 12 1
47.103661 199.187810 -119.664600 4 1
-6.668007 34.147701 16.470688 23 1
-35.616970 213.034470 31.100746 13 1
3.299690 132.291960 -175.213420 3 1
41.620281 159.099760 -68.861244 5 1
-50.432858 191.955950 63.979301 8 1
-56.788013 142.685650 -84.195648 1 1
-12.588089 211.036530 59.016281 9 1
6.761155 76.336922 4.263090 0 0
5.874395 214.249710 20.111214 10 1
12.478865 161.956530 -97.688995 5 1
72.344048 160.836000 38.043533 24 1
-2.800882 30.438816 -6.801216 0 0
-11.468657 170.081820 -113.364200 3 1
14.906109 229.929840 -38.031399 7 1
-74.797859 97.966049 -48.939098 29 1
55.983601 143.067320 47.736938 26 1
-86.267342 92.641998 -82.147354 28 1
39.978905 120.926560 68.657867 26 1
-93.591850 73.460129 -29.376823 29 1
-22.488304 196.525250 78.418983 9 1
18.642502 167.800310 -96.529518 5 1
-38.255726 27.828590 22.431412 23 1
-11.303185 88.381485 -6.095366 19 1
-74.657425 99.306206 -60.915588 28 1
19.988482 222.032670 -14.756092 21 1
36.233910 160.916670 -81.424934 5 1
3.498135 155.428670 -156.480330 3 1
-2.319238 130.823760 -11.911160 0 0
-19.137928 75.183311 -31.551481 16 1
-3.507625 55.318222 -3.609513 0 0
-87.481071 204.593550 42.386253 27 1
-90.729210 172.068180 -13.093224 11 1
-79.856483 205.342220 53.947151 27 1
-61.484966 90.625717 -68.774933 2 1
-7.371744 221.754870 -68.818962 7 1
0.271347 195.344350 -15.547943 0 0
-86.959625 93.445541 -70.172142 28 1
-59.390869 213.720050 20.073843 13 1
-105.453060 83.066704 -69.518646 28 1
17.850649 207.579510 27.873898 10 1
15.469109 206.319980 -41.907429 0 0
-3.493045 127.491350 -176.594070 3 1
0.654321 65.154610 -10.636133 0 0
-80.255264 201.065340 72.205933 27 1
-30.318954 208.697600 25.885494 13 1
-43.579010 200.461240 37.400814 8 1
7.071937 216.213060 40.071674 10 1
-13.820606 159.047490 -145.128250 3 1
-38.568394 183.436870 70.340553 8 1
-26.422298 71.325928 -22.048363 0 0
-19.433239 80.399124 -16.576939 17 1
-39.917942 156.247560 -95.261391 1 1
39.934372 216.888400 -34.466873 6 1
-1.793560 227.998280 -37.496071 7 1
1.374834 121.826940 -45.787094 0 0
1.904249 -1.166052 3.380277 0 0
-31.400837 212.731260 51.981865 9 1
-27.444010 86.166382 -21.256304 15 1
-102.062630 175.904110 5.638650 11 1
-50.750450 155.477740 -87.412247 1 1
-97.310577 86.981621 -82.767189 28 1
-95.038750 89.490036 -70.067772 28 1
-86.202499 95.934250 -60.256977 28 1
63.844971 200.263490 -19.703917 6 1
-53.631512 180.340710 65.160942 8 1
21.208349 30.235579 -13.162256 12 1
48.852253 137.619140 29.885162 0 0
26.827881 227.915950 -96.714798 4 1
-25.915482 207.703960 58.438004 9 1
42.916611 208.763150 -20.534992 6 1
-6.799087 166.337330 -129.489170 3 1
20.833233 164.488940 -147.989200 3 1
-84.977646 192.494140 21.025009 11 1
93.247047 154.639650 47.872894 24 1
27.560593 161.404220 -99.134033 5 1
-13.016073 135.275310 -168.995160 3 1
6.601783 217.538010 9.705926 10 1
-56.057098 151.148560 -71.083206 1 1
-1.509903 92.831848 -2.747674 0 0
-41.132545 188.657670 55.882328 8 1
35.379787 229.393160 -90.247284 4 1
-28.336702 165.074750 -99.985954 1 1
19.488176 213.863020 -118.110140 4 1
-20.751724 204.066670 72.767258 9 1
2.473589 153.589460 -9.417170 0 0
-101.474690 192.169720 69.859818 27 1
-17.300667 38.882473 4.891643 23 1
-6.222278 216.371490 58.857830 9 1
-38.175350 79.434807 -79.314186 2 1
-3.775122 83.819176 7.024479 0 0
10.620551 165.004410 -83.817993 5 1
47.848721 124.583300 67.396248 26 1
-37.690765 162.648030 -84.777153 1 1
58.765152 209.930330 -51.821716 6 1
-48.786148 185.461400 23.754436 0 0
53.282207 130.193660 30.611305 0 0
-84.179077 90.352837 -40.342541 29 1
1.313043 225.855990 -64.054237 7 1
-36.746464 162.952470 -107.826630 1 1
30.030352 20.076180 -13.592754 12 1
5.087083 145.983020 -10.425036 0 0
-75.492661 94.276413 -41.739365 29 1
8.159419 201.930360 -9.764815 21 1
47.012089 215.874300 -47.621208 6 1
-129.471190 172.206340 87.802917 27 1
34.492348 16.282240 -28.238914 12 1
-56.887821 77.174873 -77.251640 2 1
-27.436954 88.474220 -12.940598 15 1
-32.400955 201.401140 38.661388 8 1
29.365761 164.869220 -78.698853 5 1
8.772014 215.117140 27.644632 10 1
-22.808868 218.029240 46.884811 9 1
2.357496 89.373955 15.202880 18 1
-11.015656 93.371368 7.072818 14 1
-0.235924 108.696720 -2.858152 0 0
46.605438 215.723240 -23.909044 6 1
-10.426126 128.819290 -172.736430 3 1
0.346467 145.434300 -59.693863 0 0
-60.735260 201.300000 -5.851480 11 1
51.633545 204.690320 -18.585590 6 1
-14.149362 81.207329 -32.087532 16 1
-35.111977 18.176851 34.762375 23 1
77.956070 156.397230 43.364925 24 1
-99.402702 194.537930 58.417274 27 1
58.231125 215.594880 -42.167778 6 1
46.219604 226.462460 -83.453171 4 1
-59.690353 188.632550 65.930138 8 1
4.994527 181.921520 -8.705906 0 0
-28.595984 166.478640 -81.742767 1 1
16.380707 161.063490 -90.584862 5 1
-117.992360 177.687970 88.535950 27 1
-40.619091 156.594360 -103.046370 1 1
69.162384 198.380920 -25.139439 6 1
-53.847778 91.075630 -67.307060 2 1
-99.065887 192.557240 84.833862 27 1
-4.818215 171.386080 -87.331894 1 1
30.691685 224.365010 -55.180771 6 1
54.042812 151.356520 -64.583496 5 1
-40.255447 207.076080 18.003952 13 1
-44.284473 217.027190 7.540880 13 1
42.695740 191.186250 -136.011580 4 1
41.709328 219.255450 -105.082850 4 1
38.937950 211.083040 -14.170010 6 1
51.487850 221.269900 -56.186687 6 1
-43.390114 193.345950 -67.741737 7 1
-4.444912 89.032097 26.275318 18 1
-13.405604 125.192570 0.604934 0 0
2.828151 147.890560 -158.037370 3 1
-30.850170 181.232930 63.076176 8 1
-11.420815 75.409454 -22.179726 0 0
-74.669243 204.556920 36.751186 27 1
-3.953164 217.753100 -21.122103 20 1
-5.155445 47.770493 -3.965168 0 0
-36.520573 213.745540 40.879433 9 1
-78.637093 189.954300 11.104858 11 1
-96.778641 93.866508 -58.721718 28 1
33.967636 198.572200 -128.611980 4 1
-47.306786 74.261253 -83.832611 2 1
-5.160113 117.140710 -9.964490 0 0
-38.820187 206.056030 -50.316860 7 1
1.923567 82.138359 -11.525119 0 0
27.323927 223.462390 -32.007477 6 1
-21.549454 168.408420 75.712502 8 1
46.097145 143.952260 -97.091011 5 1
18.587328 172.244020 -72.523453 5 1
-44.632782 175.292920 75.723564 8 1
13.968101 209.835690 -7.570187 21 1
-2.525490 17.214079 0.340146 0 0
-1.132085 41.958790 -8.746707 0 0
-65.416237 197.734300 36.488846 8 1
-69.334518 192.412600 1.687232 11 1
-40.194756 86.962769 -69.077415 2 1
-14.672477 30.105030 25.924858 23 1
14.742051 222.630310 -49.897472 0 0
-32.280849 219.154360 4.858164 13 1
-82.266739 82.236282 -35.776840 29 1
-14.195030 163.712630 -96.113289 1 1
-92.639908 196.323970 72.702583 27 1
7.721470 176.882660 -32.261497 0 0
44.929585 144.838460 -104.810910 5 1
43.438145 223.119870 -47.549568 6 1
83.687584 153.257900 61.082058 24 1
11.138440 204.669040 -17.374796 21 1
-101.483450 172.055940 -1.442386 11 1
41.318459 144.450740 48.548004 26 1
-12.454749 168.973910 -85.259293 1 1
-2.007558 208.102660 17.258921 10 1
32.514534 126.509660 70.090744 26 1
-25.140337 150.620860 -151.808760 3 1
-40.028534 194.688290 49.965977 8 1
-89.370705 199.825260 61.079510 27 1
36.935650 153.214890 -93.625511 5 1
13.661844 220.664780 -60.570713 0 0
-23.935759 216.655580 3.072284 13 1
52.696354 218.297420 -34.761398 6 1
30.054644 90.275200 14.817858 0 0
-38.276779 175.436830 69.213348 8 1
-19.325848 134.716520 -164.906850 3 1
-14.101461 138.431370 5.023891 0 0
40.105244 202.668210 -115.528360 4 1
-48.522865 155.111790 -106.281390 1 1
-24.981432 214.042010 38.602077 9 1
-34.693859 164.880070 76.264061 8 1
-38.960659 209.369370 -38.517925 7 1
-34.280651 173.134030 75.550186 8 1
-17.776035 169.441100 -117.975970 3 1
-12.595583 221.272630 -36.627872 7 1
35.215630 222.348430 -92.823921 4 1
-31.420589 188.461760 59.337944 8 1
56.761745 127.954140 65.095161 26 1
22.146400 83.430283 12.625174 0 0
-65.620377 195.224900 7.773316 11 1
43.651432 222.577620 -37.504307 6 1
-17.222675 169.629840 -92.803490 1 1
-128.685500 188.677520 65.002609 27 1
-89.121628 182.885680 14.626706 11 1
-8.511207 98.426704 17.588940 14 1
20.381554 214.617650 34.548630 10 1
-23.543457 169.345200 -105.094510 1 1
-20.082458 87.478615 -1.486142 17 1
28.190874 140.782730 50.655067 26 1
-30.992027 216.167910 -42.735088 7 1
-1.351488 178.189420 -2.351108 0 0
-20.083405 196.817210 42.486706 8 1
60.915409 210.799260 -27.614864 6 1
81.264503 135.152280 19.448862 25 1
-123.318730 197.224500 57.732849 27 1
14.177868 223.461590 -19.161335 22 1
-13.436825 220.488170 38.052532 9 1
-84.029442 197.540440 84.594994 27 1
-60.142056 90.723267 -45.431915 0 0
-45.673508 196.837600 45.725582 8 1
92.557152 145.957170 59.157230 24 1
-56.106316 76.894249 -84.898048 2 1
-71.352356 130.746770 -91.473831 1 1
-5.946992 64.542366 -14.331772 0 0
-12.744452 175.342680 66.217979 8 1
25.844114 155.204120 -102.658020 5 1
-53.333424 151.457170 -101.507870 1 1
-9.835336 219.698820 46.765545 9 1
24.993521 214.080410 26.222298 10 1
-22.747570 213.071140 -73.006287 7 1
11.131848 215.600710 -11.173522 22 1
62.414207 203.926210 -38.989479 6 1
-77.276443 205.342390 66.994492 27 1
-2.197910 172.648500 -108.169180 3 1
-33.198307 203.570070 -68.387032 7 1
23.125856 222.068470 -53.012020 0 0
79.384201 152.824770 49.660721 24 1
-59.289318 142.856290 -76.744095 1 1
-91.854561 201.592180 48.153797 27 1
-7.731518 116.253740 -0.016833 0 0
10.409119 171.675670 -132.026870 3 1
-59.465794 142.724110 -106.253120 1 1
-3.346968 86.856812 -9.193173 0 0
31.112053 213.868620 -113.645030 4 1
-26.686903 210.033340 -63.802635 7 1
-0.431557 166.345460 -3.776411 0 0
-53.514576 193.511220 55.899990 8 1
58.554913 202.918320 -25.003761 6 1
31.265835 232.445480 -84.660950 4 1
25.026354 127.990450 65.082993 26 1
-50.913834 180.006390 74.941032 8 1
-1.289647 105.380200 -18.449936 0 0
11.211448 142.089610 -171.931460 3 1
25.137960 233.125980 -71.850609 4 1
1.618711 204.778030 -11.448021 20 1
33.459732 136.540600 56.893509 26 1
-31.248920 215.208690 -50.437603 7 1
7.422544 220.912260 -64.641457 7 1
-109.659320 90.415192 -60.317360 28 1
-1.108525 140.772080 -169.139360 3 1
6.690168 188.729200 -10.706654 0 0
-55.220676 216.763750 3.981350 13 1
14.960468 208.541530 19.229727 10 1
52.441963 211.864750 -44.865173 6 1
1.479079 226.663770 -56.672096 7 1
59.421528 143.951710 12.382280 25 1
-19.950413 162.356320 -131.436940 3 1
-42.095604 220.446490 -1.032988 13 1
-2.583957 162.576800 -75.802742 0 0
-31.100336 212.906650 18.605396 13 1
7.943913 171.534640 -88.279793 5 1
4.737776 207.088610 19.721663 10 1
-48.325123 87.046684 -65.084892 2 1
-71.589966 87.464775 -34.221138 29 1
-32.194344 31.554766 21.456802 23 1
16.468142 22.325565 -31.969002 12 1
-49.436111 185.602310 70.071945 8 1
48.375618 222.077900 -89.491592 4 1
-3.933006 209.367490 -12.539232 20 1
-34.237747 83.006371 -16.555607 15 1
-63.875324 199.842940 26.833637 11 1
-36.336021 162.239810 -92.323578 1 1
-13.647460 160.881610 -137.505000 3 1
-4.093224 32.122311 0.044859 0 0
-45.385269 153.385830 -69.490105 1 1
-29.407677 213.531130 -29.725887 7 1
13.841921 226.893340 -64.084518 7 1
-19.442368 181.054730 60.151077 8 1
30.942347 167.887920 -69.468857 5 1
61.597599 150.706710 35.474030 0 0
-78.392143 195.110700 22.023842 11 1
-29.425625 33.664135 13.619878 23 1
75.079605 131.556370 4.810673 25 1
-0.826786 150.922350 -72.260056 0 0
34.016586 216.665150 -101.731570 4 1
-3.082632 123.179300 -182.660250 3 1
37.211601 223.982280 -40.919453 6 1
30.498810 115.596700 76.733871 26 1
0.415459 104.870370 -8.819758 0 0
64.745613 210.544980 -41.713417 6 1
-18.175390 210.206190 18.929356 13 1
-0.410572 220.021640 -76.525566 7 1
55.339165 146.631200 6.509768 25 1
-32.903259 196.104580 47.818680 8 1
23.935017 227.900300 -44.362984 6 1
-47.374706 96.794838 -60.536190 2 1
-65.954262 140.833590 -95.170639 1 1
-12.495378 220.146790 -56.914227 7 1
19.932196 214.427760 12.030871 10 1
32.682518 159.659070 -93.726562 5 1
27.429340 220.616100 -108.015430 4 1
6.595981 214.394580 -17.392029 22 1
52.166451 209.110610 -32.284782 6 1
-62.245991 81.956390 -72.241135 2 1
-2.047469 140.423050 -10.532307 0 0
17.397013 220.890080 -39.113232 0 0
-18.790199 97.863625 16.978289 14 1
-71.346619 92.046455 -51.250729 29 1
-43.909302 207.952090 24.011471 13 1
-53.095680 81.078438 -72.407501 2 1
41.692989 117.994750 24.127380 0 0
61.891674 156.755130 44.233486 24 1
-31.254560 216.672320 36.825737 9 1
-14.210637 211.933670 65.797455 9 1
71.438667 154.553070 65.764648 24 1
-22.420364 140.861500 -158.810150 3 1
77.913040 151.923190 71.231346 24 1
2.312320 97.524437 -8.231961 0 0
6.808488 31.492397 -10.903946 0 0
-45.353203 71.076843 -89.773590 2 1
5.953556 162.902800 -146.664670 3 1
15.206172 19.526478 -38.499306 12 1
13.035945 215.828900 33.209606 10 1
-29.735077 209.489460 -44.442459 7 1
3.957051 122.757480 -39.346298 0 0
-7.877319 187.251540 1.472398 0 0
-90.021011 182.849950 2.854372 11 1
49.137348 211.528560 -18.918108 6 1
-89.398697 77.181053 -33.557568 29 1
2.193554 84.022202 23.050241 18 1
3.654114 174.517180 -113.100690 3 1
-91.609413 171.192570 -6.022873 11 1
43.082470 129.270290 62.231323 26 1
4.472694 173.457150 -98.611023 0 0
68.812973 153.065720 54.168991 24 1
62.331348 145.536800 46.007580 26 1
71.766724 205.043910 -48.146156 6 1
-61.163921 189.668820 51.980553 8 1
-47.654316 158.155170 -81.794731 1 1
41.442631 220.373810 -25.501108 6 1
-43.321663 26.973965 27.184328 23 1
66.196648 205.120270 -53.907730 6 1
-82.711235 76.600342 -22.884151 29 1
-85.291931 185.380460 19.955126 11 1
-1.430649 63.001781 -1.836227 0 0
-53.894875 201.352580 36.337975 8 1
-60.547935 146.074920 -94.206200 1 1
-49.650284 151.702770 -93.387138 1 1
52.919720 216.758910 -101.031920 4 1
-4.098909 166.522830 -82.467567 0 0
23.797165 230.796100 -58.465725 0 0
-105.213650 157.662290 -16.588987 11 1
-56.750027 194.675580 43.027969 8 1
-94.121574 82.328178 -41.364529 29 1
-4.719473 174.186940 -93.979156 1 1
36.150867 150.241500 -102.845030 5 1
-52.833645 197.087890 30.139624 8 1
-29.578201 153.990600 15.723049 0 0
-20.026346 96.422493 10.146679 14 1
15.554421 77.945671 4.115872 0 0
-22.536057 220.310760 -44.397228 7 1
24.916656 171.512250 -68.151398 5 1
-50.316925 187.452700 55.121487 8 1
-39.701931 213.737720 16.064625 13 1
97.026566 143.559130 70.259720 24 1
87.748055 155.226650 55.854462 24 1
36.275612 212.151700 -106.495730 4 1
28.225529 17.380077 -33.676289 12 1
89.565308 149.839020 70.264580 24 1
-35.612076 161.901570 -64.641815 1 1
-43.257362 189.044910 62.445293 8 1
-22.799175 22.292952 30.616877 23 1
-44.723141 77.446091 -78.352127 2 1
-11.808788 93.812698 0.177794 19 1
-13.288864 218.115430 24.621008 9 1
86.285751 158.899250 40.940994 24 1
28.370712 222.951660 -48.710918 6 1
37.618073 221.520970 -56.391769 6 1
-58.321392 193.823140 27.540752 0 0
1.955281 108.250950 -23.717684 0 0
32.769634 143.825840 46.398495 26 1
-41.829895 173.208980 21.488472 0 0
-96.563591 166.313900 -12.964763 11 1
-84.688072 200.835330 55.861504 27 1
-52.287849 147.811480 -75.655235 1 1
-25.425701 218.063950 -52.598148 7 1
-111.867590 187.418850 79.402420 27 1
-8.281652 165.966400 -136.120270 3 1
-16.940212 216.681320 30.393263 9 1
7.101274 28.678646 -33.545994 12 1
0.980293 50.583511 -1.663048 0 0
-38.816181 89.933960 -15.449507 15 1
-21.967829 80.977432 -29.501965 16 1
-1.237271 152.292740 -65.647293 0 0
-52.774933 213.179260 18.714197 13 1
27.436941 203.879650 -124.386340 4 1
28.491903 225.116780 -102.925320 4 1
-62.461639 95.553574 -55.809639 2 1
-55.382145 153.127200 -78.590187 1 1
1.625434 74.605438 8.291758 0 0
-81.286682 205.926440 45.815708 27 1
-40.700756 196.257250 -48.834133 7 1
-108.620570 192.327390 68.835297 27 1
-57.893356 203.350690 13.345610 11 1
3.235822 172.593090 -119.821830 3 1
3.583763 66.502632 -4.657900 0 0
-26.751207 158.439800 -142.307940 3 1
24.365440 22.558712 -23.581890 12 1
3.819880 210.865130 29.565828 10 1
-94.012909 170.181630 -25.493464 11 1
54.804176 222.692060 -91.570999 4 1
-69.620316 92.215302 -39.101597 29 1
-2.425012 121.732280 -5.875400 0 0
44.269135 150.515370 -85.454247 5 1
-109.552380 82.790718 -85.428253 28 1
-11.498931 204.674100 73.419174 9 1
62.255894 136.763730 56.108723 26 1
-5.130321 5.500725 -3.558925 0 0
-30.127125 166.365720 -124.424420 3 1
20.013269 16.613674 -42.818043 12 1
0.121283 174.312640 -8.235040 0 0
17.097195 219.738450 -103.096300 4 1
44.129570 148.499880 42.199051 26 1
-98.760307 199.984510 50.547710 27 1
-3.619670 218.416990 31.297092 10 1
-68.099876 92.695183 -59.424004 2 1
29.505045 213.729000 -106.927110 4 1
42.595402 113.922490 78.749611 26 1
105.854780 148.597180 51.353313 24 1
20.771963 28.482458 -19.662630 12 1
41.418633 201.956310 -122.039150 4 1
-109.158490 73.199471 -78.482040 28 1
59.416943 146.175310 22.635849 25 1
-23.363676 145.189870 12.095631 0 0
45.816837 135.894120 60.846416 26 1
37.570114 125.712640 64.372330 26 1
-23.758039 209.755360 25.350664 13 1
-104.032680 192.104250 79.582512 27 1
-13.102807 222.472700 -26.432894 7 1
-104.811870 162.956340 0.187443 11 1
20.210400 30.867031 -6.310273 12 1
-33.724205 206.965520 20.446699 13 1
-65.544914 94.597084 -48.890144 0 0
49.215321 145.270770 -84.306061 5 1
52.676586 205.009600 -112.225200 4 1
21.394066 168.650860 -78.622627 5 1
-1.521672 58.204910 -9.240519 0 0
-0.107689 20.097025 -5.161617 0 0
50.047565 142.158910 51.572510 26 1
-5.272168 213.363540 19.864002 10 1
-39.883972 167.049760 79.742058 8 1
4.281837 33.427559 -23.878307 12 1
-64.431786 134.428590 -93.679245 1 1
-38.184666 203.014530 -61.137306 7 1
-95.524796 184.638600 14.881258 11 1
-1.969578 161.339650 -146.282930 3 1
5.121499 222.547010 -73.960831 7 1
1.604650 96.132820 -18.653971 0 0
6.738109 194.636220 -7.794041 21 1
-86.299988 178.534670 9.636222 11 1
2.374854 82.046989 5.132378 0 0
-59.935326 203.659120 0.231109 11 1
-20.523022 215.723710 56.232834 9 1
21.979279 224.218320 -93.875824 4 1
-11.429979 173.922930 -74.539574 1 1
-19.903452 208.874020 67.392441 9 1
110.615710 140.733180 60.853992 24 1
-65.974930 138.470730 -85.962456 1 1
-11.312461 68.283623 -14.807428 0 0
6.802281 166.010960 -93.013382 5 1
-6.921941 158.984010 -81.899887 0 0
26.184082 158.381300 -93.472549 5 1
-88.744820 173.809910 -0.251425 11 1
-33.236629 211.110020 -56.680573 7 1
-69.177948 197.355800 23.290440 11 1
29.192255 221.652790 -95.597588 4 1
-70.358459 192.406600 -10.223846 11 1
4.725977 176.182240 -78.386024 5 1
-5.662175 211.947360 -18.305784 20 1
-58.207664 196.574650 51.354671 8 1
-21.568911 216.927630 -34.803619 7 1
-0.311047 139.166430 -61.402832 0 0
68.135147 140.262450 6.523422 25 1
-57.153057 209.495350 3.343220 11 1
78.457619 149.549840 58.135357 24 1
-83.419449 184.479810 1.427150 11 1
51.291088 145.428150 -77.533592 5 1
-3.157179 88.412483 11.660892 18 1
-15.720449 83.529015 -6.297462 17 1
15.789711 153.565000 -155.391370 3 1
13.435077 223.348340 -98.757935 4 1
-69.665703 197.588440 -18.443392 11 1
-102.755530 165.974210 -8.840351 11 1
43.072548 160.493930 -62.606003 5 1
-44.395256 156.695600 -63.553551 1 1
-2.076494 97.209396 -13.366069 0 0
18.989462 209.560730 -11.750312 21 1
12.430327 227.146240 -53.958229 7 1
62.871723 145.341870 31.926916 25 1
-74.405617 204.681900 57.420303 27 1
-27.112671 209.189640 12.504281 13 1
-33.754494 204.753020 -46.442883 7 1
45.303398 208.124370 -109.808470 4 1
-7.844120 205.629350 68.143295 9 1
-35.729343 211.019610 6.322544 13 1
26.271498 17.856098 -39.834343 12 1
-72.056068 191.735470 -23.686298 11 1
-84.449478 178.642030 -21.760471 11 1
-103.279400 87.574013 -80.012062 28 1
-20.938166 191.110050 47.995140 8 1
54.713028 134.949520 60.851265 26 1
-96.428581 176.355530 -4.317972 11 1
-84.087578 190.347340 14.998644 11 1
56.365532 136.214280 -86.105247 5 1
9.456633 66.204666 3.302998 0 0
1.545823 149.168560 -14.818860 0 0
-89.538712 191.086240 91.680229 27 1
4.989299 27.377644 -39.487633 12 1
-17.436979 66.244156 -14.488658 0 0
-78.820740 203.690860 77.953773 27 1
-52.527538 197.057430 47.281998 8 1
18.038443 234.106670 -81.744301 4 1
46.337925 219.577770 -60.269215 6 1
55.452423 208.472900 -37.773598 6 1
-122.700200 183.038540 73.859695 27 1
-24.738329 214.527010 -40.279404 7 1
-78.895096 80.184868 -30.367695 29 1
31.993025 120.148220 69.360428 26 1
-14.285726 224.532960 -41.943439 7 1
49.505219 221.518750 -49.736443 6 1
-60.183155 148.417830 -85.884789 1 1
-64.267128 200.785080 45.097206 8 1
22.689955 22.707996 -30.461092 12 1
40.671551 222.604930 -31.464277 6 1
-81.445206 188.572620 24.657389 11 1
-57.306656 95.008255 -61.025257 2 1
-5.652691 105.048520 -6.726462 0 0
-32.016296 164.076190 82.244270 8 1
14.530070 167.516940 -141.392230 3 1
13.710137 195.102450 -33.335567 0 0
70.969154 205.351140 -40.892288 6 1
-97.846268 90.678047 -77.356850 28 1
1.439551 2.442882 -2.012583 0 0
11.136073 34.333035 -14.652943 12 1
-4.058950 92.115959 6.177927 0 0
26.819981 133.323140 61.833233 26 1
-67.659828 88.552437 -68.727119 2 1
18.371042 214.440950 -110.776040 4 1
-78.227257 98.564735 -72.135643 28 1
-57.110458 208.738160 9.839926 11 1
11.412996 171.153990 -82.290230 5 1
-84.145157 178.402500 -3.890189 11 1
39.830894 139.441960 56.153790 26 1
-5.081154 223.229780 -47.446270 7 1
43.542538 152.196810 -92.292267 5 1
-79.846779 185.833500 -30.289099 11 1
19.806370 226.567000 -49.796944 0 0
98.417252 157.460360 45.500679 24 1
-0.872962 88.263237 1.657274 19 1
-35.782875 203.938030 -39.357342 7 1
20.818054 209.896790 22.762508 10 1
-2.019179 165.751860 -9.969962 0 0
-65.278618 194.344960 17.707331 11 1
-91.781250 89.692215 -81.097473 28 1
-67.407921 194.607330 -4.159840 11 1
16.732584 174.500920 -134.179550 3 1
14.469991 175.784330 -69.263092 5 1
10.125774 176.643510 -123.436150 3 1
23.154516 208.465580 -117.031230 4 1
40.209961 123.831030 74.308533 26 1
7.162826 131.313930 -180.128780 3 1
82.740669 151.234940 67.002083 24 1
1.396428 29.946138 -28.593388 12 1
4.292469 162.558880 -25.890018 0 0
-15.140498 216.639560 10.185561 13 1
50.373531 119.938640 73.062233 26 1
17.947239 226.833530 -42.654194 7 1
107.669010 138.366620 71.357300 24 1
-98.758003 162.138630 -21.914715 11 1
-17.722319 214.199460 49.936455 9 1
-46.342434 214.868770 13.374600 13 1
13.402788 217.367770 -17.730562 22 1
-16.445623 33.759262 12.759148 23 1
-109.279880 184.414250 88.445183 27 1
14.864657 146.918870 -162.172200 3 1
-31.659626 20.996956 30.310633 23 1
35.748863 206.447310 -118.303070 4 1
52.688560 209.176540 -14.212097 6 1
-62.514786 85.776985 -64.446640 2 1
-0.613391 126.855220 -49.669189 0 0
2.936921 77.391624 -5.268998 0 0
-38.606441 178.571320 21.975943 0 0
1.697724 112.571140 -36.395870 0 0
-32.777660 172.424440 69.212517 8 1
27.270620 163.890640 -85.956619 5 1
46.026787 211.576110 -32.305210 6 1
4.513857 154.751340 -17.034016 0 0
-2.722832 155.945240 -76.374390 0 0
-74.949257 96.456909 -55.304985 28 1
73.809326 193.595760 -36.532528 6 1
-13.673504 206.238620 13.851611 0 0
-73.976738 189.678910 15.341445 11 1
-76.157532 197.471530 29.174782 11 1
-107.926120 194.409150 57.446365 27 1
52.379169 142.241180 32.160061 0 0
-36.297508 160.729310 -72.489235 1 1
36.201553 222.407910 -104.293690 4 1
-92.207184 196.012270 79.026291 27 1
-80.803001 88.028748 -33.614922 29 1
-86.375893 175.818160 -27.148916 11 1
-45.743752 157.034650 -92.870155 1 1
-1.109785 224.992080 -42.902767 7 1
-17.560703 179.260160 65.818748 8 1
-86.816254 96.558922 -75.699455 28 1
-19.752155 217.647130 -49.475849 7 1
-43.388504 183.188160 64.867729 8 1
-1.585634 156.512360 -152.971250 3 1
-100.662890 187.039520 87.225517 27 1
15.921138 210.346710 33.669483 10 1
-21.540588 215.429810 -59.857483 7 1
20.275351 157.816120 -103.483550 5 1
-9.040723 215.394420 53.240288 9 1
71.958984 152.005540 60.133160 24 1
-22.051086 212.695330 7.454979 13 1
-46.914948 82.865891 -76.289581 2 1
-4.242420 97.280556 -7.515564 0 0
-37.226143 32.848900 8.947083 23 1
0.303828 37.325478 -2.281842 0 0
3.690610 221.636640 -59.748997 7 1
-10.199326 129.940900 3.045864 0 0
1.227030 172.353550 -86.417580 5 1
-5.463808 25.004669 -5.364862 0 0
48.067791 194.125870 -127.256490 4 1
4.524374 164.508220 -82.916183 5 1
4.258481 138.350880 -173.126370 3 1
21.136477 216.457520 21.698612 10 1
90.042160 151.836150 60.480137 24 1
4.331869 61.441177 0.795306 0 0
-32.449436 210.226930 45.110771 9 1
39.831371 224.838900 -96.393791 4 1
-84.608063 181.041240 -9.459711 11 1
51.763145 215.568470 -53.485104 6 1
23.424513 215.847230 -106.691280 4 1
13.969881 220.050140 -109.793950 4 1
40.664726 209.655960 -114.970250 4 1
-25.499783 167.038090 -87.186897 1 1
13.121424 215.503570 23.284363 10 1
-63.391827 83.419525 -78.676750 2 1
-61.230515 199.230880 5.911612 11 1
12.951002 27.208717 -30.210688 12 1
-10.225088 120.945220 -3.137628 0 0
-106.176720 87.040840 -64.089249 28 1
60.764374 214.036640 -47.713024 6 1
39.204975 117.070150 74.416595 26 1
-96.613396 91.161575 -64.232468 28 1
-111.264030 198.523070 53.434593 27 1
-29.142246 198.877610 43.491718 8 1
-29.268721 219.324370 -0.506308 13 1
-25.512192 176.585390 70.946442 8 1
14.114622 28.918673 -24.264223 12 1
-56.776310 88.103889 -62.747898 2 1
-20.804565 31.600565 22.059408 23 1
-60.547977 140.700970 -98.010788 1 1
-31.627924 162.025820 -104.633470 1 1
11.614367 215.807370 14.013149 10 1
-38.950943 209.229570 27.688951 13 1
-46.873055 169.624910 75.493973 8 1
7.020350 172.500430 -28.078896 0 0
-55.952206 144.396060 -90.206787 1 1
-10.899607 174.289380 -97.218521 1 1
-24.967939 33.894264 5.493627 23 1
-49.072121 214.031860 5.262523 13 1
63.163082 205.101910 -46.362690 6 1
38.499035 111.609720 22.046089 0 0
35.263954 220.150360 -21.426750 6 1
-7.491450 172.244610 -118.788060 3 1
87.805481 152.975720 50.034088 24 1
-36.382385 179.962650 65.623474 8 1
16.655224 160.226240 -150.091920 3 1
-119.119190 179.916550 83.002213 27 1
79.202209 193.874190 -46.223251 6 1
-72.748795 205.644640 44.192986 27 1
49.427292 125.568460 29.784029 0 0
9.671404 32.170036 -21.398796 12 1
-110.534130 79.773521 -67.896484 28 1
22.017935 161.190140 -87.882156 5 1
4.548878 144.206310 -162.534670 3 1
-80.283463 97.039490 -59.575718 28 1
16.716505 216.851030 -45.116425 0 0
-0.488833 193.208630 -9.866367 0 0
-55.749870 152.486100 -85.237808 1 1
-62.599106 200.478520 -12.858736 11 1
-22.093071 185.748980 55.726749 8 1
16.746651 164.020310 -82.742844 5 1
41.574287 154.693070 -81.618607 5 1
70.146996 155.963240 41.046295 24 1
-6.845694 173.855010 -111.844230 3 1
-72.725563 81.986450 -28.014963 29 1
-37.577370 25.994253 28.781923 23 1
-62.604435 143.250080 -81.993263 1 1
-29.691547 163.020860 -94.471916 1 1
92.240967 145.494630 66.867638 24 1
-29.792789 164.291080 -75.365784 1 1
-7.067954 180.012850 -1.257452 0 0
0.125730 35.987961 -20.338711 12 1
-81.363403 181.396990 6.549346 11 1
-32.254375 159.176930 17.645901 0 0
42.768425 224.310260 -57.817146 6 1
-22.892899 85.123222 -15.155740 15 1
-38.675465 168.759660 18.830736 0 0
8.396095 157.934280 -149.030110 3 1
-8.251895 220.162290 -62.356155 7 1
-88.402267 177.162660 -15.279348 11 1
8.984984 230.483290 -39.430744 7 1
-0.453760 169.745590 -94.692833 0 0
7.471739 154.703110 -22.264235 0 0
-46.811371 207.028580 17.980974 13 1
3.703377 210.110210 14.635652 10 1
-34.255939 215.991560 0.151603 13 1
-44.421944 190.857600 -51.287735 7 1
14.613190 187.992740 -32.025932 0 0
-15.554366 223.971250 -31.748411 7 1
-128.616990 186.353700 72.794266 27 1
18.883945 216.110820 -15.439404 21 1
45.806416 152.950930 -76.614807 5 1
-12.203239 214.634200 -76.719772 7 1
-49.446594 77.734856 -38.286724 0 0
98.134262 150.333240 51.868389 24 1
-18.470589 80.457489 -10.630742 17 1
-26.254669 163.991440 75.933067 8 1
-17.964922 33.308334 6.970583 23 1
-17.907213 135.954500 8.919270 0 0
59.162441 142.578870 3.128852 25 1
-87.331596 97.925133 -66.189445 28 1
36.914097 131.619720 65.367584 26 1
-28.961330 139.667390 -158.278780 3 1
-77.312408 202.299640 49.480167 27 1
-104.708400 79.751144 -74.675102 28 1
-30.797449 148.826400 -151.150280 3 1
-14.656339 168.564910 -126.857730 3 1
-8.636739 150.596740 -157.027710 3 1
-117.598080 189.254470 70.750618 27 1
7.128548 215.689870 34.042431 10 1
44.977116 220.552990 -100.262950 4 1
5.805083 87.141624 10.877860 18 1
25.283739 232.322540 -77.754395 4 1
14.548186 228.174850 -89.340088 4 1
-59.945377 192.385440 61.310921 8 1
-13.943643 213.089460 15.886498 13 1
-47.659813 152.675700 -79.425255 1 1
69.692390 207.134190 -58.288368 6 1
-2.162484 223.176680 -52.633957 7 1
-7.854975 144.400220 -164.029750 3 1
-44.239326 158.394840 -72.810257 1 1
15.825490 162.023210 -102.602010 5 1
-47.718147 212.879010 25.354240 13 1
-41.556316 30.390680 17.425037 23 1
-101.956050 90.647751 -61.270496 28 1
-2.900496 165.360310 -138.855610 3 1
-17.285675 74.624382 -21.670517 0 0
46.965244 130.503170 66.939980 26 1
-20.774647 167.517140 -79.723808 1 1
40.423973 193.520100 -130.705980 4 1
-39.751049 206.766160 -43.814934 7 1
2.467939 127.624730 -10.419724 0 0
40.453396 231.698760 -78.432182 4 1
-43.916912 198.065630 -43.868851 7 1
-47.222790 191.160450 58.563225 8 1
-71.252441 206.565840 68.934219 27 1
-19.157358 150.006450 -151.567060 3 1
-110.111500 191.332410 62.102856 27 1
-6.791291 92.164452 -5.330684 19 1
-133.989760 178.788700 76.639023 27 1
-21.125597 33.497910 16.363361 23 1
-27.171259 217.701290 7.960378 13 1
-97.783051 171.879210 4.992970 11 1
-65.058067 93.078308 -64.689438 2 1
-56.797176 88.444244 -71.696335 2 1
43.732162 220.672200 -92.980316 4 1
56.981121 218.110790 -62.555382 6 1
-77.320641 187.347370 -1.583181 11 1
0.388832 216.342060 -16.921238 20 1
-10.845529 96.472260 12.209798 14 1
-10.601204 225.292080 -46.484135 7 1
-58.447258 210.272860 15.374091 13 1
0.612566 184.609710 -11.614108 0 0
-2.943898 220.701030 -64.849785 7 1
-103.556390 87.923111 -72.250114 28 1
-98.685822 180.536510 6.972917 11 1
-41.025433 183.889450 20.737091 0 0
-44.485016 194.395170 -61.020958 7 1
-0.916336 71.657265 1.499950 0 0
-68.584106 194.894560 12.840434 11 1
-4.069429 91.148346 16.821146 18 1
73.914749 196.364470 -41.711876 6 1
-22.912748 218.576220 30.558424 9 1
54.403336 208.448290 -106.296220 4 1
-23.558277 169.848340 -114.592040 3 1
28.288467 25.733511 -12.194881 12 1
4.858076 192.572530 -17.993427 0 0
0.758283 144.056460 -6.810723 0 0
-49.700157 149.596070 -70.685890 1 1
-68.053757 88.332756 -29.125507 29 1
38.226608 224.962300 -87.564873 4 1
-37.943760 219.522840 3.394920 13 1
-74.376656 190.311710 3.807478 11 1
-15.740461 215.841600 60.152111 9 1
-28.247240 27.231575 23.056612 23 1
9.935116 171.876740 -100.888320 5 1
-32.573601 162.185390 -81.553429 1 1
-53.379482 148.037540 -96.017258 1 1
-13.860027 173.827410 -109.328290 3 1
-5.014366 196.457290 8.977481 0 0
64.889877 145.941330 11.772752 25 1
-42.467579 202.346560 31.736942 8 1
1.808872 118.046300 -7.515328 0 0
9.667287 162.830730 -23.573837 0 0
19.981476 83.006821 7.212494 0 0
-6.347426 225.370060 -26.545788 7 1
-7.883983 226.954540 -36.505802 7 1
41.398075 213.497010 -104.026070 4 1
81.348503 154.842040 54.974430 24 1
61.578327 214.232640 -54.594498 6 1
-85.296516 71.409264 -20.574549 29 1
-24.165581 81.510506 -19.808102 15 1
32.953033 102.241190 16.968321 0 0
39.621445 162.279110 -73.463989 5 1
-45.812889 83.666481 -69.252792 2 1
-8.337841 59.584518 -12.059796 0 0
63.513611 210.862670 -33.041359 6 1
19.958572 211.083180 16.802021 10 1
-98.757652 166.910230 1.871163 11 1
15.554839 204.433140 -36.372635 0 0
11.960340 199.745530 -13.726097 21 1
-25.370548 212.707820 46.339653 9 1
-93.336403 95.021446 -70.694679 28 1
104.610070 145.239750 60.058468 24 1
50.032211 142.383150 -89.290962 5 1
-99.065414 88.905167 -87.967384 28 1
-23.063829 78.613914 -34.720016 16 1
53.035168 145.249730 42.318619 26 1
-62.458500 198.288560 20.898756 11 1
68.586823 204.844390 -30.963600 6 1
50.678070 137.893080 57.899109 26 1
72.408142 200.475200 -31.965765 6 1
-16.974531 207.896440 62.484848 9 1
-40.939320 201.245730 -53.139572 7 1
62.785461 201.432100 -28.917997 6 1
-20.492039 219.107970 41.684444 9 1
-1.415300 213.334930 29.408958 10 1
-27.827591 213.384920 23.405203 13 1
-3.380785 146.083850 -158.141830 3 1
0.822734 30.157137 -2.296503 0 0
45.512943 214.628800 -42.147640 6 1
2.925359 162.886900 -8.858906 0 0
36.010571 159.205220 -87.513046 5 1
-10.228401 173.183440 -88.542282 1 1
-3.851246 219.392470 45.241585 9 1
-4.120460 218.349750 -72.177719 7 1
31.751564 223.229550 -28.294418 6 1
0.875816 136.254290 -13.315630 0 0
-88.681702 76.514687 -27.859177 29 1
18.914049 229.764980 -85.902855 4 1
36.543816 220.973680 -45.838974 6 1
24.493776 217.752090 -112.080280 4 1
-30.676935 164.928150 15.129747 0 0
2.989788 92.056992 -6.396223 0 0
34.245193 163.856690 -66.995987 5 1
30.890678 159.363430 -79.494209 5 1
-86.207306 90.876961 -46.613243 29 1
-6.528972 202.145830 11.749939 0 0
-40.907066 179.060500 73.461891 8 1
-0.848283 11.763601 1.138140 0 0
50.735600 140.093310 -97.228325 5 1
28.363405 20.486097 -19.980392 12 1
-59.074390 197.161650 37.783955 8 1
57.367893 149.826610 18.668446 25 1
63.536201 143.039000 -2.537970 25 1
-10.728897 207.607440 63.397102 9 1
-41.406837 202.155360 -38.869186 7 1
68.628609 199.252870 -38.308594 6 1
16.355389 228.385730 -95.994087 4 1
-69.077194 99.102264 -49.131626 29 1
0.235592 213.816940 18.361832 10 1
-9.645908 193.702700 6.066534 0 0
-36.615810 206.516400 -56.180344 7 1
22.982227 227.317090 -31.501745 6 1
9.570939 172.595600 -77.073830 5 1
62.882607 141.177110 8.778465 25 1
-2.188841 136.886750 -56.323547 0 0
-20.825998 169.543720 -71.280449 1 1
-46.433109 151.309200 -61.180077 1 1
3.916066 117.961430 -36.005924 0 0
75.168404 135.054790 12.068681 25 1
8.229355 153.906880 -153.147670 3 1
-124.249110 179.677630 79.448334 27 1
-31.971064 213.249250 -35.121918 7 1
5.745921 70.667953 6.041933 0 0
23.201214 209.320310 28.777605 10 1
61.297665 214.362700 -60.574562 6 1
-30.701275 167.747280 72.962013 8 1
-94.022400 196.418640 59.703201 27 1
32.844307 226.921330 -85.798531 4 1
-93.946648 172.202000 -18.030476 11 1
-10.181252 34.875969 20.989403 23 1
-29.136642 176.416350 66.144875 8 1
15.209265 211.270420 12.683737 10 1
-60.305222 138.256930 -86.109207 1 1
58.315933 149.628910 27.229631 25 1
6.258037 151.711120 -160.966460 3 1
-28.871326 191.155810 50.141712 8 1
25.171101 230.924070 -89.509476 4 1
-14.035803 78.516464 -16.489069 17 1
46.443096 124.054270 72.855522 26 1
5.873383 85.462677 27.104050 18 1
-11.944097 93.278481 -8.862304 19 1
-17.210398 219.560560 -42.634750 7 1
-2.794128 73.966103 -7.656303 0 0
-70.416420 200.853760 36.300926 27 1
51.464184 151.272830 -75.413849 5 1
35.849369 219.576710 -37.298126 6 1
66.636658 144.007050 26.290653 25 1
4.061207 166.378570 -136.853700 3 1
-13.964060 148.551240 -157.183210 3 1
-26.300823 212.929020 56.288666 9 1
-38.615891 196.500290 -56.610691 7 1
-76.259598 75.296402 -19.783333 29 1
66.506310 135.516950 -2.179078 25 1
-48.258083 198.208910 35.207794 8 1
-53.482632 187.925600 66.910172 8 1
28.616510 225.568470 -37.305462 6 1
38.926044 220.823380 -50.962475 6 1
-81.925560 199.604170 89.394951 27 1
-115.634890 193.129900 62.589668 27 1
-53.805286 183.353030 60.417622 8 1
-11.818175 204.105360 9.000279 0 0
-38.014362 201.177670 37.598667 8 1
-19.541378 214.519300 14.997585 13 1
6.368725 228.132390 -47.343185 7 1
52.002651 128.199600 68.467323 26 1
33.483322 166.069260 -61.766045 5 1
-56.102280 215.459180 13.938328 13 1
-34.642673 72.294670 -32.828968 0 0
-1.872994 173.137480 0.079319 0 0
17.323650 73.120796 6.424630 0 0
21.852533 166.957030 -85.454178 5 1
0.573385 204.895080 -18.434107 20 1
29.279434 95.710480 13.777168 0 0
-36.171875 33.123905 3.466918 23 1
33.631874 18.708101 -33.206352 12 1
23.088842 164.812740 -98.115227 5 1
-30.393530 214.961170 12.860061 13 1
-9.548691 213.880000 62.734341 9 1
-46.897667 190.596020 25.095673 0 0
-17.926140 168.300340 -104.104680 1 1
10.732194 142.729680 -166.101070 3 1
53.416344 217.170090 -95.439598 4 1
44.758999 125.024110 25.998297 0 0
28.916662 120.781450 74.382713 26 1
-74.533768 191.224750 21.008995 11 1
17.525106 209.870760 -38.145855 0 0
3.561476 214.327300 25.215521 10 1
23.446274 223.249800 -104.349440 4 1
-17.383192 218.329420 -67.122437 7 1
53.944080 212.198260 -22.968843 6 1
-46.825775 190.218170 -56.261612 7 1
73.446373 151.846540 51.347557 24 1
-21.634314 208.997590 14.333879 13 1
89.418564 149.010380 55.358627 24 1
-33.468822 169.473280 16.669767 0 0
-2.656398 100.000730 -18.321604 0 0
53.380997 146.098040 36.579746 26 1
-89.038048 198.783000 52.021881 27 1
-90.901299 180.164960 -2.001784 11 1
47.850178 216.201310 -98.039352 4 1
-15.833343 189.555820 50.112873 8 1
-42.890697 74.345604 -34.476665 0 0
-93.809280 179.858700 11.757507 11 1
54.860325 206.023770 -27.723267 6 1
53.923916 135.341380 -96.949997 5 1
-6.679496 174.579040 -100.988720 3 1
-28.155003 173.118790 74.851440 8 1
8.860342 164.404010 -142.197190 3 1
4.913613 171.612000 -131.358000 3 1
19.722748 217.761080 -49.675201 0 0
-16.487370 89.981400 -7.677626 17 1
36.789051 213.102520 -112.607800 4 1
-26.684271 212.281690 -51.642902 7 1
38.492310 197.630290 -123.870220 4 1
31.797142 229.197050 -94.458565 4 1
-0.013879 25.713480 -6.086836 0 0
-21.098631 210.285430 57.267319 9 1
-34.711975 212.549190 -40.069214 7 1
-35.261509 211.506700 -51.300575 7 1
10.649496 222.178680 -56.191528 7 1
-56.058537 148.082700 -104.931840 1 1
-26.282537 218.232350 34.988342 9 1
-2.836462 125.835270 -9.552611 0 0
-30.639473 212.067170 40.065460 9 1
35.742004 226.855730 -55.008942 6 1
-30.153088 35.722206 2.303666 23 1
4.527234 140.498900 -10.690943 0 0
-93.714249 175.150620 -9.421599 11 1
-43.914375 184.787580 70.217812 8 1
-49.256302 92.473228 -64.591705 2 1
62.527653 205.515870 -20.744356 6 1
-13.451224 220.755430 -51.437542 7 1
-20.486172 168.487760 -97.090599 1 1
-11.825659 35.567032 15.146450 23 1
6.128484 215.255920 14.691828 10 1
-100.067150 193.137570 64.149521 27 1
-49.978535 210.895510 11.886992 13 1
2.185913 210.385380 -12.590494 20 1
10.057730 166.803620 -98.772346 5 1
-5.412944 221.418350 -17.299154 20 1
59.165916 204.630420 -114.987500 4 1
-4.157238 111.885120 -0.709841 0 0
-0.183162 141.336880 -163.714250 3 1
-50.927906 150.030380 -88.046883 1 1
4.121145 182.294420 -15.164204 0 0
-7.802946 208.214400 17.691730 13 1
-91.461708 95.226784 -58.869587 28 1
-81.666969 203.437940 40.813313 27 1
-11.490608 155.023270 -148.035660 3 1
-44.702377 192.000730 -41.221115 7 1
-8.173181 220.484560 34.905869 9 1
-85.937759 98.580460 -54.971767 28 1
1.161490 136.303590 -51.411640 0 0
102.318870 143.529740 68.346230 24 1
46.817207 214.131090 -108.061850 4 1
-3.276380 109.338760 -9.154403 0 0
51.913090 214.179570 -105.767950 4 1
-1.669203 35.773655 -7.221696 0 0
-42.916027 160.625920 -83.320259 1 1
-116.466300 182.376860 78.904518 27 1
-4.945471 211.843580 14.432382 10 1
-54.776619 144.973540 -79.607910 1 1
56.707951 202.253780 -19.903334 6 1
-34.374611 207.816730 51.049911 9 1
38.766232 212.120440 -23.656322 6 1
-89.762718 69.396446 -22.985418 29 1
-51.969006 84.332527 -68.111961 2 1
-13.008547 170.927640 69.619400 8 1
-58.245140 213.884600 7.641125 13 1
51.192078 228.237050 -81.975578 4 1
8.132027 71.081146 1.152825 0 0
-79.042870 90.326241 -42.977543 29 1
