-11.970895 101.430530 -35.095333 14 1
-13.569551 107.485180 -29.706430 14 1
-47.426670 102.547040 -22.399664 2 1
-6.802810 82.162216 23.081944 4 1
0.189206 110.376750 -1.279880 13 1
-2.277845 28.861633 8.751217 7 1
51.803391 74.818619 -23.263378 9 1
32.420334 108.747480 -16.104475 9 1
-6.356003 100.817340 13.318011 12 1
-11.153001 59.133682 6.023840 0 0
-53.849934 98.115112 -36.056812 2 1
-25.093512 87.611168 14.804822 5 1
-35.642075 91.452469 12.715421 6 1
-3.188330 27.269676 -4.566792 0 0
-24.224781 99.739502 -15.255809 0 0
40.014793 98.560745 -10.721389 9 1
-38.268570 106.539420 -15.535445 6 1
9.527059 25.647043 14.788356 7 1
2.308746 73.682335 25.561352 4 1
5.722228 26.805679 -9.671215 8 1
-25.636484 84.842278 26.782795 3 1
-39.000397 101.305210 -6.115191 6 1
13.694571 20.315351 -16.965961 8 1
-7.314259 92.973038 -2.398254 0 0
24.363817 105.492120 -3.902294 11 1
-18.820360 98.296135 -35.916557 14 1
22.565529 101.481520 7.629009 11 1
-6.759315 94.054794 -44.893913 14 1
28.721542 106.002910 -11.483973 9 1
3.775469 30.287149 -15.061676 8 1
48.970432 83.580788 -24.644041 9 1
11.560716 99.370773 -29.990761 10 1
15.924396 86.902184 -40.387527 10 1
-16.692545 92.794189 -43.678566 14 1
-30.230331 105.678280 -7.269963 6 1
-38.912132 109.600860 -32.221996 2 1
-13.219443 83.532822 23.936867 4 1
-43.514648 72.997520 19.102940 6 1
-1.726270 82.628807 -62.156208 14 1
46.282043 93.349998 -19.954575 9 1
-24.772844 69.129616 49.055439 3 1
-42.024815 105.938560 -21.787565 2 1
13.129772 83.133118 -44.448753 10 1
-19.405888 106.314890 -26.546938 14 1
-5.950298 66.183922 31.253633 4 1
4.631722 28.599281 4.221508 7 1
-35.599415 103.712730 12.474565 6 1
10.923964 91.055115 -36.853210 10 1
-6.620828 99.234535 7.425333 12 1
-41.087807 99.472595 -0.505968 6 1
-64.245964 92.285721 -34.719563 2 1
-29.755188 79.949371 17.036339 5 1
-5.752783 76.487823 25.452990 4 1
-0.735123 99.467125 1.646853 13 1
9.720644 22.573271 -7.929075 8 1
21.825104 76.665825 -44.147518 10 1
30.497934 82.003113 24.585810 11 1
24.787249 109.625990 -19.903679 10 1
53.404575 75.388557 -17.413006 9 1
-16.868546 90.393654 -50.289059 14 1
-30.201262 107.900090 -30.292854 14 1
-45.563637 63.132088 16.232300 5 1
-16.641670 69.630020 34.756916 4 1
20.233952 99.546402 12.715308 11 1
24.096218 83.987129 -42.078884 10 1
-1.813752 89.038925 -53.770233 14 1
14.988690 106.621420 5.218494 11 1
-31.792536 82.594482 5.775880 5 1
-9.085018 105.975030 18.133297 12 1
-6.904327 102.910240 -37.788540 14 1
39.657871 104.291930 -9.738710 9 1
-23.025608 101.469280 -33.335770 14 1
-48.232803 104.132650 -28.022226 2 1
-0.581098 61.359875 -5.170429 0 0
-7.801591 68.334396 -7.119316 0 0
17.771620 109.696030 -14.748204 10 1
-6.665159 20.919426 16.572201 7 1
37.530243 107.754300 -18.588989 9 1
-10.317630 61.924545 33.451889 4 1
24.638641 92.439163 17.592995 11 1
13.981159 71.811554 -48.305721 10 1
-37.770454 96.053619 8.775067 6 1
-10.474004 85.730057 -57.569908 14 1
-42.455711 112.163200 -19.344759 2 1
14.854926 95.074554 -32.193371 10 1
-18.479855 77.869316 43.774174 3 1
11.761042 25.250286 -19.064465 8 1
-38.089066 72.103317 16.210236 5 1
-53.015488 103.366110 -38.146030 2 1
-17.914450 91.439445 -11.971913 0 0
-59.865108 96.968971 -43.870144 2 1
-46.840855 97.578888 -0.231518 6 1
-59.211449 96.530037 -36.800625 2 1
30.484503 98.943428 8.148974 11 1
-27.968962 78.849190 36.112118 3 1
50.524609 83.978104 -14.644123 9 1
12.872190 88.850159 -9.917740 0 0
-64.913956 92.808716 -45.132923 2 1
-38.733212 65.739609 11.743476 5 1
-1.027312 33.071369 -14.695516 8 1
-32.819069 108.312810 -17.547812 6 1
-34.651222 74.447937 24.792416 5 1
21.163061 116.404500 10.725795 1 1
-0.069370 31.116789 -2.028106 0 0
12.273831 105.743600 -22.557415 10 1
-34.540268 71.738426 5.562077 5 1
22.954237 106.883430 -10.492913 0 0
12.032125 16.806952 -13.008549 8 1
8.027470 20.927698 22.064713 7 1
20.811184 88.008667 -38.214329 10 1
14.785184 23.455618 16.357588 7 1
2.171520 27.671782 -5.600905 8 1
8.961863 80.289207 -8.170668 0 0
1.297404 8.840074 -1.193078 0 0
2.874040 18.372549 21.113157 7 1
10.047302 26.174816 9.418832 7 1
-8.229634 24.105947 12.544446 7 1
7.494929 26.995237 -25.272320 8 1
-3.757971 45.683163 -4.823741 0 0
-2.747627 94.815575 -0.286046 0 0
14.185374 102.192830 -26.280577 10 1
7.444467 111.549350 7.283811 1 1
9.752151 20.836563 -2.886353 8 1
1.092745 106.569160 -4.929112 13 1
3.481724 112.469360 -4.884102 13 1
-36.613426 62.807499 45.916874 3 1
44.940475 97.188934 -12.527584 9 1
4.811278 119.129620 -10.097381 13 1
22.180264 96.768074 -31.044544 10 1
-29.274813 84.162933 13.910996 5 1
14.926258 110.497300 -4.698566 11 1
-43.247066 107.734390 -29.735136 2 1
-55.398090 99.636375 -31.268581 2 1
-2.363639 67.372566 -7.456068 0 0
43.161472 98.623802 -19.488342 9 1
33.590450 90.851761 11.226415 11 1
6.911448 106.467660 1.733017 1 1
-22.989862 86.827965 22.726353 5 1
-14.479752 83.182968 -7.595023 0 0
-33.179756 84.526772 31.215294 3 1
-33.539120 73.032837 42.887699 3 1
-9.094443 96.904999 -40.721081 14 1
1.014828 115.615440 -8.597159 13 1
22.521906 104.919240 -21.036831 10 1
-27.572601 101.623920 -38.854385 14 1
-32.644760 105.255620 1.843439 6 1
1.156075 17.160046 -0.752635 0 0
-77.326248 81.051659 -42.378822 2 1
2.270428 25.051334 14.532879 7 1
-46.098675 92.430679 7.688631 6 1
-25.793615 74.513153 44.438995 3 1
-48.336090 102.425880 -36.171772 2 1
-21.021761 81.527863 18.033255 0 0
3.050788 28.873396 -23.564415 8 1
-2.293777 73.421425 27.783661 4 1
44.873589 91.472580 -13.598384 9 1
32.718788 87.334358 15.184131 11 1
-41.799809 67.771790 44.022602 3 1
-72.016319 86.237442 -35.355167 2 1
-30.644640 104.566410 -20.260515 0 0
-26.676525 106.998470 -23.582878 14 1
-34.745495 104.017810 -5.414238 6 1
-4.849186 105.019170 10.797288 12 1
-0.288359 21.850719 17.526661 7 1
-10.840517 73.837456 -6.415717 0 0
49.236897 89.238037 -12.217206 9 1
-19.223793 96.796448 -41.731674 14 1
-5.715343 92.662399 -7.217793 0 0
-3.413778 53.307030 -2.621351 0 0
30.363354 95.134232 11.474630 11 1
26.243965 102.552810 -0.217683 11 1
-26.465313 111.878260 -12.752436 6 1
-12.071285 94.999619 -44.296242 14 1
49.408348 85.069351 -19.813986 9 1
-3.548445 -0.541010 0.023577 0 0
-7.036024 90.819702 -48.797173 14 1
24.026569 96.094551 14.238759 11 1
-22.670828 80.265327 29.360043 4 1
-1.130372 100.711050 -3.158910 13 1
14.054613 113.430940 3.931005 1 1
-36.098976 107.542390 -22.027294 2 1
28.846106 87.967178 18.513554 11 1
32.278080 114.811200 -16.701593 9 1
-6.017228 108.432500 25.989876 12 1
-6.918320 51.137829 0.595853 0 0
-8.839195 88.281090 -2.522114 0 0
25.808353 109.276640 -13.749352 9 1
-29.034929 66.908546 48.013321 3 1
36.556927 84.674301 16.871162 11 1
-31.527636 111.497920 -26.141460 2 1
17.068407 75.818733 -44.951351 10 1
-8.206122 77.957657 -6.934926 0 0
20.282394 100.609810 -25.095900 10 1
4.015668 69.283005 26.820642 4 1
11.796175 109.116360 7.943478 1 1
-23.899937 81.295288 37.438591 3 1
-15.873744 77.021454 28.119627 4 1
-66.586388 91.192924 -40.763630 2 1
1.027409 25.062086 -1.664804 0 0
2.646397 72.857018 -6.284891 0 0
-4.962574 107.464090 20.213976 12 1
17.502270 106.940510 -18.724186 10 1
-6.243023 61.359097 -6.275550 0 0
34.877693 80.889427 19.737923 11 1
-23.647287 96.259109 -44.626503 14 1
-51.788521 101.544080 -25.679638 2 1
-40.752579 82.499268 34.796490 3 1
-27.166798 81.210663 23.973440 5 1
-9.595392 106.127240 13.366744 12 1
49.176365 89.699333 -7.421893 9 1
-28.086010 112.077480 -3.088574 6 1
-42.535168 62.981606 12.460628 5 1
34.546852 109.511430 -4.384164 9 1
-32.636024 104.410190 -14.848872 6 1
16.526197 112.270320 8.556437 1 1
18.766527 103.773900 5.555040 11 1
-42.567234 76.597748 41.766594 3 1
-5.848938 102.563040 17.708282 12 1
-30.523605 110.642890 2.301184 6 1
-44.360046 87.207588 10.634103 6 1
46.564705 96.251770 -6.306137 9 1
-14.746916 87.872528 20.049204 4 1
35.446239 105.590720 -8.136303 9 1
1.362289 107.588390 2.318462 1 1
-37.725567 99.420502 2.739474 6 1
19.853802 105.957180 -2.763330 11 1
-7.129049 103.408360 5.008982 12 1
-49.936928 105.082860 -19.393658 2 1
29.296413 111.102400 -10.921769 9 1
-32.407265 79.155716 20.785048 5 1
-33.394524 67.845131 46.711227 3 1
-1.977440 57.510994 31.235420 4 1
-33.281315 76.345634 8.626292 5 1
-55.564899 98.783257 -26.111422 2 1
-72.806114 86.427811 -41.913723 2 1
50.272316 79.099052 -23.831369 9 1
-48.716492 100.566380 -30.845757 2 1
29.040928 85.841476 22.537519 11 1
-49.561588 84.437004 11.213562 6 1
18.964750 105.462350 -12.143629 0 0
27.263800 93.185364 -37.531002 10 1
35.829617 103.812740 -16.683132 9 1
11.585296 21.174288 -11.852573 8 1
-18.909845 73.750458 13.947578 0 0
-7.284756 96.453362 -5.328549 0 0
5.970157 110.665000 3.106870 1 1
19.238325 94.090118 -33.254417 10 1
-24.208055 85.180428 31.133850 3 1
-41.508266 82.633995 15.023915 6 1
-45.192368 108.227350 -37.295025 2 1
-5.869820 84.715004 -4.717193 0 0
-21.467302 83.623329 25.554819 4 1
41.866661 104.124900 -5.595129 9 1
8.976129 106.404130 5.730507 1 1
22.223909 110.440320 -16.262590 10 1
25.329269 102.433920 4.179629 11 1
14.907736 23.390619 -21.824413 8 1
-3.700338 40.152626 -3.010776 0 0
45.902683 88.726318 -20.769629 9 1
-38.912167 104.812940 -24.887848 2 1
-10.752189 74.187668 28.490866 4 1
-1.200098 106.013500 -1.120062 13 1
8.228738 24.147570 18.855577 7 1
7.443980 27.593929 -15.548855 8 1
-6.279744 61.735153 31.183718 4 1
-2.717425 108.963700 -4.722294 13 1
-31.722378 80.617081 34.040569 3 1
41.611576 101.136760 -22.972076 9 1
-5.807821 29.716461 6.172564 7 1
-2.707790 95.632393 -45.847946 14 1
-34.160927 76.337952 13.568159 5 1
-2.710445 82.543419 21.375027 4 1
-38.482708 78.321655 37.969063 3 1
-0.379489 65.597763 -3.864421 0 0
-5.062772 69.467873 28.372864 4 1
27.547403 101.780210 -30.485609 10 1
-4.786970 98.464897 -2.019972 13 1
28.282690 107.357760 -4.967284 11 1
46.875687 94.105583 -24.275217 9 1
-35.017826 105.581940 8.482328 6 1
-29.599993 74.884369 42.251457 3 1
-12.630735 89.912827 -51.383274 14 1
-26.861797 105.066110 -30.286270 14 1
4.019512 103.806600 3.808597 1 1
-11.543172 89.661453 -5.758946 0 0
-5.292463 49.394051 -3.102839 0 0
-48.643353 106.296870 -34.177059 2 1
-14.118599 67.092194 11.394095 0 0
-5.480781 27.213186 11.208572 7 1
0.578875 29.637293 5.553252 7 1
-0.090612 25.791187 10.932783 7 1
-29.490152 85.053886 28.799982 3 1
-3.993074 59.904186 -2.842734 0 0
-21.596802 103.846780 -29.677118 14 1
-37.666336 113.686010 -32.961182 2 1
30.610386 110.897990 -5.868294 9 1
-18.362453 72.887772 32.513485 4 1
-39.831112 71.534630 42.692116 3 1
-10.574252 71.393333 31.950155 4 1
-14.332030 104.325130 -32.518871 14 1
26.009197 98.516113 5.932388 11 1
-27.437950 108.384960 -16.809275 6 1
15.941136 79.899597 -45.558434 10 1
0.879333 2.918988 -0.720858 0 0
-55.182583 94.995995 -28.050941 2 1
-37.897835 69.860519 12.498755 5 1
-66.314735 89.008240 -36.642426 2 1
-7.893456 70.071495 -3.226309 0 0
-48.573219 80.776512 14.096485 6 1
2.239967 61.691017 29.159708 4 1
-3.487544 100.340580 4.791097 12 1
-23.394146 82.802307 21.485025 5 1
-39.076065 88.925072 12.469966 6 1
-22.290209 106.875990 -23.436319 14 1
-11.360053 56.318359 2.879098 0 0
-5.651237 82.606667 -60.380070 14 1
-23.697378 86.257370 18.536201 5 1
-14.615603 98.210754 -36.311104 14 1
-32.003578 104.501910 -2.234325 6 1
-60.468395 94.490814 -28.528513 2 1
23.740292 103.058330 -24.605423 10 1
43.180260 96.510139 -8.789393 9 1
-18.292360 84.915047 36.960083 3 1
16.636133 68.524475 -47.689339 10 1
-45.243420 105.396300 -24.538658 2 1
15.432093 97.520966 -11.651540 0 0
-36.057411 103.208660 3.217433 6 1
-37.695663 100.092710 10.653223 6 1
-47.797592 100.411220 -26.205450 2 1
-43.238873 109.344400 -33.649197 2 1
-38.646416 103.522150 -12.518036 6 1
-40.779301 109.852990 -22.394518 2 1
-36.567982 74.331909 20.905527 5 1
-0.047948 38.217346 -3.542095 0 0
14.917592 17.272594 -19.489334 8 1
37.584835 100.534710 -13.717045 9 1
-28.176184 108.725880 -9.285428 6 1
-6.452944 85.331329 20.231825 4 1
-42.758411 76.423729 16.706867 6 1
-0.695580 56.006538 -4.142609 0 0
-42.809204 101.238740 -7.911447 6 1
-14.884472 80.014343 25.421185 4 1
-29.894939 82.299133 9.508431 5 1
-10.064291 100.319570 -38.653435 14 1
-8.896028 75.874756 -3.426796 0 0
30.243965 102.875810 1.046909 11 1
-44.155643 68.947426 19.149187 5 1
-0.396905 24.427225 -5.524641 0 0
-34.935650 109.482820 -27.301407 2 1
33.955574 107.542680 -12.443512 9 1
-57.465534 96.996292 -40.474094 2 1
2.009778 54.179527 28.295794 4 1
-44.930954 80.733566 16.221581 6 1
8.250829 101.774350 -29.970692 10 1
-21.251429 97.173187 -14.136710 0 0
19.715195 109.415790 -10.568716 11 1
-34.593651 78.109077 39.425037 3 1
38.472359 103.349320 -20.103954 9 1
-9.241493 81.693855 -5.590834 0 0
12.514828 23.651461 7.383435 7 1
-30.779995 104.476060 -11.226938 6 1
20.132984 85.158119 -41.037647 10 1
-41.627445 94.678459 8.244209 6 1
6.930211 25.948235 6.831244 7 1
-60.196568 93.159492 -34.643131 2 1
-10.494331 80.483284 23.739916 4 1
42.661880 99.027214 -15.414456 9 1
-28.914989 104.612880 -16.508863 6 1
-0.548184 112.734010 -4.678998 13 1
-17.178602 83.976753 24.621801 4 1
16.763687 116.195940 9.672241 1 1
12.272940 87.611412 -38.474041 10 1
-22.299841 76.572464 43.868488 3 1
3.491144 29.836969 -19.078434 8 1
-42.283379 57.786873 11.085711 5 1
-7.513320 80.043839 -64.734756 14 1
-45.050560 103.353580 -30.373022 2 1
-26.229864 83.713005 16.568243 5 1
22.469873 80.533463 -43.305691 10 1
-21.334429 79.977837 41.046886 3 1
-45.444771 95.917831 3.136228 6 1
-29.983320 109.756370 -5.744856 6 1
-10.393665 109.204900 -31.493212 14 1
-2.710815 9.189949 -0.890180 0 0
-3.603667 91.488968 -2.463710 0 0
-22.114067 100.258080 -37.046177 14 1
-35.480110 87.941078 30.365482 3 1
-40.383595 70.240944 19.059542 5 1
-16.487404 101.327920 -34.680168 14 1
22.659439 107.860340 -6.606446 11 1
-0.558229 46.160118 -2.500443 0 0
-3.839398 43.771553 -1.343338 0 0
-50.849106 99.915161 -34.129322 2 1
-0.386188 -1.137935 2.473383 0 0
45.704483 94.735474 -15.685303 9 1
42.447201 101.506570 -9.463764 9 1
38.902805 110.585600 -20.978689 9 1
26.970665 93.450401 13.167876 11 1
-7.630335 89.337685 -6.119264 0 0
5.983169 24.778746 13.214547 7 1
-12.151508 61.365364 9.150814 0 0
-26.092037 101.228390 -18.390457 0 0
-8.739719 68.708366 29.740593 4 1
-1.129897 75.391785 24.568838 4 1
-13.856260 111.005220 -28.005030 14 1
10.374248 27.416563 -22.071045 8 1
-8.877833 107.276430 21.814777 12 1
2.831942 28.068258 -11.975626 8 1
0.505092 64.996864 28.014467 4 1
11.804223 94.131310 -34.436474 10 1
18.640059 105.932760 2.197940 11 1
-39.909401 106.214130 -28.421562 2 1
-15.535790 92.716354 -47.394966 14 1
44.395428 90.996597 -17.427307 9 1
39.745762 97.932251 -17.739151 9 1
1.824542 21.026430 -0.806367 0 0
-19.328901 86.580803 32.214386 3 1
-20.115559 109.895320 -24.630543 14 1
-2.815285 24.276590 -2.090804 0 0
-35.685307 69.433815 9.328163 5 1
12.342697 84.626884 -40.972099 10 1
-76.686958 82.949829 -47.732994 2 1
4.731475 114.918360 -7.606363 13 1
-4.068716 101.748910 8.897394 12 1
6.129150 23.757589 -7.180905 8 1
-17.049385 105.720320 -29.631374 14 1
-29.980669 82.077278 21.492069 5 1
-5.178691 90.154976 -52.098671 14 1
-3.200634 63.665958 -6.892986 0 0
-28.222765 77.365677 39.644127 3 1
-9.926293 83.644966 21.404570 4 1
16.691837 110.608250 -8.392590 11 1
10.351474 113.229580 5.125562 1 1
-38.771690 64.037064 8.173961 5 1
-28.795183 107.179520 -26.812439 14 1
26.786789 103.231600 -27.023525 10 1
53.299107 71.226311 -22.917694 9 1
7.118760 23.459084 -10.862993 8 1
-24.888407 82.041725 33.771988 3 1
-37.703625 111.452820 -29.004782 2 1
-52.688530 101.567360 -29.366358 2 1
-42.084278 86.647255 13.625500 6 1
-31.406246 79.223671 37.712467 3 1
-38.476978 92.765778 10.580786 6 1
-64.753036 89.714775 -31.827057 2 1
-2.824733 28.669460 -1.074417 0 0
51.975471 80.603264 -16.207911 9 1
-19.420004 78.041290 28.928400 4 1
20.784317 90.936913 -35.831120 10 1
-35.756130 83.086411 33.582710 3 1
36.786781 92.603546 10.258286 11 1
-45.677185 105.542180 -20.605757 2 1
-38.835175 65.789207 45.227398 3 1
23.319387 99.028419 10.625425 11 1
-41.988411 107.265410 -25.306820 2 1
-4.143263 79.624306 24.144602 4 1
-28.118561 87.660332 26.466616 3 1
-11.920304 87.774666 -54.746925 14 1
-25.472202 101.581540 -30.386999 14 1
-3.106698 65.385796 28.942205 4 1
-0.737383 33.939350 -4.403393 0 0
51.999260 82.619667 -11.414159 9 1
-57.751003 97.673584 -33.435059 2 1
-4.050838 97.744255 1.805230 12 1
52.288879 77.366570 -20.491179 9 1
43.695900 95.463982 -21.707409 9 1
-19.666178 94.913513 -44.912258 14 1
-51.135368 102.568080 -21.927912 2 1
-5.704666 86.876740 -54.084557 14 1
-55.526352 100.446910 -38.481686 2 1
25.473534 98.588867 -30.948458 10 1
-72.019020 86.995110 -46.638550 2 1
23.268801 110.552440 -9.050430 11 1
-33.267063 79.950897 7.880262 5 1
41.070812 101.532550 -13.089295 9 1
-41.802563 99.848663 -4.227124 6 1
-48.937790 90.821106 5.992336 6 1
37.976181 104.149870 -13.046216 9 1
5.427408 122.081360 -8.007180 13 1
-24.459173 71.737595 46.499237 3 1
-69.382149 89.290665 -42.387665 2 1
-9.161160 103.780560 -35.025173 14 1
-7.846092 101.527170 10.055630 12 1
-16.409010 108.340420 -27.064514 14 1
-38.205963 99.981934 -2.803362 6 1
-2.404013 2.193321 -2.108380 0 0
-8.145945 76.705589 28.194666 4 1
-22.998581 87.315567 26.445702 3 1
26.342073 95.810120 -35.113972 10 1
-37.899139 103.535000 -8.760929 6 1
29.223852 110.061620 -14.693540 9 1
11.389757 21.472683 23.317080 7 1
49.002029 86.949364 -23.078892 9 1
-57.561104 97.303276 -29.513563 2 1
-52.299282 98.057434 -24.724628 2 1
-9.122122 84.502724 -3.145572 0 0
41.597443 95.806183 -12.540642 9 1
21.678354 119.965710 10.361745 1 1
-2.855361 51.570042 -5.743502 0 0
-14.055131 70.420303 31.834524 4 1
-6.651384 64.948875 -6.600359 0 0
8.782708 99.124786 -32.435116 10 1
19.986563 102.173230 10.183261 11 1
-53.970463 101.578530 -34.800289 2 1
-46.299664 106.558210 -31.458035 2 1
-25.318367 102.090520 -36.031597 14 1
-1.520152 84.719231 -59.143795 14 1
47.637394 91.112328 -15.864187 9 1
12.855492 24.893381 13.669200 7 1
0.851641 26.522823 -8.734577 8 1
11.285576 23.248158 17.104519 7 1
14.696464 115.710950 6.730870 1 1
34.695770 110.197300 -18.493864 9 1
3.481416 15.335567 22.899853 7 1
1.643701 28.209764 8.738766 7 1
-5.819738 73.198135 26.993979 4 1
16.269266 84.018501 -42.663219 10 1
-4.499344 54.986481 31.312094 4 1
-43.606129 108.856140 -20.142908 2 1
-9.394782 64.831322 31.582813 4 1
-0.428527 102.543330 -0.173943 1 1
-34.901943 74.518288 39.855808 3 1
-17.180870 76.241829 31.336557 4 1
29.383875 95.561394 8.044540 11 1
1.346389 12.393275 -1.369525 0 0
-46.006626 73.766563 16.684610 6 1
-19.853399 99.924423 -32.899250 14 1
24.061054 90.717369 -37.211552 10 1
-11.038211 105.638090 -32.553860 14 1
-7.721480 79.417717 25.765158 4 1
-62.356121 93.426819 -31.501148 2 1
10.776014 22.351416 -17.056564 8 1
-4.247848 103.605220 14.065913 12 1
33.445358 80.782692 23.055035 11 1
-4.156275 102.138720 -2.017216 13 1
-33.667068 105.024060 5.264106 6 1
-38.658134 82.794189 17.101065 6 1
-32.839455 78.418709 16.265488 5 1
-18.299929 88.595802 -9.916399 0 0
8.319092 93.623100 -36.936611 10 1
-33.529316 75.892609 21.788275 5 1
-24.352812 107.827460 -20.703688 14 1
0.919914 31.131493 -16.927744 8 1
-75.558319 84.074287 -42.083462 2 1
0.396375 58.703640 28.937416 4 1
0.880160 18.582882 18.062618 7 1
-1.403159 19.491785 -0.198190 0 0
-3.307405 21.511505 15.753793 7 1
-0.141744 71.228836 26.101315 4 1
-63.947811 91.042625 -38.231277 2 1
-42.826321 96.834198 1.006189 6 1
-17.167910 96.735649 -38.743752 14 1
-26.816181 86.069771 12.170132 5 1
11.118964 19.972225 -6.006299 8 1
-8.023670 103.543530 15.117444 12 1
44.418518 93.767975 -10.572343 9 1
14.585732 97.620003 -29.779659 10 1
-38.356918 97.789673 5.809797 6 1
-20.550438 82.230133 37.655807 3 1
-14.102243 94.378326 -41.370087 14 1
-36.072823 106.756570 -25.421333 2 1
23.743860 91.802864 20.896923 11 1
11.482574 80.267517 -45.538368 10 1
17.628296 108.414250 -3.815646 11 1
5.632798 25.989614 -13.052843 8 1
-35.394363 106.089290 -13.569268 6 1
-4.271899 80.569878 -63.528023 14 1
-9.189536 93.046997 -47.195545 14 1
-71.858871 85.068314 -38.611111 2 1
53.088837 72.930115 -19.911089 9 1
1.542830 115.491520 -4.998323 13 1
21.174799 99.524460 -28.593134 10 1
-5.346521 68.239914 -4.682231 0 0
5.789207 78.913795 -8.115066 0 0
-32.230953 70.072624 44.097771 3 1
-62.617355 94.920563 -43.466030 2 1
2.432433 109.489170 -6.326362 13 1
32.004417 105.312820 -10.678102 9 1
27.456474 105.124080 -2.422003 11 1
23.520662 86.661263 -39.983784 10 1
-11.301177 55.702400 6.283442 0 0
-55.950199 97.179398 -23.044579 2 1
-14.758272 66.840675 33.921875 4 1
-10.390516 78.945183 -3.868895 0 0
20.770725 108.265760 -13.634233 0 0
-15.000542 84.631264 21.211756 4 1
11.766417 92.098961 -10.058897 0 0
-9.702544 92.414459 -4.866122 0 0
-33.938042 109.562100 -23.762766 2 1
19.149778 78.791672 -44.350811 10 1
-40.598206 112.260730 -34.002033 2 1
1.760420 26.686373 3.879889 7 1
-29.939285 80.818367 13.676803 5 1
-1.709838 86.875633 -56.482697 14 1
11.789192 96.648979 -32.125900 10 1
-19.471720 94.102234 -13.445695 0 0
-13.690123 80.142960 -8.937052 0 0
-32.210270 106.899560 -4.651218 6 1
-45.185997 66.423386 17.041464 5 1
-32.665169 103.457790 -8.133430 6 1
-6.544052 97.038963 -43.268333 14 1
1.393221 31.232435 -12.636419 8 1
-69.629654 88.579933 -35.975975 2 1
-36.564522 71.713242 41.777233 3 1
13.153987 17.017643 -16.360243 8 1
-23.909294 96.449028 -16.122995 0 0
-44.284561 98.431549 -2.294373 6 1
-50.693619 105.517770 -36.766285 2 1
5.904942 19.427723 19.883636 7 1
14.152148 111.032520 6.328635 1 1
34.673256 90.020081 14.397071 11 1
-3.175628 32.392948 -2.481735 0 0
48.954906 82.548019 -17.301378 9 1
19.873171 118.106770 8.096874 1 1
36.419716 108.671570 -7.133845 9 1
-36.690029 101.351520 14.655461 6 1
-43.742313 93.439987 5.431155 6 1
15.226590 105.654510 -20.918114 10 1
13.971966 20.397072 -20.359137 8 1
-3.645435 47.146908 -1.192262 0 0
-35.499130 73.231606 14.327135 5 1
-44.975342 102.025840 -25.295437 2 1
-40.618080 74.686234 18.716129 6 1
-1.857437 106.322090 -6.638506 13 1
17.599678 89.026672 -38.363846 10 1
-27.565327 81.347221 19.217339 5 1
45.466492 91.463287 -22.685263 9 1
21.974863 107.575780 -18.849062 10 1
-54.953049 96.306808 -31.511524 2 1
-8.240583 71.693100 -6.789207 0 0
-9.843010 89.026863 -49.715656 14 1
-13.780223 85.115341 -57.671108 14 1
-20.022854 91.514992 -50.597080 14 1
8.796596 25.182173 -17.456741 8 1
-6.337160 106.403150 28.646549 12 1
-52.214439 98.248871 -31.465258 2 1
-51.206657 104.785730 -40.595337 2 1
-46.704155 105.253630 -36.963951 2 1
-26.915157 83.068092 29.673214 3 1
-25.777620 85.105942 23.430555 5 1
-12.789056 76.608894 29.592051 4 1
9.134389 89.932640 -39.619205 10 1
-0.505192 14.968087 -2.656396 0 0
14.064422 108.438290 2.009118 11 1
46.968678 90.308876 -9.977577 9 1
-19.845240 85.936241 23.757032 4 1
-62.282936 94.002769 -37.107666 2 1
0.094355 103.832990 -3.299942 13 1
5.845515 24.704304 16.548086 7 1
14.978935 74.884621 -47.470791 10 1
-32.875103 106.937640 -21.431715 2 1
-3.498853 101.320550 1.549595 13 1
-12.755678 64.247482 33.342182 4 1
9.130937 18.410839 23.937239 7 1
1.043445 28.205580 -0.456633 0 0
22.662767 105.401180 -1.048203 11 1
-13.491551 91.995888 -44.290646 14 1
28.208210 100.991150 5.666239 11 1
11.380518 102.220330 -28.064789 10 1
-40.353119 109.459100 -29.018270 2 1
-36.601158 88.663673 14.659040 6 1
-17.586899 88.934296 -53.176273 14 1
35.371525 107.244040 -16.064323 9 1
48.345219 86.459511 -13.782881 9 1
1.036126 104.275760 2.378806 1 1
-38.424797 81.646751 37.167377 3 1
26.789616 90.396469 19.406504 11 1
-3.731391 56.611488 -2.750432 0 0
-20.576841 97.806572 -38.892143 14 1
-46.924393 102.674380 -33.006783 2 1
18.009327 96.182289 -30.995218 10 1
39.739948 97.830391 -14.437997 9 1
2.497453 118.470250 -7.838961 13 1
48.027802 92.735809 -6.719705 9 1
30.914822 107.025660 -13.730915 9 1
38.136040 101.483070 -10.548786 9 1
-8.497366 84.131638 -59.677963 14 1
-4.569391 94.499710 -3.406640 0 0
-41.798019 66.127327 13.239527 5 1
-46.163570 89.909004 9.802479 6 1
-6.116133 77.345451 -4.404474 0 0
2.442572 112.604770 -8.083287 13 1
17.191467 100.554050 -26.206409 10 1
50.061501 82.214294 -21.832890 9 1
21.934706 103.294000 4.854460 11 1
-6.902496 99.823265 -39.365509 14 1
-24.657242 104.420750 -23.747751 14 1
19.974270 102.334180 -12.563010 0 0
10.574289 19.479443 -9.198790 8 1
-7.610349 103.835580 20.158598 12 1
14.149080 90.200905 -37.767372 10 1
10.118218 24.094378 11.943330 7 1
41.392784 101.371610 -19.630817 9 1
-41.686878 106.692660 -32.413635 2 1
-17.185661 68.231155 11.365705 0 0
-2.632328 30.217276 5.372801 7 1
-45.462914 105.853470 -28.224669 2 1
-22.732443 105.721090 -26.458309 14 1
-15.519740 82.971794 -10.699200 0 0
12.578316 15.201956 -10.185000 8 1
4.388486 108.476240 1.248268 1 1
7.058776 22.217770 -1.680157 8 1
5.242104 26.671265 -6.023266 8 1
-37.559067 110.430540 -22.391336 2 1
-5.104448 95.823532 -7.699752 0 0
7.448723 27.149069 3.478978 7 1
16.589533 22.209105 -24.347313 8 1
-66.623665 90.237679 -43.874168 2 1
-0.223520 22.803413 14.417089 7 1
30.538109 108.248330 -9.988440 9 1
-44.100616 60.864719 14.430469 5 1
46.305088 96.519562 -9.661983 9 1
-35.185650 65.196877 47.578484 3 1
38.792000 104.401730 -6.572815 9 1
-60.517353 95.882065 -39.691944 2 1
43.019878 93.891006 -18.831957 9 1
25.784575 107.540820 -7.379536 11 1
8.607909 23.221401 -4.964622 8 1
11.484163 19.573215 -14.658137 8 1
31.926344 111.859940 -15.392151 9 1
22.319754 94.131035 19.176413 11 1
-51.678902 100.565670 -37.274582 2 1
-42.076698 103.721850 -24.126587 2 1
-6.368682 104.159090 8.090830 12 1
-30.079401 106.207990 -33.138264 14 1
-2.729368 42.632771 -4.878807 0 0
-70.305794 86.480118 -43.938278 2 1
-33.904518 74.889885 5.770246 5 1
-6.267043 89.935555 -1.529162 0 0
11.380671 108.485610 -21.143373 10 1
-0.546062 68.569855 -5.061810 0 0
0.002227 5.943406 -1.709834 0 0
-53.394699 102.559430 -41.336082 2 1
-0.715668 22.856871 -0.107401 0 0
-5.021647 92.849915 -47.304035 14 1
10.205245 83.925941 -43.255066 10 1
3.551765 26.710583 -2.873735 8 1
-27.261068 69.556671 47.077522 3 1
0.322516 16.438292 21.189661 7 1
19.647459 104.703720 -19.650957 10 1
20.974014 102.764100 -22.844479 10 1
14.588506 103.762080 -23.532604 10 1
21.641357 98.067329 15.161758 11 1
-5.774479 22.752672 14.055165 7 1
11.945704 104.433790 -25.439087 10 1
-4.175936 19.940207 18.464230 7 1
25.049776 106.899670 -21.819672 10 1
-7.436703 86.127991 -56.734299 14 1
-36.605846 102.952160 9.560994 6 1
-3.228688 59.931610 -6.172391 0 0
-1.959548 97.088516 -2.410178 0 0
36.579960 106.287550 -11.171756 9 1
-30.681437 107.775750 0.969852 6 1
-21.215670 84.393723 19.346605 0 0
13.451591 14.050889 -13.609436 8 1
11.520444 86.624023 -8.133584 0 0
-20.572418 91.078514 -13.635717 0 0
3.905513 26.968262 6.920589 7 1
-11.720573 83.772903 -59.708752 14 1
-12.055737 97.858627 -38.257210 14 1
30.545271 92.041534 12.055753 11 1
32.182957 93.515526 9.458296 11 1
32.331604 96.717140 6.899543 11 1
-35.938736 108.228960 -17.120766 6 1
51.104576 77.536263 -17.438025 9 1
-49.053787 104.845640 -30.973698 2 1
19.678225 108.090360 -16.764025 10 1
-6.664411 86.063522 -1.845002 0 0
52.745258 76.665504 -14.620796 9 1
33.387379 105.201560 -14.708939 9 1
-0.381775 52.878761 -3.958314 0 0
49.399937 86.008972 -16.746330 9 1
-0.471189 28.778255 -4.196158 0 0
-28.639624 80.225380 33.384708 3 1
-31.278187 83.691040 33.651131 3 1
46.774097 94.090607 -12.818352 9 1
20.156149 74.220345 -45.262825 10 1
-7.476821 100.278310 4.474642 12 1
-18.595190 92.212555 -47.823650 14 1
-9.329598 72.765869 -3.889854 0 0
-48.844223 103.292210 -25.081545 2 1
11.992566 24.660559 -22.137724 8 1
2.535183 21.002642 19.218197 7 1
48.445332 87.937805 -19.019405 9 1
-1.328239 1.509198 0.962536 0 0
-35.623062 101.348510 -4.073452 6 1
-34.455299 110.048620 -20.685719 2 1
-10.979882 76.733826 -7.683555 0 0
10.074821 83.092331 -8.874433 0 0
-3.575674 60.144421 31.546980 4 1
26.325100 111.698530 -11.894747 9 1
-39.913914 77.730515 40.654339 3 1
-33.867798 80.668968 4.436600 5 1
-39.767654 69.812851 14.989186 5 1
-28.501104 106.453190 -19.043180 0 0
-29.443260 108.557450 -23.930141 14 1
-47.485847 86.788788 10.961128 6 1
-56.992634 98.629158 -36.345306 2 1
-40.469360 102.218770 -10.024156 6 1
-29.726139 111.086240 -0.669417 6 1
-5.329484 107.091480 23.254774 12 1
-39.375111 62.347538 47.211781 3 1
14.111651 92.356056 -35.565716 10 1
-34.617992 104.527850 -0.605660 6 1
43.079483 99.542946 -11.853451 9 1
-26.544615 75.440796 41.605011 3 1
31.207804 83.473991 21.961159 11 1
40.285603 101.818250 -7.296204 9 1
-2.758772 62.659966 -3.391076 0 0
-39.131332 107.097810 -22.167477 2 1
41.620586 99.062706 -7.805748 9 1
6.978745 108.503030 6.787011 1 1
-16.250143 96.151779 -42.643875 14 1
-40.507416 98.156403 2.563029 6 1
38.632969 107.367640 -21.417683 9 1
-9.262727 94.568100 -43.159840 14 1
-39.677746 62.727169 11.397977 5 1
32.187614 78.656792 24.857594 11 1
-5.988062 62.191456 -3.319571 0 0
-12.247932 85.911469 21.560919 4 1
-25.494362 87.848236 24.748222 3 1
-29.167740 82.977028 16.967018 5 1
-25.570654 103.275450 -32.971832 14 1
-7.998158 94.758011 -8.006699 0 0
-2.706723 48.496311 -5.358937 0 0
1.322215 107.647260 -2.032798 13 1
15.288870 110.318660 -16.530054 10 1
27.145342 91.179253 16.296017 11 1
-5.514860 87.948669 -4.368982 0 0
9.813895 106.287220 -24.273373 10 1
31.921034 87.557480 18.115767 11 1
-45.967480 107.735980 -34.388256 2 1
-37.959068 72.071625 19.251720 5 1
10.147601 22.203203 20.295422 7 1
7.299420 25.270708 10.526318 7 1
35.706211 87.472145 15.994839 11 1
-6.224520 106.965930 17.488600 12 1
16.184166 104.730740 7.262174 11 1
-0.639002 34.119385 -1.379695 0 0
-7.940324 48.451084 1.549524 0 0
-7.498265 66.253433 -3.910466 0 0
-42.679966 70.744774 17.150949 5 1
14.376713 109.685520 -1.781332 11 1
-13.794734 60.412113 6.763998 0 0
-26.015455 79.276581 38.381428 3 1
-12.054339 81.259018 -6.650870 0 0
-40.417835 105.864810 -13.232435 6 1
6.053231 28.459417 -22.950958 8 1
-64.554367 93.041946 -42.021225 2 1
-9.632149 52.205292 1.380149 0 0
-9.122305 71.626152 28.879751 4 1
44.445148 96.948700 -17.303423 9 1
28.975294 98.044708 5.657530 11 1
17.744209 101.426410 12.049857 11 1
27.533474 98.521111 8.568415 11 1
16.797150 72.420090 -47.438503 10 1
-2.528874 50.389103 -2.411164 0 0
-28.045723 103.206760 -19.593948 0 0
-29.896673 79.198692 22.440931 5 1
-37.422222 108.431440 -28.626303 2 1
0.124909 55.525333 30.208910 4 1
15.043433 81.254135 -43.034798 10 1
-0.845139 18.052433 -2.801634 0 0
-42.322399 79.316719 15.788859 6 1
-66.757889 90.456444 -33.930332 2 1
-0.345290 10.654034 0.539229 0 0
-31.182730 86.729965 30.619234 3 1
-14.375573 85.478630 -9.526455 0 0
-42.545475 70.593819 21.099846 6 1
19.213383 114.483860 9.508676 1 1
1.596434 112.823520 -2.591028 13 1
-5.501995 90.931145 -4.752571 0 0
48.813377 87.692520 -9.694033 9 1
-8.050357 74.999619 -6.545899 0 0
5.716944 119.030100 -7.249281 13 1
47.465939 90.758423 -18.933023 9 1
-37.822178 100.761890 0.073022 6 1
-60.009483 95.690491 -33.042873 2 1
-46.112770 101.262600 -28.517427 2 1
6.211276 105.447490 5.140678 1 1
3.199948 109.329670 3.962665 1 1
-39.642853 111.836990 -20.282047 2 1
-8.511056 103.687310 11.999453 12 1
-24.667618 100.803370 -38.634243 14 1
38.677773 104.438650 -17.337994 9 1
-34.195702 73.021484 8.222932 5 1
-28.102360 72.732445 43.813488 3 1
-49.864002 100.472630 -23.609421 2 1
-22.184881 96.635338 -42.066994 14 1
-41.050442 74.237236 42.728024 3 1
-3.837128 63.411144 31.056942 4 1
31.506117 89.627380 13.751301 11 1
-76.906769 82.850891 -44.695679 2 1
-30.382101 107.426800 -15.893421 6 1
-36.493092 74.183868 17.593245 5 1
-7.919853 60.201485 33.273586 4 1
-31.798351 104.013670 -5.153023 6 1
33.485714 85.162933 17.040298 11 1
-11.835526 96.720917 -41.904408 14 1
-1.062468 40.307919 -1.681743 0 0
1.464052 67.659874 26.914087 4 1
24.034443 95.955444 -33.193615 10 1
-50.140293 102.877850 -38.611458 2 1
14.980082 100.148370 -28.309732 10 1
5.649507 18.230505 22.568264 7 1
-30.651630 107.119850 -9.808366 6 1
-1.436684 26.933195 -6.919696 0 0
-8.291859 91.490700 -8.031810 0 0
-11.639368 76.184128 -4.694080 0 0
2.393586 22.381733 15.764196 7 1
-37.834099 97.067032 11.552839 6 1
-2.621912 54.499680 -5.874957 0 0
-37.787552 67.042763 9.280383 5 1
44.821663 98.951637 -8.622930 9 1
16.441269 93.546371 -34.138245 10 1
-46.364815 92.299728 4.759519 6 1
-5.994225 44.979282 -2.932489 0 0
-32.370316 75.229683 41.327332 3 1
-2.241752 90.833588 -51.417500 14 1
27.625198 102.766440 2.370626 11 1
-2.563968 27.492596 11.394241 7 1
-57.686230 95.041664 -34.781124 2 1
-33.949158 78.494865 36.439720 3 1
-26.821482 109.163300 -13.803938 6 1
46.603161 88.988022 -13.879202 9 1
5.516682 28.256550 -17.652252 8 1
-41.647701 88.212944 11.080567 6 1
-30.516174 68.601570 45.975857 3 1
10.288046 111.694820 8.147336 1 1
13.298945 22.715557 -18.587608 8 1
-43.040859 91.968002 7.988793 6 1
7.238873 82.714928 -8.279428 0 0
-6.460844 83.172180 -2.311082 0 0
-8.218499 101.659740 7.158225 12 1
-0.746050 7.580274 0.582857 0 0
1.003411 25.548513 1.210619 0 0
-1.412551 58.827152 -3.988168 0 0
28.855040 111.910130 -8.157105 9 1
-43.106598 64.419418 15.204236 5 1
-20.441568 101.208390 -30.112726 14 1
-30.181301 84.442970 7.346704 5 1
2.393257 110.145760 -3.406890 13 1
-5.926036 27.848358 8.403794 7 1
21.522791 82.653305 -41.548199 10 1
9.868286 23.607944 -11.965797 8 1
-30.540659 83.204384 30.785110 3 1
-26.230011 105.750170 -27.304296 14 1
-19.594013 75.650101 45.289082 3 1
-5.955507 105.504300 25.886127 12 1
6.276006 22.322081 19.995810 7 1
-3.574836 97.283180 -43.590340 14 1
-42.605305 104.903720 -29.688347 2 1
-31.491095 65.604103 47.197159 3 1
24.040466 101.848610 1.652752 11 1
36.468903 89.844795 11.495728 11 1
12.549710 25.067421 10.492777 7 1
-32.923088 107.817590 3.154331 6 1
-57.878555 94.211700 -27.277939 2 1
-12.636433 58.317467 8.380941 0 0
34.199944 112.688880 -17.070118 9 1
-2.781197 103.086170 3.713060 12 1
-30.753965 72.267235 42.580463 3 1
-33.350243 77.002403 24.542965 5 1
10.776402 108.604740 5.294836 1 1
-6.490153 105.262950 13.365811 12 1
-35.713634 66.435844 45.041748 3 1
-18.058229 80.307770 42.280857 3 1
-34.397625 112.297230 -27.126720 2 1
-1.492657 16.125620 -0.222613 0 0
-22.514868 86.045624 28.970322 3 1
2.569342 26.574783 12.106706 7 1
-33.000942 106.891020 -0.537596 6 1
8.387918 112.187400 3.308646 1 1
27.619133 95.930069 11.661867 11 1
-28.851259 109.086680 -3.177834 6 1
-28.793701 103.507080 -36.986935 14 1
50.630001 85.275352 -12.078230 9 1
42.586376 98.270973 -22.281969 9 1
-9.048937 55.521206 4.431684 0 0
-6.584517 104.838290 -35.660416 14 1
-0.703022 113.374910 -7.580810 13 1
36.275879 103.585520 -10.030320 9 1
-48.189960 95.565170 1.395031 6 1
-15.803124 72.013748 33.441692 4 1
-20.957043 80.983215 27.196068 4 1
-20.209755 78.809441 17.768522 0 0
-49.362339 99.108902 -28.441095 2 1
-6.795993 80.331612 -6.100054 0 0
-57.911686 98.780670 -42.826866 2 1
14.478769 91.243034 -9.992480 0 0
-16.120523 88.717003 -11.740176 0 0
-3.063917 75.903244 26.589554 4 1
-14.745903 88.951538 -53.105228 14 1
14.132319 23.548010 19.120180 7 1
-35.268726 85.796112 32.659142 3 1
24.705437 99.663651 8.230670 11 1
-14.808406 94.415390 -45.049763 14 1
-6.460463 70.142654 30.747471 4 1
-13.973953 79.197716 27.980087 4 1
-4.228487 72.002808 29.327484 4 1
-38.342010 83.983421 34.687077 3 1
-13.987661 91.350037 -49.334278 14 1
41.561005 96.308594 -19.192289 9 1
-41.320107 60.470802 11.860995 5 1
-16.898418 99.440353 -37.648064 14 1
0.324252 66.301025 -6.510811 0 0
-17.133064 87.355850 21.477457 4 1
10.059278 88.602928 -9.526338 0 0
37.415371 101.160800 -16.497309 9 1
-33.140217 105.533790 -10.089509 6 1
5.077111 110.363130 5.835290 1 1
9.743271 26.461744 6.592777 7 1
-30.030920 64.790115 49.640621 3 1
8.786993 107.932110 3.350864 1 1
31.056316 109.571460 -12.522900 9 1
-8.021624 107.099060 24.493248 12 1
-5.032398 24.541403 11.980401 7 1
26.524492 103.062880 -24.195404 10 1
-36.385159 72.760483 23.230221 5 1
23.563145 95.132652 16.862528 11 1
-28.276869 107.904370 -21.458374 14 1
-29.774326 105.165920 -13.827375 6 1
-29.931433 81.191772 24.459198 5 1
-37.148216 98.840569 8.113777 6 1
30.020590 89.070358 16.217377 11 1
-34.965225 70.695663 44.151741 3 1
12.552480 87.404121 -41.292221 10 1
-26.758646 85.822639 29.157415 3 1
4.529087 74.903473 -5.912995 0 0
23.456936 107.604800 -13.188893 0 0
-1.023448 11.118432 -2.143488 0 0
-7.397961 83.495781 -6.718596 0 0
-24.941542 83.120583 19.176886 5 1
2.444468 106.039200 4.397899 1 1
-12.354849 72.350052 30.021473 4 1
-2.816159 70.664131 27.224365 4 1
8.287113 23.458368 16.017834 7 1
-1.505244 -1.649253 -1.523004 0 0
-1.661543 25.569117 0.112670 0 0
43.061008 93.774216 -13.772726 9 1
27.940802 108.742180 -12.030185 9 1
20.590076 106.217640 -5.552607 11 1
-28.229065 83.788857 11.351408 5 1
26.096260 99.899551 3.301267 11 1
-2.713329 104.304990 9.151867 12 1
15.966607 113.330830 6.034309 1 1
47.839504 84.608749 -22.113726 9 1
-35.341709 69.209480 6.418643 5 1
35.164207 83.564209 19.018061 11 1
-2.853610 67.040588 -4.364225 0 0
-33.906265 77.584946 11.033148 5 1
9.457313 27.312218 -19.112589 8 1
-4.510697 102.260790 11.590625 12 1
-57.607567 96.958397 -26.740215 2 1
-3.378453 106.329160 12.753414 12 1
-29.741917 77.045280 37.280476 3 1
-54.277763 96.303955 -25.777073 2 1
-35.336243 102.748710 -7.885199 6 1
10.140841 26.184343 -25.450247 8 1
-5.231022 104.894140 19.076220 12 1
20.748396 107.009370 -8.793774 11 1
-68.213455 89.828438 -38.983131 2 1
-27.173380 85.789917 14.986862 5 1
3.344059 27.699097 -8.453519 8 1
22.756769 118.217900 12.217690 1 1
-36.749714 76.387932 38.997326 3 1
27.387386 87.208755 20.735926 11 1
-5.627506 48.754299 -0.062803 0 0
-44.326118 103.732380 -22.520515 2 1
-43.798168 69.679131 43.973366 3 1
-34.187229 106.274870 -16.168314 6 1
54.277340 72.473610 -17.460964 9 1
-8.064362 26.287779 10.689539 7 1
11.246644 22.473019 -14.339723 8 1
48.078560 91.653114 -12.881302 9 1
-31.993422 78.044113 13.542689 5 1
3.980105 70.428894 -6.414299 0 0
-12.466992 93.405106 -46.507736 14 1
-52.194759 103.736580 -35.294483 2 1
17.280519 99.062721 -10.313997 0 0
38.038399 106.399240 -8.593240 9 1
-2.709344 37.746708 -4.067244 0 0
-28.088383 83.574852 22.907061 5 1
-55.748077 99.580383 -34.082165 2 1
-5.669770 59.055344 -4.886353 0 0
-27.544765 111.224950 -10.309398 6 1
51.132145 81.222328 -13.666309 9 1
-12.369795 81.039787 25.839821 4 1
-5.896903 70.770676 -5.692101 0 0
14.620170 22.736549 13.711961 7 1
34.317085 93.513092 11.186600 11 1
-36.898438 111.370930 -31.633873 2 1
9.014316 21.396645 -10.583978 8 1
20.109310 105.081050 -0.086629 11 1
-33.538063 82.639229 35.132263 3 1
-31.887974 77.465790 18.651405 5 1
-39.354221 68.953590 44.365242 3 1
-5.601270 75.698250 28.084934 4 1
-19.201744 104.271850 -28.426928 14 1
-3.184553 68.064728 29.778069 4 1
-22.177240 102.985780 -27.148952 14 1
18.540955 86.547607 -39.022717 10 1
-1.898443 102.677320 -4.893371 13 1
-32.098518 106.243790 -12.878254 6 1
-48.285091 105.108440 -21.569260 2 1
-59.727131 92.748596 -30.811535 2 1
-55.390606 96.647964 -34.346989 2 1
15.118914 24.644073 -24.264881 8 1
-9.432283 73.748833 30.960743 4 1
33.081039 107.014770 -8.824532 9 1
0.141523 108.147190 -7.005010 13 1
3.598592 116.574650 -9.453326 13 1
13.738906 111.838290 8.896666 1 1
-2.289637 111.220700 -6.344039 13 1
-5.478223 102.123390 3.235348 12 1
-24.835854 85.831314 20.982904 5 1
1.218958 70.299133 -6.200750 0 0
-39.309471 67.330223 13.873328 5 1
14.688464 114.474490 9.151093 1 1
-36.015221 103.840520 6.089798 6 1
-9.093570 67.516884 32.155186 4 1
-42.850243 65.410828 44.857666 3 1
-26.201160 105.146560 -21.637316 14 1
4.673442 24.376583 -1.340391 8 1
-13.446826 64.417572 10.713627 0 0
30.417927 86.593018 20.293711 11 1
-20.866270 82.005325 20.698717 0 0
-54.496311 99.756416 -28.467087 2 1
1.037647 101.588290 2.026584 1 1
8.078874 24.936899 -8.647398 8 1
6.660007 77.417259 -6.024981 0 0
-7.054337 81.531586 -62.431419 14 1
12.424577 18.443375 -10.887543 8 1
20.445133 103.270550 7.618265 11 1
25.100359 93.732269 15.130110 11 1
-21.938715 85.985374 32.599693 3 1
4.615975 104.912390 1.415768 1 1
-9.443770 86.696480 -54.831818 14 1
23.928751 100.487120 5.423628 11 1
-62.637337 91.022072 -32.876102 2 1
2.230779 30.354080 -21.464025 8 1
35.830860 105.760380 -13.708901 9 1
-4.952352 97.701134 -4.600669 0 0
-26.168121 81.637199 21.505785 5 1
16.409237 108.860410 -6.241397 11 1
-1.136256 44.856033 -4.785547 0 0
-41.655807 109.499900 -31.476908 2 1
-19.955368 100.703840 -35.472893 14 1
-55.423435 97.761581 -38.350403 2 1
47.834969 90.022064 -22.119738 9 1
21.412369 105.648480 -13.243444 0 0
-24.539833 97.984398 -42.765915 14 1
-23.143879 74.169464 44.747051 3 1
36.684570 105.235240 -18.998552 9 1
-1.399364 40.317188 -4.571517 0 0
-10.361426 87.276871 -4.497560 0 0
8.277739 25.990475 -13.561151 8 1
31.567987 96.798195 9.473732 11 1
-24.400217 104.041390 -29.326889 14 1
-36.470829 109.609100 -24.745441 2 1
-1.608895 19.459398 17.577951 7 1
-21.224995 84.388893 22.028614 0 0
-1.203458 108.352580 -2.593488 13 1
-78.941216 80.116440 -44.394150 2 1
-7.577755 86.586342 -5.590728 0 0
-4.311927 84.990723 -2.556195 0 0
-29.831587 79.363976 19.769335 5 1
-43.387306 84.741554 14.981548 6 1
5.481857 28.562569 -13.931467 8 1
4.265077 61.767708 27.412500 4 1
32.710365 109.335370 -6.422318 9 1
12.592643 111.197890 4.117368 1 1
-18.769863 84.869164 34.190418 3 1
-44.706497 78.200233 17.149103 6 1
-54.115261 99.937752 -24.157459 2 1
-26.294498 80.918556 35.906025 3 1
-50.437050 102.628900 -28.103464 2 1
-26.776100 67.305809 49.378754 3 1
22.411770 101.579700 -26.481300 10 1
-16.886648 79.383652 28.866957 4 1
-44.395626 107.296260 -22.150799 2 1
-40.569427 96.567932 6.698825 6 1
-16.503826 72.749687 13.217912 0 0
25.226528 97.024750 12.053539 11 1
-10.512530 92.798225 -44.813286 14 1
-12.994155 100.145880 -37.284115 14 1
-30.985069 82.557632 11.916066 5 1
-30.377579 109.021260 -27.881170 14 1
0.713089 14.633181 -0.078712 0 0
-47.902851 82.894531 12.590252 6 1
-3.096033 77.127884 24.201921 4 1
35.505577 78.432037 21.031265 11 1
-27.099173 72.138069 46.513775 3 1
47.257168 85.572266 -18.237839 9 1
-29.584341 107.220670 -5.103880 6 1
16.251265 106.916530 2.766911 11 1
-59.678143 94.128540 -37.806805 2 1
35.687515 102.306370 -14.517173 9 1
-24.347548 103.081440 -17.682192 0 0
35.594337 108.317210 -9.617839 9 1
-25.819244 99.722496 -41.069069 14 1
15.280647 77.457573 -46.527302 10 1
-23.432112 85.266708 24.806273 4 1
4.161204 115.100520 -5.039986 13 1
-0.514174 63.825836 -6.180998 0 0
-0.260227 0.699485 -1.611853 0 0
18.136227 101.812360 -24.094740 10 1
-30.421858 78.621513 35.187820 3 1
-18.635649 88.972923 -12.515470 0 0
2.743351 106.639500 0.297586 1 1
-29.404886 87.677162 28.790047 3 1
2.308016 71.448669 27.017441 4 1
-3.845756 94.018204 -5.897448 0 0
-9.343923 77.357224 25.812416 4 1
-4.383896 91.253639 -49.632290 14 1
17.687025 84.323532 -40.477959 10 1
28.289679 104.265840 -0.014618 11 1
-11.146314 91.303185 -49.466225 14 1
-45.295658 110.716720 -19.406937 2 1
33.791866 82.827126 21.125055 11 1
-18.823647 75.145546 16.186979 0 0
-12.099911 103.879510 -34.178707 14 1
-16.085878 65.917412 10.128489 0 0
-5.380589 82.955917 21.038519 4 1
14.842964 107.550060 -19.088249 10 1
24.428225 104.278670 0.521514 11 1
-17.096756 81.348824 25.050755 4 1
-14.340131 101.825220 -33.283371 14 1
-0.203330 25.348408 13.501815 7 1
-76.231033 82.111732 -40.251194 2 1
-53.164581 100.484540 -39.587688 2 1
-1.408380 99.293732 -0.865822 13 1
12.444096 114.572870 5.907208 1 1
-71.166000 87.515610 -38.014194 2 1
46.255367 94.203369 -7.942127 9 1
-10.474469 79.226814 -7.120825 0 0
-23.258192 79.408936 39.112949 3 1
40.849152 103.528210 -21.201864 9 1
-53.763733 101.478550 -32.212749 2 1
37.247272 110.483200 -18.980764 9 1
-7.249688 89.133560 -50.758694 14 1
-8.325082 73.904182 27.617174 4 1
-20.567469 111.892560 -23.037241 14 1
-4.510900 66.383255 -6.290071 0 0
23.033998 89.155365 -39.009548 10 1
-2.584954 30.024471 -3.357745 0 0
39.163994 100.375200 -18.494488 9 1
0.752520 22.624493 -2.551952 0 0
-9.823611 88.217949 -7.044940 0 0
-30.448761 106.523050 -2.666737 6 1
-5.360929 98.830574 3.843021 12 1
44.815445 91.224892 -20.098248 9 1
-8.388695 81.651520 -3.120240 0 0
-4.610560 104.535060 16.585968 12 1
-23.147520 101.692690 -29.164793 14 1
-8.403200 90.779991 -3.220670 0 0
-30.822392 77.448318 39.610165 3 1
-8.024708 63.018326 32.808578 4 1
21.721256 94.783821 -33.572548 10 1
10.604643 24.569986 -15.698372 8 1
-20.615696 102.407280 -32.389568 14 1
-45.296627 86.356766 12.879535 6 1
-34.383118 106.210110 -23.553673 2 1
30.028288 113.675600 -15.995556 9 1
-40.874889 80.726868 36.704319 3 1
-34.392693 102.769980 1.301450 6 1
28.562210 109.281900 -6.656468 11 1
5.085721 72.800697 -7.290488 0 0
-9.332463 102.243940 -37.083698 14 1
46.624805 87.933464 -23.166742 9 1
0.235642 26.266220 -3.838991 0 0
-36.699192 105.017920 -11.629833 6 1
-73.223267 86.059120 -44.445465 2 1
-44.065594 82.187485 14.287709 6 1
5.838358 121.640110 -10.520847 13 1
-12.138247 109.615520 -29.612635 14 1
-46.815849 89.967674 7.323021 6 1
-1.327594 43.797710 -1.866507 0 0
-26.773962 103.219110 -16.865118 0 0
-47.757305 107.562210 -37.313435 2 1
-43.432426 107.300750 -35.180271 2 1
-45.057697 71.342789 17.890478 6 1
46.585667 93.039742 -17.386295 9 1
-2.662377 38.246178 -1.543527 0 0
-2.918866 104.374540 -2.117772 13 1
-36.351536 100.910570 4.296518 6 1
-3.826723 87.920151 -55.503811 14 1
-23.304937 83.135536 35.498028 3 1
-69.887230 86.903511 -33.963947 2 1
-21.430853 78.422058 30.620234 4 1
-0.037815 73.776932 26.564415 4 1
-40.201073 72.048645 20.853237 6 1
1.914087 -1.119408 1.320708 0 0
16.829899 108.149540 -16.580261 10 1
-21.980766 86.647476 20.390079 5 1
-17.435621 93.704094 -46.010262 14 1
9.302419 109.335170 7.426656 1 1
-4.639805 57.696384 31.106888 4 1
13.590722 78.872650 -45.011658 10 1
-27.894997 110.124310 -7.157698 6 1
14.883955 87.744385 -38.220142 10 1
-28.044281 106.569530 -15.132315 6 1
-32.905972 72.853775 40.430130 3 1
42.906696 102.284770 -7.033126 9 1
-70.934036 87.926086 -40.909573 2 1
14.409413 85.646751 -42.077309 10 1
-49.993027 99.039299 -25.701576 2 1
19.630770 105.591040 -17.206156 10 1
-44.459717 110.618330 -37.965626 2 1
-3.573034 100.133510 -3.517740 13 1
-14.843921 75.050285 29.336143 4 1
17.029778 79.681725 -43.106876 10 1
-39.730618 107.556570 -30.570776 2 1
-33.572006 102.665500 -2.997531 6 1
22.561090 97.856171 12.737929 11 1
3.094239 65.993530 28.132965 4 1
-35.173843 75.373184 15.789085 5 1
-25.838140 86.189430 17.100452 5 1
-7.410446 106.994030 19.771082 12 1
-2.292595 108.801570 -7.239744 13 1
-31.730505 77.464577 22.624069 5 1
-11.622219 76.281097 27.366713 4 1
19.842125 99.835808 15.326921 11 1
-43.667110 89.738503 9.443629 6 1
17.306799 105.686010 4.705021 11 1
-4.949024 100.424400 -0.340189 13 1
-60.071480 93.725609 -26.124683 2 1
-47.660095 106.348510 -19.241102 2 1
-40.805027 108.709050 -33.860832 2 1
-30.399391 81.628662 18.818075 5 1
-36.984100 81.447433 35.080730 3 1
-16.756559 98.793259 -34.561760 14 1
29.911999 108.010280 -3.165039 11 1
0.150074 63.018318 29.606983 4 1
24.525715 104.649260 -22.812511 10 1
-8.145517 50.735180 2.777709 0 0
-8.359149 105.977330 15.645061 12 1
-28.832582 106.136320 -29.146132 14 1
-6.574872 79.691132 23.526793 4 1
-43.304474 78.395706 40.094345 3 1
-2.952672 106.689290 -3.274577 13 1
-7.918212 78.757301 -3.304769 0 0
-33.892170 75.103691 11.377563 5 1
-20.768713 78.358765 42.883148 3 1
-18.468969 94.618851 -42.732613 14 1
45.175446 95.501656 -19.314217 9 1
-73.708389 84.961395 -36.890526 2 1
45.647373 96.095772 -23.138281 9 1
-4.590301 103.112050 5.477467 12 1
-0.705850 36.600185 -1.687855 0 0
10.669977 24.732691 19.019451 7 1
-0.155925 4.864758 0.539209 0 0
11.697678 89.976006 -39.042305 10 1
43.242203 92.972557 -16.363495 9 1
-23.182508 83.485527 32.651745 3 1
30.497494 109.985710 -8.198752 9 1
20.380175 104.713130 3.503011 11 1
-39.274960 112.082740 -31.878700 2 1
-0.646092 32.911179 -17.698030 8 1
-22.047630 94.553139 -45.749680 14 1
20.007778 97.721748 -30.285299 10 1
-41.403625 101.934590 -5.940797 6 1
-37.009697 102.745060 -5.708545 6 1
