78.269920 216.218110 -6.939717 2 1
-44.495033 215.296330 -118.586490 0 0
6.787910 116.315380 34.924541 0 0
-6.980171 333.344150 -1.863534 0 0
-6.277431 65.693008 31.441412 0 0
-53.700829 258.190250 114.453350 10 1
119.269890 182.401180 -73.489685 2 1
-98.799042 277.125210 113.095050 11 1
211.393070 352.890110 43.917610 28 1
31.883347 168.871080 0.557002 0 0
-0.232397 132.924500 36.980354 0 0
134.770130 204.748440 66.878922 6 1
-20.506466 272.118190 99.642502 10 1
35.657852 183.252400 56.394234 0 0
114.503950 119.065250 66.739334 8 1
-1.973731 91.524048 -7.436252 0 0
146.859070 370.327550 132.399570 27 1
-45.489002 289.795560 86.489838 10 1
-7.888708 136.404040 -25.343208 0 0
58.761646 103.901800 66.440506 0 0
-26.005154 122.337380 -29.953566 0 0
-79.303261 265.363620 12.159211 12 1
1.316907 378.037660 -22.929279 0 0
-5.925757 297.437380 67.508293 10 1
116.635110 188.680480 -69.392677 2 1
-16.102921 184.424190 92.914146 18 1
31.507584 175.434890 103.309590 18 1
-15.870256 408.136960 -19.699551 0 0
6.402929 126.906440 23.178795 0 0
101.511340 110.653550 91.868797 8 1
-38.475403 282.725800 99.363701 10 1
-8.345049 156.079500 3.915932 0 0
43.978706 170.837720 96.339279 15 1
107.819260 204.387590 -52.015053 2 1
206.812910 362.971340 35.915596 28 1
229.720470 335.222080 78.133514 23 1
-17.149693 117.891650 -4.068995 0 0
-27.992115 253.912900 109.653520 10 1
150.181610 389.879970 124.873510 27 1
-18.249025 343.998720 -32.457157 0 0
-34.393116 263.546630 118.951940 10 1
49.966827 249.466840 -95.382301 4 1
102.905170 209.189670 -22.591394 2 1
-9.739136 60.493618 -9.152886 0 0
-26.679176 110.015110 -37.295551 0 0
-8.343205 451.037080 -16.117353 0 0
-16.696501 291.228640 -60.098507 5 1
13.898244 253.689420 7.591896 0 0
30.599508 269.311550 -156.298980 0 0
-39.987385 122.537550 17.319929 0 0
-8.290356 70.817711 18.453732 0 0
11.899482 53.274113 32.169331 0 0
2.178639 208.829940 57.233334 0 0
172.585310 357.542880 77.681725 28 1
70.913147 352.516300 29.609213 0 0
73.802155 122.926270 115.987060 7 1
156.958660 546.098140 -54.399902 1 1
-17.581957 429.333590 -21.576216 0 0
96.285538 372.453800 -191.375380 25 1
102.904510 126.381120 62.071926 8 1
29.204145 319.776340 -187.419970 0 0
203.066700 350.053410 43.569187 28 1
1.966297 104.753030 15.293654 0 0
-4.064641 171.212220 63.319870 18 1
230.019010 337.293640 95.158798 23 1
177.987060 342.485350 76.923546 28 1
19.456242 335.046720 -164.778550 0 0
11.266553 251.513140 -72.990746 4 1
170.345750 384.719730 87.166763 27 1
34.658501 295.637050 97.743523 0 0
1.042942 214.800020 -109.269120 0 0
91.063263 200.989360 39.014221 16 1
26.508701 195.362000 54.565750 0 0
-10.323438 359.813600 -22.477514 0 0
196.786800 364.595250 89.802559 23 1
80.692383 215.129820 2.019559 0 0
92.598465 377.897430 -196.596390 25 1
-4.095414 190.682540 0.345624 0 0
5.331882 245.390990 -8.475324 0 0
12.150978 203.912690 99.929794 13 1
-9.570137 190.606250 49.668495 18 1
93.499237 216.507420 22.587135 16 1
11.696301 269.004060 -79.184845 3 1
19.597282 251.506710 69.362579 0 0
68.223343 108.536350 132.365490 7 1
2.033540 47.965080 -3.648382 0 0
155.285930 537.205870 -89.091385 1 1
37.003296 168.514760 17.018435 0 0
-41.605419 253.196330 114.015760 10 1
31.841623 172.485870 26.088652 0 0
89.703102 392.167970 -235.337620 24 1
114.561040 234.825230 15.842001 16 1
38.766472 76.075897 50.945919 0 0
209.771000 368.465820 74.792328 23 1
-79.842293 262.800870 122.410400 11 1
-16.614122 107.916590 -44.000546 0 0
34.194340 311.965940 83.016457 0 0
101.070130 218.912630 -18.578671 2 1
-0.584752 199.394580 14.995543 0 0
51.131279 103.703580 66.206894 0 0
212.304060 350.182770 91.550911 23 1
-39.148201 192.583070 -99.262695 0 0
7.579482 176.667240 -4.098008 0 0
189.367740 375.957240 85.379822 23 1
49.478493 326.477720 -192.785710 0 0
-99.700478 250.834790 -9.446648 22 1
14.998634 211.114550 133.080220 13 1
-48.156605 207.865020 88.910934 18 1
93.781517 112.130110 79.231659 8 1
-20.350973 173.136960 46.576168 18 1
100.968080 213.673780 -62.245388 2 1
185.603710 545.884160 -36.706699 1 1
10.263389 172.235950 37.077118 0 0
15.701008 92.687073 34.769840 0 0
17.572123 220.092990 54.203213 0 0
-47.876396 278.957580 112.071720 10 1
34.289318 72.448479 33.314335 0 0
-5.766986 255.586090 -18.753492 0 0
-18.363815 133.421460 -29.318123 0 0
9.615097 158.321140 41.557026 0 0
50.219082 239.981900 -11.927841 21 1
0.324730 270.061980 -63.868111 5 1
64.363953 127.300220 128.084930 7 1
185.188830 368.817020 106.084390 23 1
45.433739 200.877260 68.462837 18 1
21.927582 177.788880 53.170235 0 0
36.669384 322.448520 93.953247 0 0
185.550570 384.394530 54.558556 28 1
-14.744924 154.567640 -16.495287 0 0
55.763302 205.950060 68.234818 15 1
-19.110878 425.474790 1.505144 0 0
42.146069 167.687010 3.409820 0 0
-6.904688 80.353760 3.934241 0 0
94.321999 208.657840 43.776157 15 1
106.717880 373.223420 -195.686770 25 1
119.248360 195.560730 -71.284340 2 1
135.777250 369.471440 49.019390 0 0
-31.399593 148.845440 -25.906937 0 0
-103.284240 277.424770 10.021974 12 1
116.528590 220.039150 23.374367 16 1
-48.168232 299.003080 77.668388 11 1
231.006350 346.184140 124.183850 23 1
77.336945 236.523710 0.039242 0 0
82.272820 385.587010 -210.471470 25 1
112.545980 200.556240 -17.459917 2 1
37.421478 238.655470 16.021580 0 0
-24.922388 295.520320 78.754028 10 1
16.683107 122.797020 48.335491 0 0
147.041020 196.519150 72.892059 6 1
25.588547 158.234880 5.483801 0 0
8.531527 271.181030 -58.184216 5 1
-21.109032 293.582340 3.450705 9 1
-2.710670 135.194370 9.007626 0 0
67.694794 236.662050 -33.089592 2 1
81.134895 247.314030 6.143315 0 0
2.603252 326.910430 2.899037 0 0
27.199162 298.808320 -172.699140 0 0
-17.299242 136.995350 9.702950 0 0
60.337627 236.100220 -47.475765 2 1
-92.215492 258.784000 114.991160 11 1
4.086209 164.137590 -1.073104 0 0
-11.018412 23.923437 3.174172 0 0
67.573296 230.351030 4.761845 0 0
123.615380 120.494010 58.866089 8 1
80.167641 225.401890 37.829433 16 1
3.990277 119.916420 -9.875384 0 0
29.992840 196.860730 77.901474 18 1
-12.914540 282.996310 85.892029 10 1
1.314379 292.937410 33.950394 9 1
41.833061 253.328580 -85.146667 4 1
-85.580254 263.073150 -37.050186 22 1
13.958368 247.544460 -140.770200 0 0
19.893410 210.378280 126.754370 13 1
-28.792156 278.587890 131.653850 10 1
16.381479 37.484249 6.201802 0 0
193.002590 369.543060 66.035141 28 1
212.108760 376.081850 115.881450 23 1
-2.316972 260.145390 -9.757257 0 0
40.890976 261.591890 -72.368088 4 1
163.746400 546.294620 -50.201290 1 1
-9.143642 281.473360 -58.834755 5 1
217.527800 355.701840 110.258900 23 1
-11.612459 273.291260 88.842514 10 1
29.951923 293.173860 -167.347500 0 0
38.539440 359.557010 -239.057570 26 1
209.641020 323.863220 39.382191 28 1
89.163719 215.259430 -19.467857 2 1
53.285370 107.723780 52.274971 14 1
19.089630 103.248760 48.400276 0 0
-6.694496 66.475647 4.042059 0 0
15.288163 111.926060 18.556305 0 0
-41.816685 287.644470 109.503380 10 1
-2.083402 281.769680 -7.185609 0 0
101.198700 214.133910 -52.326809 2 1
44.326920 180.509370 1.996463 0 0
15.594774 240.578030 -23.256401 21 1
-22.184961 259.342410 101.754840 10 1
-0.900933 394.355190 -1.705411 0 0
-20.098919 305.176540 52.840595 9 1
-30.449717 280.954930 103.272000 10 1
-4.148334 117.750200 16.064079 0 0
3.889161 190.381390 8.728531 0 0
96.774223 208.159910 31.436373 16 1
235.150040 328.907230 117.202510 23 1
-17.408371 291.359010 -6.780182 9 1
185.351300 372.714170 92.080505 23 1
101.124350 226.668990 -49.765038 2 1
47.287609 255.810200 71.792175 0 0
45.698795 320.736570 -188.631360 0 0
150.600690 401.482420 143.041080 27 1
35.051624 247.087160 19.946096 0 0
121.099880 208.735180 37.718887 6 1
237.256790 314.193760 110.664090 23 1
13.128979 237.510570 -12.875949 0 0
-19.489807 293.492370 18.359415 9 1
-98.217026 261.291990 -22.580647 22 1
218.234280 358.501920 30.318151 28 1
14.384947 145.634800 38.413086 0 0
16.367538 304.813290 -154.413360 0 0
13.203842 133.309400 -4.246415 0 0
87.424965 108.423650 86.159142 8 1
106.394550 217.832110 -43.485382 2 1
96.944817 114.568210 107.523420 17 1
-18.611809 95.735466 -39.096462 0 0
-54.265469 290.436370 89.789597 11 1
-5.638182 122.827510 2.988487 0 0
14.169991 241.516160 60.044361 0 0
120.688100 207.724520 73.579292 6 1
59.786495 180.047350 31.716101 0 0
5.058974 201.735890 103.348650 13 1
98.883263 357.581050 33.102520 0 0
80.819931 191.969510 59.093754 15 1
107.920780 206.922970 -37.902325 2 1
130.395710 93.683121 100.168650 17 1
-25.074884 303.483460 -3.252479 9 1
61.075840 374.972200 -231.537030 26 1
24.754982 53.826782 26.722862 0 0
-23.052567 308.958800 37.633160 9 1
48.883423 241.951230 21.018518 20 1
106.389320 213.731860 79.678108 6 1
10.998750 200.920210 1.725488 0 0
25.955305 308.032620 -191.305830 0 0
-9.702628 143.153200 48.812195 0 0
25.235970 94.802223 -47.624474 0 0
70.550659 345.614010 26.473572 0 0
45.872719 237.878170 -6.034260 21 1
32.249649 352.721250 -165.644700 0 0
228.246510 331.029690 105.747940 23 1
-109.401180 265.360410 113.739110 11 1
13.176910 212.149690 121.038340 13 1
0.739678 188.068390 -5.884981 0 0
199.143780 529.373660 -56.157787 1 1
38.970085 122.641860 57.389233 14 1
-63.168728 210.565580 -4.718718 0 0
-4.775066 195.283780 -21.646662 0 0
142.884770 375.784150 56.761848 0 0
211.203090 352.951930 71.870430 23 1
4.542060 297.977940 -94.772575 3 1
146.994430 384.091740 134.270780 27 1
-94.478752 263.678380 -2.201601 12 1
63.544762 238.801650 76.560394 0 0
30.848625 122.658330 61.725330 14 1
-48.467121 271.903410 114.122530 10 1
82.452003 205.235570 53.394920 15 1
7.776642 214.364400 -5.735068 0 0
-6.320346 124.872610 -8.608419 0 0
-29.306307 301.854640 76.927406 10 1
10.284742 288.648860 -74.614746 3 1
-23.834881 91.112099 -49.753040 0 0
-23.986040 202.020950 86.173721 18 1
213.143080 360.065220 64.901932 23 1
30.799620 382.732940 -225.228210 26 1
0.070353 160.466220 20.121595 0 0
95.378578 119.934200 72.376099 8 1
-7.019271 378.554320 -10.671938 0 0
63.546394 382.923890 -226.698840 26 1
-41.620171 208.892870 92.110481 18 1
219.625810 322.490050 30.610531 28 1
-9.065428 399.320620 -34.303783 0 0
19.693171 157.332000 14.312209 0 0
234.617840 335.564210 126.368360 23 1
-7.527318 442.733670 -13.706625 0 0
-2.023562 142.066640 3.548004 0 0
163.051930 378.388060 102.950450 27 1
39.618675 243.721150 -17.819868 21 1
97.493324 212.204770 64.267090 6 1
-32.265190 95.100052 -50.081974 0 0
165.117580 391.931180 104.749020 27 1
206.562730 313.443210 43.951675 28 1
30.585381 269.376430 -137.784260 0 0
55.352444 118.291360 40.331108 14 1
-23.601431 389.319490 5.357097 0 0
31.255199 238.613880 -10.068540 21 1
-1.347069 215.810970 113.744830 13 1
19.459631 150.099790 15.485352 0 0
220.549960 368.725070 129.056340 23 1
67.019226 372.847930 -237.062240 26 1
20.949289 182.581240 38.442818 0 0
55.392570 200.200230 62.765213 15 1
-82.356033 257.948210 0.068765 12 1
147.101230 341.616490 -212.149150 25 1
-18.476332 188.946620 67.439896 18 1
217.260740 332.728300 36.690025 28 1
-2.166656 195.198170 21.766258 0 0
116.984860 210.966890 56.671516 6 1
28.450321 250.009580 -86.681244 4 1
-7.104191 263.581180 86.352905 10 1
28.308485 332.346410 12.829063 0 0
113.313580 213.761020 68.845741 6 1
-59.254711 266.629060 105.189860 11 1
13.236191 299.518490 102.884280 0 0
-50.107285 302.450040 84.230354 11 1
3.308998 23.809090 0.793546 0 0
224.721160 341.961730 110.024570 23 1
138.905730 547.286500 -62.362354 1 1
-125.768390 281.895870 11.488111 12 1
41.828297 190.084000 59.846813 0 0
117.024640 202.929580 -58.158936 2 1
66.752083 123.365520 106.632640 7 1
-4.008351 67.681152 -4.527474 0 0
22.182673 317.316100 -190.152500 0 0
0.168142 265.016200 -69.826950 3 1
21.422710 245.449680 57.025429 0 0
-9.897156 179.569150 63.758884 18 1
18.652224 228.731640 56.366203 0 0
11.862761 170.791120 -1.829350 0 0
106.706310 106.565220 75.766251 8 1
221.639620 343.618530 102.398570 23 1
-3.335077 206.287160 82.230247 18 1
21.533794 256.763700 -68.216492 4 1
-15.107272 298.014160 4.263033 9 1
237.136610 304.576970 112.510100 23 1
10.107985 229.009930 -23.718422 0 0
17.201836 48.358715 15.793035 0 0
6.678048 289.084140 38.029381 9 1
10.057922 235.917220 -129.645420 0 0
114.924710 218.394620 83.665886 6 1
62.041245 106.765550 73.073883 0 0
21.910488 57.883099 34.096878 0 0
23.427412 313.227260 82.663765 0 0
16.207291 188.460750 30.097496 0 0
78.106987 236.326810 -58.879730 2 1
-4.510250 174.438930 1.134780 0 0
46.811344 112.884940 54.259220 14 1
17.550037 89.317001 27.431538 0 0
-80.685371 272.987700 104.452590 11 1
32.753727 298.205720 90.850517 0 0
8.718915 18.497757 1.180528 0 0
-67.249115 263.157070 119.295710 11 1
-0.972710 212.401600 8.690807 0 0
-31.951477 308.793240 0.431672 9 1
203.249440 373.152950 79.185974 23 1
9.034805 137.437930 1.000425 0 0
179.739260 536.648500 -62.098572 1 1
69.895691 211.550090 41.613533 16 1
9.458751 98.687210 -33.580608 0 0
62.955418 208.440260 54.009289 16 1
26.024040 245.183430 10.598435 0 0
35.745724 236.015750 65.283447 0 0
103.829500 119.941920 73.259766 8 1
53.084339 339.722630 20.188734 0 0
-29.400167 199.972790 93.368103 18 1
148.146260 539.825010 -80.578590 1 1
15.700974 102.628260 -8.263949 0 0
-3.747902 314.335780 -0.806116 0 0
-110.732860 272.179780 -8.941468 12 1
111.854870 210.325560 -32.186966 2 1
99.392426 213.501340 56.384342 6 1
194.655300 381.784060 92.836914 23 1
74.184494 196.683430 54.651192 15 1
-10.710628 138.565340 28.629400 0 0
160.279430 402.373990 112.254760 27 1
-15.708398 437.549190 -12.135821 0 0
-0.174181 213.099690 -118.647980 0 0
113.074450 211.188250 -56.590675 2 1
19.377003 199.554690 106.943000 13 1
-2.629180 243.074510 -21.275381 0 0
31.709387 307.021730 -155.781680 0 0
154.654890 399.910130 135.156050 27 1
3.093169 72.970901 -2.876185 0 0
-69.912849 298.980010 98.709602 11 1
9.460343 80.945236 6.113053 0 0
74.592644 227.671620 -38.948299 2 1
93.485840 236.126270 22.762880 16 1
152.948070 360.397160 113.387770 27 1
39.919575 306.577640 105.852610 0 0
153.830060 542.019650 -69.168938 1 1
25.967190 183.746430 90.872643 18 1
24.449884 360.889400 -234.673250 26 1
-16.331085 142.531360 23.601992 0 0
19.797894 44.032448 6.218664 0 0
10.419034 250.459640 -5.748413 0 0
-28.399361 127.936870 -22.583818 0 0
-7.548118 68.127266 -26.807903 0 0
-66.135139 277.854100 99.872063 11 1
97.175438 108.178700 103.709730 17 1
49.673744 216.447560 73.438148 0 0
12.287476 138.966290 44.377781 0 0
-80.522926 300.004120 97.001991 11 1
18.190092 349.561680 -167.884200 0 0
0.962390 77.136276 30.172676 0 0
186.026660 336.172550 68.640182 28 1
2.231513 56.196930 43.365440 0 0
135.528520 88.400925 121.743270 17 1
102.503120 218.477020 75.059326 6 1
-25.039211 420.434510 3.552445 0 0
23.354076 255.664050 -144.904100 0 0
4.707098 218.673430 124.948360 13 1
14.625004 196.296400 83.711449 18 1
91.037048 234.545210 -57.012215 2 1
206.679370 383.483550 98.041191 23 1
-3.698122 288.156280 -50.889313 5 1
58.005867 124.944000 77.358551 14 1
-18.887112 112.708180 -39.140823 0 0
202.205290 514.527040 -79.511444 1 1
196.400570 362.814450 47.177029 28 1
-10.392884 366.058260 -15.193450 0 0
-29.315813 306.457670 61.701813 9 1
210.054090 369.064610 112.587860 23 1
-12.644827 433.690700 -25.041626 0 0
4.653710 230.518510 -13.949690 0 0
77.741341 355.375610 30.638624 0 0
31.550610 235.925230 19.825058 20 1
-17.326473 360.085750 -24.050911 0 0
105.784710 211.556950 -75.356514 2 1
142.585460 546.060360 -72.400558 1 1
-4.137950 76.918175 -35.515759 0 0
20.826460 262.513310 -72.605141 4 1
-99.619637 284.641360 109.066330 11 1
55.769238 228.935270 69.896729 0 0
-61.347393 230.960250 -135.677830 0 0
36.781601 249.720780 44.279240 20 1
-20.090614 428.309720 -5.014922 0 0
17.479359 244.087330 2.649424 0 0
117.592330 200.215450 -48.110950 2 1
-1.562812 143.726700 -14.267403 0 0
-22.748590 104.015760 -47.272652 0 0
19.023258 239.326810 -6.689659 21 1
5.273748 154.298980 45.665508 0 0
-10.052108 294.787720 -52.943821 5 1
-19.749838 302.733000 10.262945 9 1
-9.674254 141.757540 21.073263 0 0
13.347977 27.465591 6.899012 0 0
234.969570 322.004300 100.771490 23 1
102.469750 358.533260 39.224125 0 0
37.466427 187.807270 104.486880 18 1
133.245610 203.332790 44.807171 6 1
28.229656 331.272340 -155.387330 0 0
212.737810 345.283570 42.931190 28 1
2.135986 386.120540 -29.744194 0 0
39.962402 242.007130 73.185165 0 0
-3.939493 389.466160 -17.388992 0 0
0.123540 185.754060 92.833389 18 1
32.615238 265.212160 -65.778580 4 1
-26.289309 193.528240 94.640152 18 1
142.167770 550.875120 -51.571056 1 1
29.766468 315.162780 100.510110 0 0
212.154540 312.278020 35.899475 28 1
228.531600 339.923800 121.484960 23 1
-107.655620 279.398990 -1.772888 12 1
48.254311 181.412960 11.931052 0 0
-20.864532 285.379910 75.842087 10 1
-17.640232 297.383880 39.187889 9 1
55.311047 218.141630 62.500359 0 0
152.794880 373.009370 108.848990 27 1
93.512970 381.650700 -216.989350 25 1
42.469063 161.647510 23.237112 0 0
-9.058371 78.475685 -3.721862 0 0
-50.771984 177.574630 -11.954093 0 0
5.521892 105.153000 -0.127499 0 0
-0.367647 86.920921 -28.165541 0 0
191.638760 348.391110 69.686676 28 1
-6.496844 340.595860 -5.060925 0 0
-9.791802 100.796570 -1.242119 0 0
31.854418 65.796570 29.980873 0 0
159.716740 381.095030 112.502750 27 1
69.107361 113.891510 120.034360 7 1
-51.527134 286.235170 107.264120 10 1
-55.242901 227.059650 -123.856140 0 0
207.636900 385.919430 41.924297 28 1
11.215836 201.799500 -5.901729 0 0
-12.121445 29.808573 -1.216488 0 0
2.476947 109.054480 -13.606875 0 0
-48.889400 295.509370 89.715370 10 1
156.105010 375.195280 58.196728 0 0
-7.995743 91.474976 -29.573112 0 0
-11.358060 300.407840 48.924763 9 1
13.399763 108.648540 -12.175758 0 0
225.878250 330.089970 82.131378 23 1
-11.001968 354.080290 -31.538092 0 0
-30.266506 307.280180 38.760395 9 1
-64.445183 288.706420 106.771230 11 1
-5.445062 92.109085 8.324885 0 0
-3.803048 182.127030 69.414131 18 1
32.946915 328.293980 -176.996200 0 0
151.478850 388.575740 117.280550 27 1
70.605949 222.851820 40.230259 16 1
1.484471 178.878910 55.069794 18 1
12.631153 147.148830 29.127396 0 0
-13.253225 341.015140 -36.517769 0 0
-124.976470 280.462010 2.644531 12 1
95.359993 113.069980 121.142960 17 1
47.162060 281.223660 101.685620 0 0
180.473160 374.901860 104.162850 23 1
206.684830 377.997920 35.275368 28 1
200.240100 520.394840 -66.961060 1 1
51.517593 386.436770 -223.508190 26 1
-22.838543 116.309520 -25.661125 0 0
158.987290 362.272830 94.112724 27 1
117.740480 104.922580 127.019300 17 1
22.461170 281.927150 -86.178177 3 1
83.634727 416.340390 -246.116580 24 1
61.337135 123.024190 92.947647 19 1
104.215570 212.914320 21.136887 16 1
177.166750 367.117340 65.849358 28 1
233.282960 326.303860 93.655586 23 1
87.235832 221.808290 -35.402218 2 1
22.785021 207.900910 140.886920 13 1
-6.409195 164.510530 -22.609615 0 0
226.689560 347.429630 130.406050 23 1
179.057360 370.982090 115.545430 23 1
16.833385 157.770160 42.313969 0 0
174.806640 402.563140 77.826057 27 1
113.507980 97.768471 75.530609 8 1
-33.430290 310.709900 57.855354 9 1
66.844528 215.032750 -7.022268 2 1
-4.836868 435.665190 -20.295464 0 0
-70.006035 268.981020 105.594740 11 1
3.707080 155.788740 16.289806 0 0
38.967361 111.981350 65.250389 0 0
111.471300 360.374630 36.173107 0 0
106.155940 114.446410 78.127876 8 1
-11.907306 290.802000 77.583908 10 1
-26.454990 415.893340 -4.298799 0 0
71.912498 210.259030 50.698418 15 1
-99.978653 269.075960 -2.807110 12 1
74.015266 374.955260 -232.991670 26 1
132.708600 542.507140 -54.264130 1 1
-1.058992 182.093480 3.988829 0 0
-21.813358 127.375890 -14.455807 0 0
-3.891437 151.182530 -67.286858 0 0
114.616850 208.679000 -45.027416 2 1
36.631859 311.318880 -163.481630 0 0
30.013056 242.615040 -21.912880 21 1
73.066368 225.851240 -0.360285 0 0
-12.704882 419.171020 -30.468510 0 0
-111.493180 254.635700 116.344160 11 1
-10.486646 243.099090 -30.768200 0 0
34.058891 281.389680 91.341232 0 0
-22.203959 413.297150 6.689847 0 0
112.338620 98.939362 94.341087 17 1
-22.560627 141.185330 27.873077 0 0
110.882550 96.156395 84.960701 17 1
-1.741256 11.353917 -2.575222 0 0
-68.024323 221.746440 -7.390324 0 0
7.591489 187.307160 -4.509962 0 0
-4.491187 184.339360 -17.176308 0 0
-3.565299 47.221210 8.852202 0 0
37.601006 383.110750 -221.613890 26 1
9.694942 99.555008 52.815849 0 0
-14.313703 391.314910 -11.896492 0 0
-7.081318 276.287690 -70.217537 3 1
-7.659553 237.098720 -23.214260 0 0
14.727620 99.612740 22.765251 0 0
7.136551 11.659897 -0.310486 0 0
9.507276 293.335880 79.505783 0 0
-83.286140 266.657410 5.169166 12 1
67.746124 226.997970 -27.040724 2 1
83.604744 350.744320 31.661938 0 0
-3.514355 207.908950 93.783356 13 1
58.294022 123.995930 69.616287 14 1
-29.062666 260.161130 113.540000 10 1
219.675830 340.553890 73.015770 23 1
49.320549 188.071930 -0.450632 0 0
21.593731 302.366520 75.613075 0 0
-0.755475 68.075676 -15.496008 0 0
12.113579 182.870530 90.650116 18 1
30.390551 267.804020 -130.908660 0 0
-27.837769 280.338560 94.332878 10 1
47.175941 334.879490 -192.735890 0 0
-7.714627 145.020450 -20.406162 0 0
28.634546 54.344574 3.651335 0 0
10.363887 112.018880 51.234642 0 0
114.801420 364.148860 -197.028580 25 1
199.770890 364.166380 79.360962 23 1
-97.261620 256.650210 -14.510625 22 1
55.596859 251.776960 -91.666542 4 1
-31.209019 313.185060 28.423050 9 1
-3.648526 428.458010 -12.005960 0 0
-21.859032 146.899460 -58.343639 0 0
25.410583 234.985550 -27.218906 21 1
67.299477 231.603300 -53.851471 2 1
-74.082520 285.971590 115.359820 11 1
213.904420 373.246830 98.507439 23 1
20.630297 275.783810 75.781799 0 0
10.676952 132.759780 41.245461 0 0
73.968216 114.031740 85.290596 19 1
75.125748 388.073880 -220.736690 0 0
70.708771 233.749330 -10.366210 2 1
210.406050 336.461550 45.828930 28 1
109.090060 382.756840 -226.006180 25 1
-6.147884 415.657560 -21.633806 0 0
187.615800 537.008060 -52.126076 1 1
21.466831 240.896130 24.597706 20 1
8.827175 186.877620 40.505409 0 0
24.542345 267.132970 66.047546 0 0
190.583860 528.960820 -69.284233 1 1
-19.750212 192.850270 88.594902 18 1
179.498980 535.495670 -83.873840 1 1
121.246860 356.670650 -190.763030 25 1
9.295563 275.441500 72.405075 0 0
113.416040 200.601750 -36.108334 2 1
103.645530 406.188170 -244.675990 24 1
45.938374 362.245000 -240.268740 26 1
16.088451 305.414000 86.738876 0 0
11.708873 276.504850 -66.662636 3 1
-57.240894 272.211400 101.424770 11 1
-5.335747 219.033250 100.787040 13 1
-12.862555 399.963530 -0.174755 0 0
77.085258 124.281190 85.114349 7 1
-87.335358 257.481050 -24.011009 22 1
3.400076 118.087780 14.682875 0 0
-5.121533 105.411140 6.164944 0 0
156.681270 392.544620 125.862820 27 1
-0.277375 57.146473 18.751543 0 0
-38.099770 288.268010 89.847343 10 1
73.955437 417.755190 -252.913540 24 1
156.317210 368.986570 101.527740 27 1
148.984270 544.048890 -60.139511 1 1
-24.371410 297.786590 68.037537 10 1
64.281456 388.316160 -215.306990 26 1
0.353079 50.100067 23.693506 0 0
92.597733 206.920910 53.728603 15 1
2.876383 143.262710 10.699306 0 0
181.251420 360.314360 118.875170 23 1
121.084850 179.192640 -67.530342 2 1
13.534868 203.878600 90.982788 13 1
22.156740 249.893650 16.633369 0 0
163.506060 367.877200 82.999222 27 1
125.118370 368.437810 49.523602 0 0
-54.786613 262.720730 109.291660 10 1
-40.749668 129.268720 11.281539 0 0
-68.884621 258.755460 -16.008760 22 1
209.737010 504.651670 -72.046341 1 1
118.142430 204.960460 50.162380 6 1
202.007710 343.656980 55.280804 28 1
192.377720 338.199460 61.834343 28 1
2.304599 161.846330 26.886072 0 0
-57.129124 270.650270 118.232160 10 1
34.927425 301.921020 104.402610 0 0
21.245279 232.660140 -14.121506 21 1
1.311884 193.594910 -97.192368 0 0
9.721956 201.937520 108.530800 13 1
5.117391 142.504880 48.189404 0 0
-4.284835 416.811950 -4.146801 0 0
44.308796 118.416500 59.025719 14 1
65.727158 188.521380 36.451344 0 0
100.345120 376.452610 -203.297230 25 1
40.812874 250.698330 37.940231 20 1
215.646640 361.445220 36.412769 28 1
226.415790 358.268950 133.096760 23 1
84.218300 390.125520 -231.623250 24 1
-11.822742 127.245580 -18.488682 0 0
55.529449 210.896070 75.746567 15 1
-6.006465 272.574490 84.677971 10 1
25.020657 245.204250 36.191296 20 1
-86.614220 264.466160 -3.543323 12 1
198.717540 331.692900 57.923927 28 1
165.152690 384.673430 100.442660 27 1
75.304062 212.316790 36.416676 16 1
38.257050 284.249730 102.069470 0 0
-4.731631 54.346287 -11.838675 0 0
21.310570 206.814560 116.147730 13 1
107.124440 110.716170 111.205610 17 1
36.334568 354.012700 -242.918810 26 1
201.365590 363.351040 55.578003 28 1
22.806341 162.913680 -6.406917 0 0
112.677840 212.946240 43.274921 6 1
-31.681507 123.927430 6.657415 0 0
23.487944 251.190120 45.407265 20 1
114.088820 199.342130 -10.788951 2 1
41.336544 68.529076 6.044901 0 0
57.681610 365.235350 -242.140550 26 1
-66.957260 240.552510 -139.995420 0 0
-21.789267 132.708010 5.563669 0 0
61.677803 249.555240 -96.217514 4 1
21.659538 56.005405 4.718770 0 0
70.619843 220.605350 -5.202993 2 1
-42.672321 199.320160 -105.161670 0 0
47.928619 172.521130 25.082108 0 0
-3.628132 291.097290 55.549179 9 1
-0.459216 37.297668 19.913040 0 0
43.636135 100.578670 47.637589 0 0
-11.052674 37.251858 2.193479 0 0
23.772512 164.059950 45.553326 0 0
32.753963 233.574540 26.199757 20 1
27.240652 292.077360 89.552696 0 0
-11.393509 169.127400 73.989166 18 1
-119.929470 277.120760 -9.802945 12 1
86.466995 232.218190 -29.107630 2 1
-14.467048 177.102710 70.264664 18 1
45.683342 94.362427 59.029606 0 0
30.437265 339.269380 13.125432 0 0
6.020944 297.065520 -79.953514 3 1
167.386750 534.618160 -85.259018 1 1
-67.141640 289.306850 94.654579 11 1
121.879810 366.332210 -200.478440 25 1
3.902651 291.413600 -76.104988 3 1
84.718140 209.734910 -7.737605 2 1
7.973568 100.226570 -4.268797 0 0
-31.113977 301.654050 89.500648 10 1
61.159294 234.695970 -4.672346 0 0
116.368810 379.165040 -224.194470 25 1
24.006617 235.197040 31.517439 20 1
-39.259663 255.786590 107.656200 10 1
-96.562157 271.248170 3.552928 12 1
22.054865 179.388430 99.092972 18 1
161.897490 546.300050 -65.685799 1 1
-104.217660 253.572950 119.471890 11 1
3.225036 278.019440 -4.924132 0 0
207.304370 360.716610 99.785698 23 1
150.445390 393.789150 131.993800 27 1
0.879808 134.822050 43.653835 0 0
19.829233 183.955430 9.165626 0 0
32.253395 327.573850 97.820580 0 0
-35.796658 153.832230 -18.823118 0 0
47.431152 344.596370 18.731167 0 0
217.381650 364.406460 122.824160 23 1
-60.647293 278.546140 117.991380 11 1
169.123570 545.269410 -60.731155 1 1
-40.190186 304.665860 96.156868 10 1
-13.562076 291.509520 15.363941 9 1
-0.088129 191.811310 -104.305680 0 0
204.965300 325.385010 46.998108 28 1
19.088707 239.952870 -134.952640 0 0
-11.045368 162.018520 -5.435591 0 0
179.379330 539.325930 -55.797115 1 1
-45.163845 264.800110 104.916400 10 1
39.922382 374.076140 -231.329040 26 1
5.031466 1.030672 2.168584 0 0
199.075500 323.145020 57.737587 28 1
-25.179047 43.845142 19.731127 0 0
-0.031935 63.882923 39.297825 0 0
28.836914 97.215996 -55.950016 0 0
-19.317736 397.842930 -12.667633 0 0
142.788790 377.364410 147.462660 27 1
8.433507 122.531080 2.897105 0 0
-1.238535 70.285301 30.825228 0 0
-27.157722 304.674900 82.780098 10 1
-0.839180 59.247608 -17.634695 0 0
-12.734857 299.101840 20.451151 9 1
-13.132555 142.399950 -61.897625 0 0
12.336678 281.897740 -49.925514 5 1
152.307680 380.767240 128.793430 27 1
7.140983 71.415024 10.033087 0 0
12.676556 114.356310 31.845085 0 0
54.092926 113.738040 62.974339 14 1
204.176240 376.066350 49.613663 28 1
-8.886502 152.751190 -59.655056 0 0
9.587637 258.635070 1.632422 0 0
68.120995 102.506030 54.777672 14 1
31.178041 254.904940 43.198750 20 1
-6.677127 172.213090 -80.701309 0 0
58.112690 199.530240 4.344500 0 0
-9.083861 111.933490 -10.552788 0 0
-22.425117 122.821210 -23.653507 0 0
58.272800 222.395680 67.926399 0 0
170.726070 392.927920 87.322395 27 1
-8.783742 325.048680 -6.219471 0 0
101.947170 417.990630 -248.936830 24 1
97.411728 372.361390 -184.648570 25 1
49.042244 205.019230 81.360901 18 1
-33.803783 313.582920 41.545662 9 1
13.761536 170.641080 16.606379 0 0
-12.421786 187.616610 87.461792 18 1
-16.726801 122.728650 -15.040518 0 0
12.286255 224.922550 -16.410465 0 0
4.680768 288.491850 24.263819 9 1
108.631110 105.987160 83.356369 8 1
-96.388489 269.520870 117.678430 11 1
-19.513376 153.160840 -65.051353 0 0
70.544174 203.720670 44.437798 16 1
58.276474 211.466930 1.354555 0 0
5.336987 177.299770 49.689732 18 1
-19.310444 79.794914 -30.700024 0 0
0.957590 167.219880 67.484634 18 1
-24.232637 301.781460 42.317146 9 1
81.788689 229.805070 -55.758110 2 1
-56.374493 191.570800 -12.514975 0 0
30.850044 245.388570 62.979507 0 0
159.266450 537.540410 -83.078491 1 1
9.708592 168.156910 47.541031 0 0
123.826840 101.346860 127.054230 17 1
20.575247 203.645490 147.033780 13 1
162.307820 362.208160 86.810272 27 1
156.289720 401.007020 121.696430 27 1
70.809631 241.142320 -22.261059 2 1
19.941719 102.959370 25.903919 0 0
126.316310 371.609280 -220.533750 25 1
-51.252026 285.437530 99.899406 11 1
71.753250 237.505460 -56.003281 2 1
31.271198 174.221190 46.144123 0 0
4.662963 113.799610 5.106201 0 0
14.923926 248.059080 -54.546062 0 0
22.496202 182.848920 21.852058 0 0
20.933233 290.842040 -151.200180 0 0
206.830870 375.850430 86.749397 23 1
167.014040 377.160310 74.062515 28 1
-0.995699 57.198097 25.629337 0 0
-99.170158 292.076320 105.113200 11 1
181.604640 536.533200 -72.819588 1 1
216.321580 320.055360 36.182861 28 1
12.048800 236.507980 -4.996449 0 0
18.230013 96.726036 -50.363422 0 0
93.153816 234.970490 -63.433144 2 1
40.763939 92.083229 40.279110 0 0
-107.271380 289.386600 17.556955 12 1
-15.687748 401.425510 -34.013119 0 0
1.536785 401.584930 -17.590157 0 0
-7.210071 292.733610 38.539810 9 1
106.262720 223.120670 19.628216 16 1
-66.790382 305.112850 93.609673 11 1
-16.881145 212.071520 79.679413 18 1
179.372040 373.332180 61.047295 28 1
104.938030 203.521800 -61.220459 2 1
28.986353 249.356840 32.578510 20 1
224.223140 359.426700 113.606540 23 1
35.033600 268.396420 68.505432 0 0
17.545584 144.788760 3.686619 0 0
64.645210 114.430810 65.400986 14 1
-5.511853 61.123306 36.443001 0 0
32.914341 239.116940 37.935337 20 1
63.136585 139.517140 107.571500 7 1
7.305718 209.322050 -10.372445 0 0
74.594795 237.667040 93.657074 0 0
103.990730 109.420460 98.874229 17 1
23.816120 164.042210 17.416388 0 0
81.284096 221.873400 -27.660227 2 1
13.153271 132.511990 3.178769 0 0
18.643711 174.121220 7.511231 0 0
15.881678 212.621110 52.362370 0 0
2.427921 84.370041 12.446606 0 0
96.732948 224.798540 -67.774574 2 1
-8.046867 88.657486 -8.159472 0 0
10.709230 178.897090 96.844345 18 1
108.141280 210.535030 -12.147967 2 1
39.301628 80.984642 39.306602 0 0
127.067940 208.712370 54.309116 6 1
11.803033 235.660450 -26.610462 0 0
100.685940 200.857300 44.146393 6 1
83.891876 379.452150 -215.296780 0 0
96.751205 407.920500 -246.224240 24 1
-15.908697 375.429630 -12.778135 0 0
19.591475 238.067210 15.087716 20 1
98.681755 130.612660 65.634247 8 1
45.854958 179.816210 92.483009 15 1
-11.997232 80.047073 -42.071865 0 0
-25.831869 95.391716 -36.968288 0 0
108.719400 198.100620 -79.552345 2 1
98.632881 208.462270 -15.923457 2 1
-1.501442 406.604550 -21.384672 0 0
-83.187462 275.513150 15.562440 12 1
-3.815679 412.323910 -41.712463 0 0
-82.512245 253.583070 118.409800 11 1
-50.440460 190.849750 -16.064137 0 0
4.681322 192.129760 -41.638012 0 0
211.974110 374.922550 38.364281 28 1
11.255979 209.846880 111.851990 13 1
-18.956966 294.575990 24.986391 9 1
88.960182 413.034210 -251.928280 24 1
65.023552 188.949490 90.082207 15 1
68.346451 139.116460 95.276161 7 1
52.461147 231.285640 -13.407245 21 1
61.448128 348.142150 -201.328960 0 0
197.614010 383.333130 86.924339 23 1
27.998362 89.910408 -56.881401 0 0
23.739769 143.189990 15.063252 0 0
81.488182 191.712330 52.067455 15 1
-13.220206 141.178340 0.378477 0 0
59.412655 195.398610 71.858063 15 1
50.500134 101.494310 53.789818 0 0
26.086205 262.265780 57.151978 20 1
-101.418690 283.519010 12.149320 12 1
-13.494379 267.224880 91.033928 10 1
-6.325861 157.214520 -15.573156 0 0
-7.971171 129.560780 10.581701 0 0
6.539047 149.803100 39.558647 0 0
3.253490 264.922520 -15.281111 0 0
19.077641 232.128490 -7.227793 0 0
-14.971309 357.429780 -11.697745 0 0
108.428730 105.801680 94.532288 17 1
83.066666 229.281190 -16.941093 2 1
-74.968422 273.775090 120.448270 11 1
-8.431234 -1.190137 -0.834493 0 0
-16.767843 182.182630 53.681683 18 1
17.182064 189.579570 36.636234 0 0
172.926560 380.120150 63.552635 28 1
69.650513 238.894900 -44.676105 2 1
3.326478 185.980900 30.750231 0 0
-28.838337 303.255280 29.586075 9 1
4.245887 252.390910 -8.156473 0 0
22.457951 273.656520 69.170662 0 0
-51.654129 216.879470 -119.769100 0 0
19.355165 104.783960 54.969437 0 0
45.434216 247.797360 25.843895 20 1
22.908192 240.628070 -29.808271 21 1
18.444424 54.781456 17.205681 0 0
5.839239 223.119380 -30.277414 0 0
101.921120 386.923460 -223.425380 25 1
15.971936 263.330960 -4.603683 0 0
-25.469105 208.656890 84.940094 18 1
73.544632 198.107350 70.110321 15 1
106.370640 232.695310 23.939713 16 1
0.678047 177.133480 76.088509 18 1
25.895859 343.312040 -171.785680 0 0
2.254812 44.244755 12.721042 0 0
120.690380 196.294460 -26.854685 2 1
-2.357172 175.998990 -22.517094 0 0
4.523084 208.037030 50.323483 0 0
22.355078 299.681340 -165.882460 0 0
-13.043974 365.399290 -24.908272 0 0
207.930100 342.497010 48.926746 28 1
41.785831 118.017240 65.557281 14 1
-16.705933 190.263470 59.407143 18 1
63.095829 187.047670 79.384171 15 1
3.547360 65.489563 26.261726 0 0
127.959210 204.267440 66.509682 6 1
159.020980 409.052340 118.266010 27 1
90.902405 223.229290 -12.887298 2 1
235.299840 310.999850 123.503090 23 1
-37.048592 298.657710 82.639893 10 1
-7.917478 351.791960 -11.437176 0 0
17.283466 255.697400 59.134548 0 0
4.771618 81.868309 32.882088 0 0
1.233600 154.067540 -11.279442 0 0
84.299606 236.310710 -48.405121 2 1
121.257880 191.730150 -65.519180 2 1
87.657761 192.181110 59.344658 15 1
43.459133 201.000120 61.119274 0 0
22.038054 290.168370 76.200951 0 0
129.393510 209.370910 89.131409 6 1
17.591454 277.675900 -87.888947 3 1
-5.807515 54.610798 4.235065 0 0
-26.167202 269.759610 103.080440 10 1
124.804210 204.247180 49.870491 6 1
16.102034 319.608610 -163.265880 0 0
223.851440 347.380710 117.346210 23 1
-25.217247 103.685170 -34.695206 0 0
25.956177 319.509800 -181.520400 0 0
27.748829 255.944400 66.396568 0 0
33.998775 318.995030 -154.631700 0 0
-74.744370 242.486360 -142.078570 0 0
17.877073 82.641762 31.979233 0 0
36.787251 181.837680 96.411079 18 1
-19.602291 289.938140 86.081635 10 1
107.660480 210.156310 65.972763 6 1
6.702649 183.171300 86.446281 18 1
-4.404220 132.881130 -17.846968 0 0
-1.873521 22.239717 -3.181272 0 0
106.292690 123.911450 67.525604 8 1
37.114796 388.817960 -218.138640 26 1
72.247543 115.754620 78.097702 19 1
4.400677 142.118800 0.181562 0 0
-46.279671 248.364880 112.970790 10 1
74.268898 240.196260 87.208717 0 0
234.249040 336.824860 132.855900 23 1
33.299786 269.347870 -149.839520 0 0
159.968730 396.242860 104.985570 27 1
-18.804398 95.084885 -46.286575 0 0
180.166290 386.642120 67.329964 28 1
-97.227814 263.186160 114.320640 11 1
38.162262 307.855620 98.674637 0 0
116.949910 358.068050 -181.833020 25 1
5.270708 423.814270 -17.884151 0 0
2.218746 198.598070 26.030554 0 0
-4.765754 302.926940 -5.465712 0 0
12.064766 265.576750 -59.006119 5 1
-102.929850 254.435700 -29.490707 22 1
-22.530304 424.740970 -10.010115 0 0
162.210910 374.368710 86.612915 27 1
70.746437 117.112530 97.032547 7 1
217.509550 346.932010 65.893204 23 1
226.452800 333.189420 99.772995 23 1
5.920018 35.107887 19.418587 0 0
34.043140 271.130490 -68.328659 4 1
93.732704 205.303650 26.322102 16 1
224.757490 354.431790 108.787980 23 1
-123.821230 285.864010 6.446586 12 1
-11.050490 185.671050 57.818436 18 1
-10.547528 55.665813 -4.121823 0 0
167.916150 392.647770 97.295731 27 1
220.031230 329.062190 30.975954 28 1
11.819718 133.651200 23.745344 0 0
47.437817 112.124340 67.358032 14 1
174.335660 549.723080 -41.077980 1 1
34.048115 318.449550 -174.309540 0 0
157.356890 360.552490 104.717450 27 1
87.607491 119.041280 76.971916 8 1
-25.711210 390.723660 -4.645537 0 0
220.110210 359.985080 88.072060 23 1
-45.735138 212.060500 -109.974990 0 0
42.588051 188.371410 89.180908 18 1
-11.337197 150.425890 -7.845802 0 0
64.414276 111.470050 33.888763 14 1
-80.759193 265.786770 -28.246576 22 1
156.498660 367.827210 112.976780 27 1
21.352709 248.369710 -140.850300 0 0
5.301053 172.061630 69.433121 18 1
27.156754 307.724880 101.714450 0 0
34.959373 59.810272 1.812148 0 0
-62.541321 309.582430 83.318924 11 1
38.316833 308.429200 -176.472110 0 0
-90.050171 286.357540 101.473700 11 1
23.066830 345.918150 -160.989290 0 0
137.152050 201.135740 86.717491 6 1
-0.678872 209.377870 -17.104975 0 0
-109.878240 278.731780 109.281430 11 1
-28.884342 296.400880 -7.660160 9 1
165.299100 370.013430 97.790657 27 1
24.956882 203.830150 136.061890 13 1
105.463040 221.194790 -62.449482 2 1
221.329070 371.030030 117.917780 23 1
187.355420 365.116060 56.617359 28 1
120.028950 206.989410 62.304981 6 1
49.679344 246.001820 -23.212847 21 1
163.689680 387.522830 88.607819 27 1
-4.648202 145.786700 44.100044 0 0
-26.063730 297.032470 6.038322 9 1
227.728880 341.644900 81.598595 23 1
26.979944 235.945420 -14.279346 21 1
-0.800008 203.576140 9.704472 0 0
-16.056837 204.487990 86.902725 18 1
62.919430 130.797120 114.447330 7 1
9.062432 192.625240 99.152115 13 1
215.089980 366.783170 84.119064 23 1
20.334623 186.387830 15.990032 0 0
120.478940 182.119020 -61.065674 2 1
-2.430050 86.711609 2.109116 0 0
-91.949043 251.156170 -5.079575 22 1
-3.224149 201.957990 91.047096 18 1
-24.463669 136.354520 -29.340834 0 0
58.831600 236.348070 -25.140387 2 1
-29.804047 310.328340 19.624172 9 1
175.186580 359.847690 116.409550 23 1
-53.999607 249.755750 120.218060 10 1
144.888550 549.214840 -60.527710 1 1
81.598885 116.011590 75.375069 14 1
184.431210 386.474580 79.134628 28 1
-106.067620 275.972720 3.627972 12 1
24.428934 205.175020 128.760590 13 1
-114.814290 274.720060 -13.383210 12 1
88.106735 385.605870 -205.978450 25 1
90.259171 359.803710 34.640453 0 0
-23.481422 147.463790 5.171889 0 0
2.507940 182.409230 80.504761 18 1
-9.090192 294.858550 60.597191 9 1
2.234705 198.092480 98.397583 13 1
27.258505 273.342650 -86.411263 3 1
68.482292 106.616420 45.985981 14 1
145.982990 392.110530 142.781370 27 1
70.067863 108.237100 76.256332 0 0
64.385132 201.898480 81.229942 15 1
11.150275 191.208720 62.423237 18 1
28.036457 187.919980 103.652490 13 1
17.481720 263.867610 67.403862 0 0
11.743701 211.496490 138.795560 13 1
59.949883 185.610440 35.121998 0 0
126.503090 367.112520 -210.562270 25 1
229.865920 324.399870 104.049540 23 1
2.236435 37.224400 -0.584541 0 0
-7.306190 291.234920 25.016645 9 1
-9.869927 195.252120 81.983261 18 1
85.498451 234.767900 29.302132 16 1
-35.250381 312.633510 23.340786 9 1
-13.622169 144.408660 8.255178 0 0
35.997807 236.462810 76.012627 0 0
-19.621206 47.455700 26.467098 0 0
163.615450 402.148470 102.642010 27 1
-6.130133 180.304120 -86.538727 0 0
25.185314 285.142820 -168.001540 0 0
25.049101 261.787480 -150.188430 0 0
99.905945 211.707890 42.052750 15 1
151.841020 389.905330 137.032010 27 1
10.615374 151.632460 10.298209 0 0
-18.111431 297.569060 63.182335 9 1
-1.428556 190.242710 -91.404312 0 0
16.093649 289.925960 -93.865166 3 1
146.865750 375.366300 136.560420 27 1
94.192596 224.495100 -58.041870 2 1
32.266689 192.035640 81.681503 18 1
-39.306190 261.612670 110.557240 10 1
-14.726736 112.949130 -28.765860 0 0
62.631981 235.420870 -16.653326 2 1
5.115090 192.515840 19.850170 0 0
194.016050 349.705600 55.017178 28 1
25.489727 169.092130 -3.684542 0 0
107.688360 212.383870 56.547878 6 1
-7.428372 281.703580 82.640266 10 1
37.797092 247.204070 -93.658585 4 1
-20.246832 104.317790 -28.394148 0 0
146.560360 385.297090 147.573990 27 1
-3.105249 120.151990 -5.499033 0 0
-12.816898 88.861313 -26.078331 0 0
44.298164 207.238830 65.997681 0 0
1.197058 278.449250 -65.293884 5 1
-30.298607 247.854400 102.020160 10 1
9.313411 242.954670 -13.012858 0 0
24.887854 244.241030 51.604649 20 1
-30.167526 44.499420 23.843569 0 0
-8.709810 427.358640 -29.760847 0 0
104.967480 201.381640 -8.891669 2 1
12.470477 247.782230 -0.184096 0 0
12.837426 39.283611 12.902500 0 0
217.551800 490.745210 -59.819401 1 1
-17.648947 143.935170 -54.256878 0 0
80.403618 218.560380 -13.962179 2 1
-4.789145 176.102160 42.978882 18 1
-15.170755 198.315260 91.629089 18 1
43.622280 282.508610 109.768170 0 0
-83.626595 268.636020 108.306580 11 1
59.091434 112.066610 51.078480 14 1
221.902600 356.154450 82.380737 23 1
153.626860 196.054170 94.364906 6 1
-10.741315 232.281340 -37.794067 0 0
-16.118738 123.006150 -35.080887 0 0
-9.434229 327.381290 4.846412 0 0
102.631130 223.060170 -44.197231 2 1
194.879330 380.332580 45.264290 28 1
-9.343458 152.025630 -19.055910 0 0
29.311531 366.977450 -233.887950 26 1
29.386105 304.208860 -169.874020 0 0
2.092601 404.255430 -36.007111 0 0
162.470920 394.107240 112.575430 27 1
89.437492 196.430500 31.739595 16 1
4.315214 61.770653 6.150992 0 0
20.107994 201.041550 126.281680 13 1
86.506348 212.880250 36.732441 16 1
-12.201571 54.457924 19.467815 0 0
26.310179 302.135930 -155.531590 0 0
23.124956 189.245350 56.539989 0 0
127.901600 109.752690 62.383987 8 1
80.958488 107.325380 109.156700 7 1
3.653098 163.139540 -8.281463 0 0
84.300705 207.279920 29.844234 16 1
-53.352764 283.081670 115.662800 10 1
146.643890 373.184480 126.014300 27 1
40.743797 232.870650 69.009346 0 0
198.391950 389.127930 43.582172 28 1
-14.034493 231.508350 -29.103973 0 0
11.299517 167.356120 -12.143759 0 0
-79.318878 292.030210 98.277832 11 1
46.043411 291.217350 103.092770 0 0
55.816612 191.784610 0.559530 0 0
33.592888 291.987120 -175.025590 0 0
-43.950680 132.653930 19.612682 0 0
75.232559 201.339000 59.885624 15 1
146.634160 360.936520 125.576820 27 1
10.645773 376.751710 -27.293957 0 0
-2.548525 206.102420 -5.539186 0 0
168.344910 364.907070 75.598770 28 1
-87.057289 285.202390 111.216580 11 1
-19.378489 92.856285 -28.986441 0 0
133.373150 360.234920 -206.529650 25 1
13.417258 378.837590 -39.079849 0 0
-9.539966 347.187260 -6.281957 0 0
12.056852 256.244900 -11.365959 0 0
68.449028 221.790620 -13.699549 2 1
18.917324 138.580400 7.536071 0 0
-79.118706 310.307590 94.286232 11 1
197.502000 384.598540 52.545010 28 1
68.229492 367.197970 -240.075730 26 1
15.391295 301.642580 81.488724 0 0
-4.906039 170.215100 77.573318 18 1
24.127779 318.185330 86.710915 0 0
-67.557518 234.870820 -5.697873 0 0
111.700710 209.483930 -18.857494 2 1
-36.101219 251.011540 110.952840 10 1
16.749359 179.876050 65.331245 18 1
-75.059547 241.562330 -8.632289 22 1
-49.946686 272.717990 100.087370 10 1
-2.454869 204.220950 3.359672 0 0
16.578161 371.515590 -34.511597 0 0
110.641010 216.819090 91.307426 6 1
24.972090 242.239500 -7.113316 21 1
19.678097 166.978150 28.757376 0 0
0.368957 199.001790 47.827618 0 0
-4.575486 409.856020 0.460874 0 0
49.299580 210.112850 72.398949 0 0
110.822380 216.359480 75.603355 6 1
27.819546 246.258000 75.043488 0 0
169.594730 380.641690 92.297226 27 1
5.311557 87.407318 -0.743798 0 0
153.014110 551.737240 -50.357647 1 1
87.442017 107.343030 99.620781 17 1
94.616493 201.440770 -4.872322 2 1
-5.938523 208.913510 6.603816 0 0
-13.704248 186.482030 47.007607 18 1
-0.695173 51.634682 46.798870 0 0
73.172577 371.878510 -207.842000 0 0
25.278292 308.756260 77.740318 0 0
13.854492 314.615020 -150.054290 0 0
66.434570 216.469890 44.536022 16 1
11.350204 138.213700 35.905651 0 0
-22.478493 307.864780 44.570198 9 1
51.160004 96.988281 61.106419 0 0
-10.940726 286.850370 -62.001953 5 1
-12.687779 441.702030 -17.364607 0 0
18.733168 151.999300 40.186668 0 0
2.210156 215.974270 107.849330 13 1
4.363945 93.101471 3.428977 0 0
186.445630 341.486600 73.711525 28 1
202.543520 350.086460 55.104187 28 1
26.602791 197.580670 136.772480 13 1
-2.653818 48.889290 15.934706 0 0
1.935557 43.734840 1.157762 0 0
24.732903 245.834400 65.484909 0 0
3.525319 88.279160 25.161938 0 0
165.220030 364.200780 93.282066 27 1
-6.724081 73.628616 25.654724 0 0
8.302624 161.938870 46.987373 0 0
129.434110 118.897440 56.737629 8 1
10.189570 127.292340 45.067772 0 0
-42.183098 293.706360 79.513527 10 1
220.041950 366.320160 105.974150 23 1
17.910114 167.064300 0.218169 0 0
-10.930544 355.978450 -16.926262 0 0
214.899340 363.100190 115.624560 23 1
29.513210 245.745860 -91.324219 4 1
-6.970444 100.076720 -11.467203 0 0
6.790237 213.213010 56.128006 0 0
106.081950 366.615420 -182.836230 25 1
29.914061 177.429580 14.695244 0 0
-96.859863 266.727570 -12.294011 12 1
-2.646356 288.639190 16.868103 9 1
15.326349 274.722720 -61.706116 5 1
58.465309 214.496670 56.881966 15 1
111.927770 205.528380 48.572945 6 1
-57.374619 224.447480 -129.279400 0 0
-88.403961 255.415040 -0.317800 12 1
232.149990 337.260160 116.343960 23 1
17.205902 254.541820 -146.202410 0 0
10.991714 271.575990 -4.023269 0 0
75.530090 240.031780 -35.210201 2 1
121.148730 190.844180 -30.192535 2 1
123.529650 99.559319 104.182660 17 1
118.237320 202.009720 -14.969455 2 1
-2.065079 195.053790 -32.893536 0 0
23.107155 192.637420 44.372322 0 0
62.531963 118.510140 70.089935 14 1
15.832282 282.039310 71.153122 0 0
31.270161 275.305510 -140.318360 0 0
50.769032 219.122420 67.754776 0 0
64.855568 122.920310 87.631798 19 1
24.551022 185.478590 45.202141 0 0
13.040120 101.581160 15.726650 0 0
11.912707 193.743530 11.565625 0 0
109.574330 204.828460 -29.904379 2 1
138.288250 85.717712 105.948050 17 1
9.127762 178.898120 15.651900 0 0
15.482678 305.646210 99.904610 0 0
4.274923 217.446700 -117.273000 0 0
24.206524 195.039150 60.495316 18 1
33.117420 237.408190 -23.862108 21 1
-7.392998 167.038700 -75.816483 0 0
1.680408 174.707260 59.876167 18 1
60.422874 132.053330 126.321450 7 1
114.009800 101.375500 108.292660 17 1
-3.309319 151.296740 3.423503 0 0
29.308638 74.524994 43.856834 0 0
214.861340 365.434330 77.108398 23 1
-0.160949 152.009090 32.109135 0 0
122.403000 185.175170 -38.725376 2 1
26.298109 168.980700 28.784546 0 0
7.240719 14.067698 5.572647 0 0
61.061676 229.883000 -45.245293 2 1
210.657490 369.158690 32.469997 28 1
8.738015 126.935270 38.471020 0 0
-6.990068 253.669530 -12.715802 0 0
16.715967 96.491837 48.675652 0 0
-112.662220 279.635190 6.982153 12 1
161.479480 414.101930 114.152970 27 1
126.195670 352.034000 -187.868910 25 1
-5.148361 146.412540 21.088999 0 0
-15.835092 40.751205 18.940411 0 0
237.202960 316.519260 116.571850 23 1
4.560462 187.093280 14.473920 0 0
31.679173 260.484530 -69.908813 4 1
172.137770 537.503970 -82.197830 1 1
5.121602 210.208340 138.491780 13 1
106.942830 414.161830 -246.907210 24 1
119.222250 212.745880 44.698006 6 1
0.026019 91.418999 14.066112 0 0
194.355130 528.818480 -60.314072 1 1
20.038622 274.573460 -52.703487 5 1
193.033140 359.675780 51.901119 28 1
52.581093 170.120820 32.982567 0 0
195.278290 343.520260 56.302322 28 1
119.679950 187.407440 -44.921337 2 1
82.064804 186.376850 69.446182 15 1
25.834496 194.952880 109.177400 13 1
187.362180 363.015870 76.535934 28 1
19.193972 309.302460 -147.528930 0 0
-11.180551 104.529210 -32.600460 0 0
96.521065 104.817980 90.924461 8 1
101.557370 226.681030 -63.456902 2 1
62.600220 134.594150 119.651300 7 1
46.755173 370.324620 -236.167330 26 1
129.531590 204.908860 79.739014 6 1
114.369710 192.864350 -59.927612 2 1
0.670077 223.750820 -2.392288 0 0
76.857857 211.395200 43.072479 16 1
225.711030 348.511540 90.462257 23 1
-78.596718 281.449130 115.635600 11 1
16.907930 99.199715 -41.449665 0 0
30.563503 91.775902 -51.409004 0 0
-19.144077 268.120000 94.935059 10 1
-39.828827 137.337220 17.799950 0 0
-105.187680 268.729770 -8.594115 12 1
168.353970 371.121640 119.227690 23 1
1.678144 200.603180 -32.397785 0 0
155.173890 193.865340 82.468948 6 1
14.044019 235.750850 -124.741630 0 0
-4.307870 291.118040 -1.537203 0 0
29.773300 299.748170 80.035088 0 0
72.694580 111.782630 124.786060 7 1
-20.059448 167.916180 50.931595 18 1
2.630133 203.462330 -16.294916 0 0
232.580310 323.747800 120.058420 23 1
164.326640 380.876370 81.748260 27 1
