50.013111 610.198000 167.206270 38 1
-162.037000 877.036870 195.526980 13 1
-63.834385 730.628780 86.811066 0 0
-103.451700 278.326900 -24.033873 0 0
99.916916 823.027890 82.649345 30 1
46.449192 264.663970 -84.307419 57 1
-72.377518 719.953860 302.902860 42 1
-95.109970 535.746950 133.731670 60 1
31.501713 709.137450 142.126540 36 1
25.246737 278.539250 -22.465330 0 0
-8.213140 649.733890 182.383710 37 1
89.554832 392.590240 -152.277910 26 1
-202.833130 345.651150 -17.318157 1 1
-29.917116 286.355440 -48.548069 0 0
-52.483772 784.534060 101.915070 0 0
21.371387 777.653320 60.041065 48 1
-157.368300 803.982360 245.617770 8 1
-118.605930 142.660860 102.791340 34 1
17.215225 437.032620 -154.349140 21 1
-27.294006 625.258850 22.096710 0 0
36.894157 715.558040 300.188050 39 1
52.276985 718.589780 301.472080 39 1
40.169556 614.670350 34.004742 46 1
-33.874260 613.362550 112.139210 47 1
-20.205597 667.800540 45.714512 0 0
-66.014816 500.558350 171.937530 60 1
-76.409286 743.091490 53.057888 0 0
37.783085 623.542180 74.900909 46 1
-2.522468 820.235170 192.937410 43 1
9.163754 427.349580 -196.967130 21 1
-117.779950 748.238650 235.085170 42 1
-21.163332 415.287750 16.157152 0 0
-21.332985 612.173030 32.255848 0 0
-45.859459 773.303410 140.397140 44 1
32.617496 408.676940 -90.622849 51 1
-19.387196 669.106260 141.830380 37 1
-38.361889 107.498470 -34.992977 0 0
-38.647442 630.524840 208.409850 37 1
48.574394 744.074280 29.942535 0 0
75.118454 725.843020 126.569090 36 1
-4.628097 445.370970 -39.307739 0 0
-88.395523 760.988770 242.760530 42 1
-118.139770 509.426330 148.053410 60 1
33.566513 300.932190 -119.204030 54 1
-197.982680 336.540340 -5.413443 12 1
-13.341965 420.760800 -34.379215 0 0
-133.604140 747.036930 19.165340 6 1
-37.375507 779.046570 -64.394974 7 1
40.133339 248.810260 -186.649780 19 1
-5.329859 804.044740 93.382950 0 0
80.179092 826.401670 138.272570 5 1
-24.367613 126.338100 7.188488 0 0
-68.885979 797.395080 -71.832176 56 1
74.391884 659.207030 223.155640 33 1
12.288730 629.748600 156.031590 38 1
103.055440 139.251250 -48.688446 15 1
-120.544560 859.853270 116.590480 9 1
-44.840256 130.211490 -45.380558 0 0
-9.485700 167.526920 117.989400 45 1
-96.288139 508.839690 162.466720 60 1
-29.802351 401.290770 -116.586750 51 1
-26.816044 727.598630 160.133990 44 1
-21.474758 723.340520 100.074400 44 1
-67.042931 223.384540 -37.824436 0 0
-191.624770 808.346250 260.520810 8 1
78.044769 615.039610 127.093310 38 1
-52.998833 810.000730 162.269910 42 1
67.339668 819.112610 113.045170 5 1
62.744904 595.421510 181.465010 38 1
-152.664730 845.353640 161.892670 9 1
-19.972622 68.769051 -31.286829 0 0
-147.641360 849.073240 113.498610 10 1
52.464081 244.405910 -237.630950 18 1
-41.599281 619.394590 16.154081 0 0
16.997927 636.560360 131.438860 38 1
-87.725937 703.124510 214.698520 41 1
-156.178420 820.769290 229.895660 8 1
-18.481789 800.929870 181.695940 43 1
-5.325217 382.701110 -27.381392 0 0
-3.113632 70.026299 -28.317781 0 0
20.590557 500.270080 -29.454813 31 1
-68.259506 531.408870 139.770710 60 1
0.103393 442.673190 -156.111600 21 1
-57.000916 703.791080 110.600310 44 1
-56.853760 413.471650 -8.369148 0 0
-51.264111 430.294190 -7.479101 0 0
6.733193 408.276090 -33.525974 0 0
-2.943664 401.083530 -48.528046 0 0
27.849766 662.083680 178.481960 37 1
11.496325 488.875820 -98.207458 32 1
-57.926231 481.901430 152.323380 28 1
-28.856464 411.675840 -19.778162 0 0
12.560249 403.657260 -113.644040 51 1
-69.688370 798.122380 188.008380 9 1
-49.237724 758.732420 250.256770 42 1
-58.753517 748.696110 148.173680 44 1
-101.829260 722.226380 274.283750 42 1
23.638874 378.000920 205.267200 29 1
-93.643837 159.178540 138.768520 34 1
-29.679556 313.380190 -53.937790 0 0
-36.050247 660.416380 154.681500 37 1
-28.540834 293.657560 -19.531826 0 0
-20.838490 504.823610 205.600920 59 1
-47.630497 673.484740 42.444576 0 0
5.427907 312.989290 -89.183174 55 1
-62.682274 716.657900 118.567530 44 1
-124.688810 750.408140 -19.797665 6 1
-109.849070 138.630290 122.861380 34 1
9.693712 434.308040 -182.655090 21 1
-30.252775 371.485020 32.413704 0 0
-105.750900 746.225100 214.466960 42 1
-56.645500 771.706480 -29.791140 7 1
78.927330 188.216710 -23.895325 16 1
-45.447845 656.956180 36.321178 0 0
-19.485069 431.382050 233.994230 29 1
-16.418432 404.200650 31.865234 0 0
-49.817772 191.768220 113.269500 45 1
-40.947002 323.888060 -55.196350 0 0
7.112016 233.761310 -261.103330 18 1
-41.442795 279.522710 -37.946953 0 0
-30.082010 481.686130 -0.742184 0 0
-140.945160 856.742370 139.962370 9 1
65.872047 817.766360 177.832440 5 1
-10.926960 250.169420 -211.955200 20 1
-56.357014 771.310120 85.728020 0 0
-25.802647 481.896970 150.676570 28 1
-43.615196 556.470640 7.641176 0 0
4.867200 503.488310 -22.571579 0 0
72.899551 422.496950 157.279480 35 1
65.597588 188.064270 -50.811649 17 1
-23.424587 728.115540 268.263730 42 1
61.765965 723.798280 284.661220 39 1
-81.925117 729.627560 211.559010 41 1
6.938906 784.367800 -125.978860 7 1
-97.622475 753.844480 66.897667 0 0
-2.899535 114.293590 -14.862054 0 0
14.383637 265.769290 -103.583610 57 1
-29.420069 567.021970 17.765230 0 0
21.507387 250.843630 -204.112590 19 1
50.138321 749.045470 43.512791 48 1
-110.535680 762.364140 -26.168919 6 1
46.879372 757.669490 57.096516 48 1
-152.146070 843.246400 131.561740 10 1
21.907757 710.252930 67.726578 48 1
83.662682 433.731140 -98.410378 24 1
-159.352630 737.046390 23.778015 6 1
-73.943779 818.878910 169.715870 9 1
57.645523 770.310730 56.175999 48 1
-3.143357 736.835450 249.845020 39 1
24.969328 800.522770 61.694874 0 0
-0.949782 280.825560 -19.226191 0 0
-37.079391 751.393680 233.388920 42 1
-0.845968 424.606410 155.321690 28 1
-19.606300 243.518220 -31.923691 0 0
-70.290405 741.654300 -40.320164 0 0
6.952329 291.530610 -29.216463 0 0
2.095497 512.495540 169.992720 59 1
-5.491802 384.144500 243.054410 29 1
-111.636290 774.257690 240.868290 11 1
18.152891 645.279850 247.185840 33 1
-91.957291 715.588260 229.747070 41 1
-74.074486 183.422470 111.838530 45 1
7.813615 399.309570 213.923420 29 1
-10.864378 725.178960 274.087950 39 1
-5.453716 330.653870 -19.194946 0 0
56.998783 251.589970 -175.516970 19 1
-57.375500 495.407290 -21.723721 0 0
34.427517 777.693420 35.637665 0 0
-19.252584 180.296100 115.060230 45 1
13.684482 758.805420 76.490120 48 1
7.377538 661.142880 171.125560 37 1
-47.169842 144.509510 -36.219116 0 0
-72.405525 723.114260 50.740582 0 0
20.264286 254.175350 -30.728655 0 0
-46.783382 498.969450 158.884190 28 1
24.924519 653.841860 227.823300 33 1
-23.914165 745.911070 235.993420 42 1
45.503696 395.384370 -0.141096 49 1
-34.391743 608.354920 27.431992 0 0
34.556126 234.657650 -257.611020 18 1
8.154615 408.753300 -85.120995 51 1
76.373245 797.793090 94.746445 30 1
54.050598 707.709780 154.652240 36 1
18.535137 249.769610 -178.830080 0 0
10.639089 686.776730 15.826146 0 0
-1.713234 626.286800 47.520580 46 1
-8.437168 781.245910 -47.265522 7 1
-3.911248 399.171600 -105.903850 51 1
-6.818224 497.479490 217.925290 59 1
-39.125431 784.562190 202.338960 42 1
-44.750484 603.831300 39.648067 0 0
-216.101120 816.090210 251.709980 8 1
-16.283508 664.010310 166.561290 37 1
-2.413787 602.596920 63.709290 0 0
-32.381599 233.793820 -40.713123 0 0
-118.188930 806.120670 230.059830 11 1
-125.735430 822.420780 197.599120 9 1
-101.309310 847.713930 161.025790 9 1
-46.120701 227.676360 -207.601730 20 1
5.866170 684.372800 137.579850 36 1
25.486773 615.137700 29.237825 46 1
-42.534210 554.900090 32.097855 0 0
22.610170 428.378660 122.770310 35 1
78.680923 237.824110 -67.199905 27 1
-64.270096 736.742550 164.229290 41 1
-28.608694 343.843810 -15.980203 0 0
-98.987511 823.233090 205.696230 9 1
-12.779083 180.182980 -28.932673 0 0
-18.731617 567.908690 2.381757 0 0
9.780287 714.337830 40.497509 48 1
47.491875 195.764140 -55.725048 17 1
9.903444 286.468660 -50.156986 0 0
-90.552856 591.074040 131.430240 47 1
12.047541 330.683140 -90.128120 53 1
-56.911686 470.546020 138.311630 28 1
-20.061235 285.303160 -2.786748 0 0
-84.211403 243.400960 -40.432663 0 0
-32.833733 385.376710 50.656513 0 0
-4.324494 491.485900 -78.876961 32 1
-24.476204 695.800480 142.265750 44 1
-232.016140 852.357540 204.335890 13 1
-69.697800 804.467650 99.917137 0 0
43.423515 598.217040 190.782260 38 1
-30.619022 244.343960 -196.049330 20 1
-16.620512 474.890410 -6.263126 0 0
-5.414274 409.099910 211.337160 29 1
-72.023979 795.206300 119.332730 0 0
49.674946 660.400880 227.198040 33 1
58.105076 438.608180 -106.188120 24 1
9.881684 793.017580 -114.858470 7 1
-246.155490 811.338870 262.912990 8 1
-34.554512 511.381530 183.564000 59 1
10.780268 660.229920 225.362090 33 1
22.322144 422.169130 188.043560 35 1
-57.996468 770.704160 -80.873962 7 1
-24.247316 334.111880 -29.296234 0 0
29.247633 688.912900 142.246570 36 1
-43.298874 505.182040 209.586750 59 1
-118.817180 752.316650 -1.621052 6 1
54.819389 782.961430 48.861832 48 1
73.507042 812.059270 150.910900 5 1
7.898099 793.838260 -95.020683 7 1
34.888493 705.404790 119.481230 36 1
14.308553 774.641660 78.438385 48 1
67.494965 196.227860 -28.613552 16 1
-173.083070 360.685270 -28.947754 1 1
49.772579 433.915190 -129.163420 24 1
-116.803180 857.113830 198.358930 14 1
15.146261 614.178890 83.882111 46 1
39.597118 376.918300 38.927387 50 1
-6.888017 417.778110 167.090870 28 1
-4.855358 411.970920 -5.443189 0 0
-53.634560 665.297490 51.788292 0 0
85.100212 602.783020 144.040850 38 1
-126.874150 503.608760 167.142840 60 1
-19.022038 614.458190 71.686348 47 1
-63.479866 496.225220 150.810850 28 1
22.326693 387.192410 195.089570 29 1
-193.094210 856.480830 131.504290 10 1
-12.368112 779.881410 60.608322 0 0
-55.949974 409.361270 -62.708866 40 1
31.229382 399.376740 -12.147599 49 1
-29.035177 696.697880 124.525430 44 1
95.945984 818.824160 135.933290 5 1
54.291409 427.221220 138.261150 35 1
76.788704 402.227390 -129.185990 26 1
36.930977 227.775420 -244.776790 18 1
38.049488 168.754850 -90.227867 17 1
-64.968048 656.256230 165.395810 37 1
-103.100460 418.179410 -0.568496 40 1
-87.532104 791.192320 256.196040 11 1
-78.656776 726.502870 264.111110 42 1
-40.509563 342.970000 -29.599176 0 0
-40.385189 430.046840 -17.279806 0 0
32.741840 260.508030 -111.017020 57 1
-11.213659 350.212160 -71.296577 0 0
-1.081767 184.980360 -67.247673 0 0
58.643391 438.668180 -155.951160 4 1
-8.914272 752.702330 77.394661 48 1
44.132946 623.129460 45.531136 46 1
49.776264 494.890620 -38.721371 31 1
-65.273109 605.937320 67.828209 0 0
22.691305 761.250370 50.524063 48 1
2.293966 662.667050 13.820911 0 0
-71.980835 524.916560 162.179820 60 1
-93.426468 258.190310 -35.615986 0 0
93.612839 804.851810 99.902397 30 1
-24.354658 619.187010 134.111180 47 1
-46.779713 659.725520 -33.664013 0 0
36.450253 432.578460 157.467640 35 1
-1.422969 407.547550 142.187240 0 0
-34.907223 625.174870 -29.710876 0 0
-32.067516 402.502110 -59.830940 51 1
81.850952 154.951780 -51.223614 15 1
-89.980339 740.197570 61.549690 0 0
-10.967695 773.361270 178.615780 43 1
-71.282776 599.105350 90.099777 47 1
0.823115 764.359800 265.838780 39 1
62.415920 239.092930 -191.385390 19 1
-47.408943 477.302550 162.954450 28 1
119.333360 825.103030 88.854202 30 1
118.608650 835.219970 67.085159 30 1
-2.603666 413.008450 194.533020 29 1
-6.698386 434.918520 139.596530 28 1
-14.653080 140.827760 -36.220970 0 0
96.403282 148.973400 -40.125263 15 1
-1.695145 646.784790 12.851452 0 0
84.345695 444.531800 -149.490570 4 1
-58.218334 719.146420 304.052730 42 1
-89.017372 693.120850 240.696240 41 1
-45.152851 747.004700 176.038240 41 1
11.316590 218.592000 -114.415650 0 0
37.000702 249.008180 -240.517440 18 1
-125.085370 718.442140 273.750150 42 1
4.812480 490.783660 231.669770 59 1
99.497406 496.720730 -65.426163 22 1
-17.777605 518.788090 35.735306 0 0
-215.860210 811.093020 238.349230 8 1
-30.493736 219.019670 -36.659367 0 0
27.987024 269.394260 -65.316673 57 1
-66.807274 821.068660 213.214310 9 1
24.958794 627.691650 64.276817 46 1
-204.022550 342.610020 -44.589573 1 1
42.209518 828.546880 114.661190 5 1
-84.314362 603.763980 112.438890 47 1
-17.040281 122.760320 -7.954762 0 0
-18.848446 821.604860 167.494020 43 1
-105.743610 531.492310 149.118640 60 1
-153.322270 742.410950 0.056664 6 1
14.259698 733.128420 264.186460 39 1
-22.056379 258.027650 -202.369750 20 1
-135.359010 830.774720 190.240070 9 1
-37.721199 605.106870 71.524200 47 1
-51.763519 482.954010 -18.373528 0 0
-112.813340 455.706670 -98.499222 2 1
-63.721615 740.349790 118.092250 44 1
-20.721724 468.944400 131.760670 28 1
-47.838470 687.745540 43.472404 0 0
-66.910545 722.748470 171.700470 41 1
-23.614845 449.818660 172.595690 28 1
28.382090 503.043640 -51.715176 31 1
84.206467 820.656920 83.193359 30 1
-19.700108 489.094420 237.465500 59 1
-67.264511 601.684750 129.101090 47 1
53.464001 630.433110 256.051480 33 1
54.795021 811.407290 172.630340 5 1
-31.720406 706.136960 112.786830 44 1
-89.532196 762.843870 17.762720 6 1
6.334167 357.961980 -14.548618 0 0
-47.316990 604.333370 12.875077 0 0
-120.417490 789.303340 242.050050 11 1
-105.886550 498.113680 184.956280 60 1
103.982120 424.685820 -180.867540 4 1
84.839424 586.820620 164.773940 38 1
-56.093807 699.218870 256.900700 41 1
-48.007111 639.217530 188.861720 37 1
-20.350151 430.750490 14.527861 0 0
-14.466286 369.152560 261.382900 29 1
9.335444 644.482730 115.920430 0 0
24.486441 233.997770 -247.477940 18 1
-32.455276 409.829680 -84.720108 51 1
78.887657 824.064150 63.927361 30 1
-244.489200 833.620610 217.921920 13 1
-35.394684 309.458440 -14.900785 0 0
-60.370312 196.759380 -52.708717 0 0
14.227248 620.178650 9.119995 46 1
34.048134 332.490480 -79.690109 53 1
-62.945717 405.901760 -73.651871 0 0
15.100439 227.588910 -139.556500 0 0
18.936098 237.020690 -153.662660 0 0
-102.926480 755.487300 262.315460 42 1
41.396927 649.330260 245.025250 33 1
-35.257256 192.036770 104.913180 45 1
-227.569140 824.347840 269.779910 8 1
-140.809630 497.624180 152.126540 60 1
-41.334965 362.672060 8.429089 0 0
-47.693668 619.722410 137.124330 47 1
-47.295361 183.343930 125.667070 45 1
-42.315235 708.727360 156.893400 44 1
-79.918091 802.199160 206.005980 9 1
-118.546850 507.262970 210.096560 58 1
-18.502499 125.872330 -38.540119 0 0
-131.458860 817.335390 106.946030 0 0
-21.212191 739.146970 57.852398 0 0
-51.368629 707.460270 -31.826948 0 0
60.788498 203.556090 -19.515074 16 1
-14.963156 537.930360 45.295132 0 0
-4.186890 255.983470 -34.553280 0 0
-18.385336 114.374390 -54.649727 0 0
7.732113 235.722270 -162.694660 0 0
72.719170 203.134780 -4.824138 16 1
-11.291426 508.718440 196.278700 59 1
-141.661250 828.646670 219.123350 14 1
-85.467415 779.958560 -61.146080 56 1
-201.386140 332.860050 -55.997814 1 1
56.232155 808.933900 200.385830 5 1
-130.842290 120.371040 111.723210 34 1
21.132000 680.532410 152.242420 36 1
-165.353560 353.571990 -12.435329 1 1
-28.773710 540.251100 43.159939 0 0
-16.721386 610.968570 9.054803 0 0
120.669600 488.026730 -74.793770 22 1
-23.875217 197.927630 82.175484 45 1
50.816662 639.292720 103.284360 38 1
-13.037090 412.976040 -69.152832 51 1
58.690960 243.161130 -208.229630 19 1
-28.746447 714.705990 92.771439 44 1
-46.167900 507.818150 191.421260 59 1
-52.829517 748.255490 78.419586 0 0
-12.156326 634.578610 124.486950 47 1
92.088402 138.690280 -61.372662 15 1
12.120333 789.760560 -73.209984 7 1
1.848522 721.406430 297.072200 39 1
21.653715 722.379880 163.674410 36 1
-43.273491 709.234010 306.570710 42 1
17.485275 506.742160 188.849580 59 1
-0.623178 794.300840 84.336388 48 1
28.493357 652.549260 241.991620 33 1
-167.418960 810.359990 256.557770 8 1
92.029366 725.023440 109.700040 36 1
-11.418611 556.935610 3.548821 0 0
-94.585197 705.733890 240.658020 41 1
-15.408764 432.016080 -201.034270 21 1
-36.155724 742.204830 87.573822 0 0
95.464493 838.294370 55.073513 30 1
2.458479 401.012300 -3.916362 0 0
-16.172655 736.436220 247.750460 42 1
-184.904740 339.208560 -63.352600 1 1
-4.659777 128.258620 -6.075232 0 0
-80.514503 510.668670 233.069260 58 1
-176.519900 827.833010 248.090960 8 1
-51.456554 345.390380 -62.032860 0 0
-87.362694 767.677980 4.149675 6 1
52.344185 830.544860 105.963780 5 1
-50.644238 367.481630 -50.888897 0 0
-78.425308 600.164980 149.178740 47 1
-80.396103 806.199830 -89.823547 56 1
-104.997420 777.841370 75.868446 0 0
-112.588710 511.067050 171.633060 60 1
33.574455 267.153080 -88.896988 57 1
-138.554500 735.103940 260.530210 42 1
-69.940445 813.859990 -110.987200 56 1
-40.985947 669.719240 -25.944595 0 0
-78.209999 512.682190 161.049870 60 1
-48.466629 306.217960 -17.036692 0 0
-76.252396 719.713070 120.325310 44 1
68.403633 791.047060 197.168410 5 1
-159.166580 341.901210 24.983540 12 1
-32.230671 386.683840 -16.888714 0 0
-224.914050 849.337710 220.109210 13 1
50.895924 805.676880 186.253390 5 1
-33.570393 361.158690 -21.608953 0 0
45.806702 507.305450 -58.416645 22 1
-48.570091 460.435060 114.759370 0 0
58.883522 440.091060 -179.358230 4 1
-1.305703 344.252010 -25.377600 0 0
-2.026330 408.528780 -60.402866 51 1
74.216232 246.546980 -45.142143 27 1
-133.301060 143.964020 102.082070 34 1
-25.354046 660.309630 75.010086 0 0
-50.533478 769.578250 -64.543137 7 1
-8.785004 291.120910 -35.144577 0 0
-5.738938 800.966250 211.565480 43 1
9.902472 398.061740 198.653030 29 1
-122.555500 764.200990 -37.075909 6 1
11.454657 228.673080 -84.883209 0 0
74.664398 380.817900 -171.033170 26 1
-56.950371 719.724180 248.102830 41 1
-160.303150 852.236270 147.425780 10 1
-3.021590 426.932220 185.018400 29 1
64.944099 701.649840 150.745610 36 1
25.452517 760.797970 272.200900 39 1
-1.581323 787.609250 212.712080 43 1
-77.144753 708.096980 261.302190 41 1
-111.795790 809.797970 204.499940 11 1
-40.967640 758.465450 107.303440 44 1
19.628325 435.605930 -174.081860 21 1
8.483152 409.223050 28.851240 50 1
-46.656208 619.371770 34.373695 0 0
60.030945 824.687560 49.851162 30 1
-44.762157 748.574950 151.526350 44 1
-61.491688 718.305850 90.387527 0 0
94.068993 118.987370 -59.656147 15 1
-6.693507 250.464580 -58.039032 0 0
-85.065468 751.185000 218.137240 42 1
34.165752 776.687990 67.993309 48 1
75.716591 395.540530 178.729550 35 1
-152.955690 814.641540 209.883560 14 1
-41.985664 725.500120 83.053268 0 0
-28.848253 251.815490 -24.643854 0 0
36.259666 825.091370 170.078690 5 1
-114.428540 732.628360 255.998470 42 1
-83.217133 506.161100 182.839580 60 1
-179.274980 868.766420 176.924850 13 1
-85.677139 749.043950 205.091460 42 1
-180.573390 854.588680 135.950160 10 1
-196.460330 867.941100 183.291430 13 1
-12.903092 624.934630 53.978924 0 0
72.632034 166.528870 -52.716370 15 1
83.969070 797.758480 182.214250 5 1
-38.857628 672.580260 60.425785 0 0
-236.431850 312.578980 -6.659832 23 1
17.906645 496.138000 -17.393177 0 0
-12.439472 365.604060 -16.692169 0 0
-125.640150 841.966920 174.468700 9 1
-28.165340 447.214020 149.578720 28 1
104.930900 125.244530 -50.932289 15 1
-233.797640 805.782100 268.835690 8 1
-14.150528 235.230010 -23.557579 0 0
-52.663555 678.923520 113.380230 44 1
-10.101894 25.848845 -39.772957 0 0
-157.634780 807.992190 -131.836880 56 1
4.105161 502.446230 204.448140 59 1
-51.269260 732.287720 282.192570 42 1
39.214817 731.364260 61.020515 48 1
-18.077003 614.607180 108.307330 47 1
7.785487 267.414700 -92.595398 57 1
26.809328 800.086360 97.042564 0 0
14.583686 617.904540 61.257061 46 1
-70.556732 726.577510 97.063324 0 0
-223.687640 332.075530 -16.133249 23 1
-93.792770 828.340880 184.103240 9 1
-101.714480 864.796450 127.298230 9 1
-23.787365 679.273930 37.472275 0 0
39.897388 637.408690 121.136750 38 1
-47.719875 787.697570 149.103730 42 1
-13.416190 436.344450 -185.641480 21 1
-70.956345 767.968930 243.354710 42 1
32.482807 499.438660 -17.889477 31 1
-60.200069 743.281920 87.754425 0 0
-37.774323 298.389770 -50.604202 0 0
-31.336159 748.330510 250.916310 42 1
4.160745 422.299800 172.665940 35 1
36.894733 635.612490 261.058720 33 1
150.745350 813.257510 101.291070 30 1
-24.233150 716.132450 116.549270 44 1
-88.076843 857.598940 140.357030 9 1
-6.591317 409.694310 230.532350 29 1
-40.106567 734.183650 251.863780 42 1
22.687393 633.947200 108.906690 0 0
-122.594730 741.814760 224.868150 42 1
36.862595 611.696040 175.009230 38 1
18.049458 629.736330 75.072975 46 1
35.409111 168.478910 -31.712938 0 0
-61.837669 414.248140 -84.697113 51 1
32.702900 628.389650 85.630486 46 1
-170.781860 864.604250 215.709110 14 1
8.075446 665.679690 139.739810 36 1
-15.428667 608.252690 21.510952 0 0
54.740120 686.416380 165.165390 36 1
20.319574 713.350710 121.525990 36 1
-9.843725 824.172180 177.503890 43 1
44.477379 423.298890 170.628880 35 1
63.686131 175.302370 -67.089218 17 1
8.965675 274.297880 -65.167961 0 0
10.661236 652.584590 156.335220 37 1
-114.786650 126.442190 143.148180 34 1
-60.577179 334.849700 -22.506594 0 0
83.319588 232.064250 -32.776711 27 1
23.299507 494.191190 212.186650 59 1
-37.598690 415.137180 13.533689 0 0
8.390810 631.041990 90.244034 46 1
-23.440437 652.567630 165.017030 37 1
-166.225660 347.733640 10.404580 12 1
-158.303270 328.990840 44.998672 12 1
-7.410382 665.679080 144.649340 37 1
-102.043520 739.852720 204.041170 41 1
-53.829903 617.706240 99.859344 47 1
-76.790344 842.385190 184.182210 9 1
32.491978 711.773190 40.631420 48 1
-99.643311 717.636470 254.857880 41 1
-144.965640 840.157040 213.549510 14 1
-245.207920 299.944580 9.872524 23 1
-175.361100 345.398350 -9.617271 1 1
-31.541595 499.491520 210.005250 59 1
-65.752106 828.854060 173.480580 9 1
-139.030260 820.532650 -116.930010 56 1
-44.809601 780.162720 -103.078610 7 1
-8.442766 581.185180 68.033134 0 0
-7.248255 443.145900 -166.491240 21 1
-187.800480 810.179320 229.910200 8 1
-126.574030 755.099430 38.595234 6 1
-23.822269 85.994217 -28.998892 0 0
-92.031448 517.759520 153.262450 60 1
-11.872624 50.366508 -40.729588 0 0
-92.624733 509.534330 228.326490 58 1
56.131004 819.742070 64.729523 30 1
-85.601326 814.848880 212.706220 9 1
-43.027359 766.374820 217.754270 42 1
48.731266 825.855650 129.038770 5 1
-160.622700 851.619690 126.269070 10 1
-106.106160 800.541080 -68.185890 56 1
9.554042 297.179020 -16.059008 0 0
-216.606230 869.418150 177.308870 13 1
47.814327 432.781620 118.985050 35 1
-55.201908 175.971820 -41.760429 0 0
32.576405 424.800450 143.928440 35 1
-246.758710 827.589170 242.411150 13 1
77.811485 191.459880 -2.987149 16 1
-216.841030 325.420680 -3.989849 23 1
-42.053314 774.194400 -44.205330 7 1
-30.987690 546.169310 -13.271784 0 0
43.736225 700.503720 156.495590 36 1
-57.347469 612.298770 123.590420 47 1
2.725652 304.867980 -39.630180 0 0
-126.104970 794.945620 101.130120 0 0
-69.814667 715.771790 287.696320 42 1
-163.382160 315.251040 53.294773 12 1
-62.854565 726.671630 266.844970 42 1
-12.377008 3.353834 -25.196306 0 0
-21.070101 325.315640 -7.820491 0 0
-14.242792 429.190310 214.395070 29 1
-41.038841 416.130070 81.136238 0 0
113.858570 404.413790 -140.244540 3 1
-43.250984 663.817440 164.808000 37 1
-38.978954 761.952510 184.792270 42 1
-74.368202 691.148380 257.951810 41 1
-3.440142 771.744200 148.745470 43 1
-121.683530 832.275510 206.260800 14 1
-14.779268 629.452580 101.591790 47 1
67.499695 255.491090 -33.982399 27 1
-30.137569 624.339110 119.530750 47 1
-82.461220 815.340640 -113.931720 56 1
-100.780110 469.030580 -129.301930 2 1
-40.572159 604.522460 55.546574 47 1
10.170527 416.282900 -43.315376 0 0
-219.796480 798.490480 258.862240 8 1
-38.014526 464.410830 -12.896483 0 0
-209.089800 856.337400 140.939270 10 1
-39.039230 120.366570 -32.582649 0 0
-119.442010 528.562130 135.164900 60 1
-103.669080 807.493040 178.477010 9 1
-56.505356 324.534790 -16.216965 0 0
1.216650 823.821530 206.248290 43 1
-14.449877 410.617070 245.610490 29 1
-137.374770 864.391660 201.085910 14 1
50.587326 732.315670 121.544690 36 1
-140.905470 817.051150 -132.146210 56 1
95.256058 490.619260 -81.338776 22 1
-9.965618 446.302520 135.357960 28 1
-32.504440 717.370970 152.851670 44 1
-26.409681 732.946840 256.722410 42 1
-52.787971 648.308110 177.333710 37 1
-25.800406 391.618380 -40.928207 0 0
-16.821793 701.610350 112.697270 44 1
-66.767509 506.349180 183.210540 60 1
-39.596100 648.067080 -33.140499 0 0
-11.379034 109.614570 -25.469187 0 0
48.006786 796.396550 50.225082 0 0
83.798683 148.587810 -61.877327 15 1
-43.858646 640.872620 202.201930 37 1
-66.904541 760.448240 219.343080 42 1
-63.708672 731.553530 280.629820 42 1
37.680988 622.717900 153.288450 38 1
16.009466 250.952150 -191.940480 0 0
51.966789 721.032840 139.258650 36 1
-69.430794 606.610660 140.445400 47 1
-103.653560 820.763610 -123.809540 56 1
-30.927839 780.950620 -87.780693 7 1
-60.892426 801.472470 108.344060 0 0
-13.909730 183.853730 101.608710 45 1
-154.851550 801.542970 -144.522370 56 1
-27.994556 400.993130 -26.281866 0 0
30.790771 246.689830 -226.231200 18 1
63.117718 611.431950 40.994514 46 1
-83.815834 720.785770 279.409610 42 1
-46.184994 192.205410 -31.215769 0 0
-20.582893 215.834080 -29.449871 0 0
38.423054 434.317050 -157.609530 21 1
20.174627 757.499020 32.536716 0 0
26.101486 316.884950 -103.180850 54 1
-62.690693 833.450870 192.656400 9 1
-190.943710 347.894900 -25.249046 1 1
-50.830231 707.279910 89.547173 44 1
-45.988926 421.717380 -95.459351 51 1
30.423370 320.564330 -62.690552 0 0
36.687149 728.481320 276.675810 39 1
62.818462 506.498930 -78.296257 22 1
30.441534 430.300960 -180.623400 21 1
-41.366226 466.948580 170.556320 28 1
-119.841320 787.640010 91.790810 0 0
-222.877930 314.258540 23.013508 23 1
-184.539980 306.863280 33.303585 12 1
5.852309 203.628680 -100.364950 0 0
-31.946121 236.004070 -205.316540 20 1
-124.199940 121.839520 136.054600 34 1
-85.734695 445.096620 -132.911040 2 1
-19.376799 436.624420 -20.894325 0 0
26.131788 699.515200 148.076190 36 1
-7.140718 661.655150 202.469060 33 1
36.585609 608.602420 187.638150 38 1
-40.304325 495.313540 146.574110 28 1
-78.888321 815.536500 183.066730 9 1
-102.219570 824.053590 192.260410 9 1
-26.398582 737.546750 172.903060 44 1
28.425131 502.082860 -39.006905 31 1
8.091330 501.100520 -58.042297 32 1
-23.294846 806.144170 158.524520 43 1
-5.181310 359.623230 80.439293 0 0
4.668963 561.212220 -0.567165 0 0
-33.317593 515.902710 -10.042885 0 0
-23.330160 468.957090 -33.732903 0 0
-91.018280 724.629390 268.550720 42 1
-9.320430 380.396030 -12.849346 0 0
-74.182343 703.882810 198.628250 41 1
-132.531080 865.511470 126.688700 9 1
-15.617236 713.537840 292.341830 39 1
-134.576170 830.061220 116.822570 0 0
-14.843843 404.833310 18.587921 0 0
9.994984 421.482820 135.703740 35 1
-60.965580 639.044680 187.982730 37 1
-37.735371 679.913880 125.206600 44 1
-97.517906 766.743530 34.585625 6 1
-28.825600 714.989930 137.584610 44 1
-15.638514 194.932680 -19.846321 0 0
-129.617320 747.130680 248.969970 42 1
-36.609264 777.963560 165.200840 42 1
77.700172 495.626340 -79.019112 22 1
-146.417390 813.828860 -94.400597 56 1
-135.731370 847.289860 133.817760 9 1
76.364433 437.097690 -162.236720 4 1
131.321900 824.551760 92.167175 30 1
-25.989851 227.100480 -18.334812 0 0
-47.163593 761.281190 82.583504 0 0
-8.462200 321.749110 -11.093122 0 0
10.357197 650.377690 142.221300 0 0
16.777063 511.586210 -32.810856 31 1
-61.346340 683.071350 52.516197 0 0
-8.036814 739.749080 281.571200 39 1
-163.610210 870.830260 177.511060 13 1
7.193274 488.421970 -82.290649 32 1
-34.071964 583.198850 11.288450 0 0
-105.918480 773.457820 254.004870 11 1
49.664825 815.681520 82.004257 30 1
-24.048803 454.513240 -15.670357 0 0
-125.093480 812.642700 -68.471786 56 1
49.094433 723.766970 290.224820 39 1
88.724617 816.413090 156.209690 5 1
-151.063200 822.017150 241.260960 8 1
-85.563171 728.668760 223.549790 41 1
-145.418670 738.899600 33.863319 6 1
-114.536870 761.420230 19.360851 6 1
-24.244387 764.077270 145.688830 44 1
-9.275410 322.286380 -79.563103 52 1
-87.541969 437.261780 -81.678062 2 1
-11.020912 444.152920 161.009370 28 1
137.591540 382.952270 -156.724840 3 1
-84.832878 507.493680 206.870290 58 1
-13.094678 254.212680 10.302642 0 0
53.376324 731.426090 267.186460 39 1
-194.603670 873.929080 163.898100 13 1
-58.404457 599.337220 79.184593 47 1
-61.916798 769.595210 -47.491287 7 1
63.198650 824.136110 127.364210 5 1
-61.835175 811.898860 206.611660 9 1
-31.241379 612.310790 96.548782 47 1
-103.012080 800.335820 239.949310 11 1
-78.430321 731.656620 145.846250 44 1
24.856182 622.970950 176.387470 38 1
-5.009282 411.266690 -30.593023 0 0
39.968773 818.927000 59.814117 30 1
-40.563694 473.822850 -0.094129 0 0
-30.057945 555.826350 22.867990 0 0
45.028183 718.121580 110.484950 36 1
149.813600 360.175930 -147.686520 3 1
55.162605 353.954250 -80.971512 0 0
-215.663360 821.829470 262.898070 8 1
111.127610 498.020050 -60.525768 22 1
-20.739811 769.025150 196.596420 43 1
-29.686186 659.044310 41.598221 0 0
37.229286 688.493710 56.015930 48 1
-66.270142 498.389830 195.428160 59 1
5.120007 431.790770 141.555770 28 1
13.319942 309.058410 -123.208850 54 1
-34.292469 416.655210 -74.008369 51 1
77.616646 221.203460 -48.698956 27 1
-45.064041 697.220640 102.430410 44 1
-33.446423 600.248410 17.352196 0 0
-33.818108 484.372380 168.783710 28 1
-232.866760 812.894100 257.461640 8 1
-33.068428 613.007390 124.681910 47 1
-16.332132 346.697110 -31.285069 0 0
20.069138 641.878420 259.523250 33 1
-38.371216 405.683560 59.470474 0 0
-100.168340 357.152980 3.312616 40 1
65.128120 843.837160 39.868336 30 1
-136.310460 506.876160 137.226900 60 1
-85.496140 494.914550 177.500080 60 1
-158.366780 866.082580 200.035630 13 1
-29.418972 689.950990 45.330513 0 0
-59.479565 710.091740 217.953020 41 1
-5.807185 480.809140 -18.239132 0 0
74.925385 234.381650 -185.347850 19 1
42.264290 704.011110 129.131880 36 1
108.020260 395.320310 -81.471107 25 1
-53.744072 489.648410 140.514950 28 1
66.418976 620.416140 129.587010 38 1
25.372652 227.683940 -265.122860 18 1
-98.284637 527.455260 158.490920 60 1
-2.447054 740.826970 86.910126 48 1
-57.918106 381.845090 -67.979668 0 0
43.934750 738.317630 43.758717 48 1
13.545056 754.730220 274.923980 39 1
-44.372871 731.579160 232.577240 41 1
-199.765470 800.097900 256.692660 8 1
-37.665932 78.971764 -31.153032 0 0
-19.282558 438.008610 170.900120 28 1
73.030212 594.777400 167.941060 38 1
-2.152836 294.382970 -3.488162 0 0
-49.577011 782.334290 -85.994835 7 1
-143.100170 747.324100 -4.439689 6 1
-26.116978 493.869660 -20.006388 0 0
-199.953080 331.160490 14.076931 12 1
-75.554779 237.559450 -33.242474 0 0
-46.722836 503.083770 221.505950 59 1
23.303524 623.624880 163.882710 38 1
-16.876034 782.158750 -70.644585 7 1
-56.651600 709.975770 137.312940 44 1
-75.751175 771.577700 2.911360 6 1
-5.497099 560.164610 46.572269 0 0
-47.401291 408.517460 -125.665720 51 1
34.072861 259.224980 -182.834760 19 1
-31.634325 547.461730 10.349543 0 0
-23.490528 447.523800 -3.748635 0 0
-7.008660 677.891600 59.289070 0 0
-180.535370 324.421720 37.794067 12 1
-30.442474 408.702330 -106.964530 51 1
-60.711697 710.653140 255.272950 41 1
-121.320160 134.833360 125.963550 34 1
7.155454 651.259830 246.570720 33 1
-1.603471 359.904110 -23.546509 0 0
-39.555805 722.646120 274.180020 42 1
-17.038601 808.319030 77.887314 0 0
13.477371 770.361210 65.704346 48 1
-112.346530 425.283840 -38.863213 40 1
22.335222 503.890960 -71.656410 32 1
-103.930440 758.167240 -35.441788 6 1
-154.209410 824.401000 217.396710 14 1
18.113810 275.082310 -32.662056 0 0
-3.043551 366.425380 257.846040 29 1
20.629223 716.331240 108.161110 36 1
-40.868725 250.752010 -196.969100 20 1
-19.089010 12.933718 -41.981407 0 0
-70.938812 170.278870 73.293755 0 0
-41.395626 729.477660 167.897690 44 1
-48.449081 721.843140 293.293370 42 1
-243.489400 840.331730 206.449100 13 1
67.275192 432.152800 134.098340 35 1
-83.898132 528.094300 142.188170 60 1
30.385798 672.306520 184.840550 33 1
21.869503 634.709290 142.597850 38 1
-42.686256 616.320370 147.612920 47 1
-7.279994 617.789060 116.638760 47 1
-9.454862 625.611330 78.959320 47 1
-99.137772 135.593080 145.080760 34 1
-98.743271 749.560670 223.753560 42 1
10.350668 706.589540 65.047417 48 1
-31.035694 460.837280 175.556640 28 1
34.868462 437.574220 -143.650420 24 1
-14.463035 386.382630 254.530560 29 1
-36.692799 203.117900 -38.373775 0 0
-121.064930 740.396610 243.709840 42 1
-22.849831 682.195560 63.498734 0 0
-5.668762 366.567320 -88.065773 0 0
-178.452930 793.297180 263.228060 8 1
61.313084 709.487370 125.094210 36 1
-31.826906 351.797180 10.010701 0 0
59.431675 437.289580 -199.064760 4 1
-114.077370 103.990430 146.407410 34 1
2.631999 629.046330 122.989120 47 1
-48.120678 416.956700 -25.803829 40 1
114.071770 397.390320 -151.183200 3 1
-31.111671 466.616850 138.270770 28 1
2.750207 443.625240 141.213670 28 1
91.655243 159.096130 -45.573891 15 1
144.226360 826.472230 83.667305 30 1
16.735744 783.953550 -135.739490 7 1
-17.694500 795.225520 170.901200 43 1
-213.652330 338.488860 -38.640404 1 1
-168.259690 839.511600 213.217900 14 1
85.220917 577.607970 175.281890 38 1
-122.792350 761.221010 -24.730886 6 1
49.321964 739.115970 278.219850 39 1
-37.205631 742.867920 266.192440 42 1
61.523602 392.096190 -160.504070 26 1
57.193863 826.799620 149.460450 5 1
-74.546440 739.146060 185.239290 41 1
-97.267502 526.420350 141.792480 60 1
-130.464390 748.061890 5.113738 6 1
22.365602 622.929990 88.418144 46 1
50.710068 801.966130 61.393517 0 0
21.402870 807.749020 77.477036 0 0
-57.083496 747.755980 264.069850 42 1
38.463654 238.080580 -192.762890 19 1
-56.888706 766.452580 230.873030 42 1
2.516023 375.738590 246.080700 29 1
10.632251 410.651060 192.835660 29 1
-36.435375 757.578800 207.914720 42 1
8.020925 450.636600 128.115570 28 1
-91.505852 584.996030 154.612240 47 1
1.097037 733.053770 260.559780 39 1
-7.307096 314.006130 5.851933 0 0
-199.785960 822.941470 233.297620 8 1
-184.971210 347.758790 -44.701870 1 1
-32.625053 696.417540 70.746994 0 0
68.661453 806.955630 91.876564 30 1
-47.908146 632.160160 35.357609 0 0
-118.160130 494.231900 164.931170 60 1
-113.452430 861.352660 126.569690 9 1
-7.263309 780.380680 205.045030 43 1
-150.875890 820.911620 -115.256150 56 1
156.609020 372.015440 -154.487270 3 1
-106.907590 732.977970 275.627620 42 1
-13.767593 138.148760 -61.161312 0 0
19.286203 662.806150 189.933500 33 1
82.743576 407.061770 160.785220 35 1
-12.868838 795.364870 105.951710 0 0
13.655601 721.550420 298.932860 39 1
-148.300220 864.297490 206.227540 14 1
-106.183970 350.620450 18.832602 40 1
-240.012990 795.721560 267.113950 8 1
-18.929544 415.701080 235.769120 29 1
-68.880074 690.578800 225.498000 41 1
-80.574310 678.909000 238.708800 41 1
24.418329 755.368900 72.478485 48 1
-60.358990 753.471560 184.584120 41 1
-66.631104 681.272640 245.475250 41 1
66.901962 720.787410 136.599150 36 1
-139.537570 809.098210 -150.025190 56 1
55.581978 430.270480 -142.585390 24 1
-69.774712 855.953370 150.778030 9 1
-22.338930 105.989920 -31.671284 0 0
-56.119576 701.877440 98.778183 44 1
-18.494072 778.178470 159.706860 43 1
48.281868 256.375400 -51.872807 27 1
8.939042 485.682100 -52.013111 0 0
97.487053 434.367100 -167.313550 4 1
75.847954 234.937730 -52.087196 27 1
-155.751890 857.604680 117.014340 10 1
88.124962 721.517760 124.103460 36 1
64.690430 508.779790 -62.481087 22 1
-79.944771 710.781620 302.169100 42 1
38.746197 765.091980 62.357906 48 1
-2.612065 243.302430 -206.899830 20 1
-40.838245 771.008300 128.450760 44 1
51.497936 816.141780 161.723050 5 1
-97.099594 446.121030 -109.660260 2 1
102.544520 823.003420 70.633949 30 1
-7.329560 368.781460 -29.021173 0 0
-145.916020 880.650210 195.388750 14 1
-156.601350 869.438230 187.456650 13 1
2.157897 724.128360 49.846390 48 1
-31.383278 643.945310 35.417187 0 0
-21.954847 778.543150 -49.404015 7 1
17.628016 792.475460 67.896721 0 0
-4.578681 711.415220 297.220610 39 1
2.950305 787.114070 137.060840 0 0
-1.847926 653.520080 159.426670 37 1
16.138943 687.798220 56.800900 48 1
-219.382520 865.213990 188.863820 13 1
32.651279 612.909610 11.798071 46 1
77.701057 799.156190 198.283170 5 1
93.448166 395.334870 -103.264160 25 1
-13.954955 404.362880 -97.529716 51 1
-9.782939 500.388240 -1.865705 0 0
109.178510 819.633000 97.150146 30 1
-77.457893 731.992610 279.578120 42 1
-203.506000 807.979060 237.015820 8 1
22.200846 737.830570 18.068954 0 0
-167.282850 873.918760 151.288500 13 1
-18.787418 298.702510 -28.170172 0 0
22.120274 245.580860 -248.071290 18 1
-68.153374 412.536650 -63.631710 40 1
-48.977779 315.127410 -42.455090 0 0
-12.076951 795.077700 -120.768540 7 1
47.879505 823.996950 173.020220 5 1
77.505623 433.981840 -183.314390 4 1
59.237530 736.710570 114.718330 36 1
4.839381 385.162380 -97.805275 0 0
-61.284431 519.144100 162.115200 60 1
-38.517979 312.521210 -26.527822 0 0
89.472679 831.473750 64.033188 30 1
52.226479 245.276310 -198.571900 19 1
-62.552059 845.611330 170.589360 9 1
-28.969831 264.451900 -36.884491 0 0
-169.090450 803.281250 244.391270 8 1
-8.160097 324.587400 -30.608454 0 0
-30.228580 175.993260 115.642740 45 1
-13.139409 617.173160 130.721420 47 1
-115.459190 739.556520 215.185100 42 1
-145.370420 816.840090 219.380260 11 1
-61.273006 613.683780 145.203310 47 1
-94.049156 463.284330 -137.918910 2 1
38.954048 439.049930 -119.201730 24 1
-54.940594 496.758850 173.342580 28 1
-26.237684 493.825810 228.444320 59 1
-33.348412 759.074280 166.981720 41 1
-84.513535 529.107540 157.911760 60 1
82.843369 809.105410 97.730103 30 1
58.725544 628.483460 65.073677 46 1
58.587624 627.157710 121.808760 38 1
-59.306969 464.828860 -0.328562 0 0
2.533160 323.848720 -92.697571 54 1
-37.781628 164.091980 -40.954758 0 0
-93.577438 425.030090 -6.769077 40 1
-25.952955 667.366640 157.650050 37 1
-19.758322 739.449710 117.247270 44 1
-81.927605 498.710300 192.222340 60 1
29.002453 397.325440 27.162975 50 1
-63.214359 816.131160 192.875260 9 1
18.748363 736.877750 45.837700 48 1
16.573341 705.132570 141.347310 36 1
11.649287 746.289430 28.687006 0 0
1.549021 272.361150 -43.758362 0 0
59.015835 170.766750 -82.211845 17 1
37.230900 797.635620 67.743370 0 0
85.854866 821.054570 129.484280 5 1
-147.933550 322.581150 -13.980724 0 0
-101.558730 454.167850 -127.403940 2 1
37.288906 332.973450 -91.231987 53 1
-35.504208 778.785340 143.274060 43 1
53.978565 730.227660 42.276058 48 1
10.527370 701.508850 40.725285 48 1
2.894765 730.225520 93.995186 48 1
83.365036 191.686580 -13.601748 16 1
-4.363323 483.027500 230.224700 59 1
-86.310112 805.904600 136.784380 0 0
-56.468479 410.797790 3.346774 0 0
-8.036758 492.473300 243.461400 59 1
55.555828 489.705290 -9.658642 31 1
-42.920261 758.331670 173.988860 41 1
-68.759407 767.603210 -77.406570 7 1
-77.040298 706.482420 187.031690 41 1
52.607510 623.485350 144.809460 38 1
-18.597260 798.197750 72.184799 0 0
-101.222580 738.060000 235.615070 42 1
4.992530 392.538480 226.906680 29 1
-181.348190 867.132810 163.871660 13 1
-13.161479 473.057370 123.548960 28 1
30.040997 423.645290 132.420440 35 1
33.718895 623.120540 25.645605 46 1
19.689371 330.232850 -99.102081 53 1
-31.107584 622.712400 74.356216 47 1
-20.261581 33.763622 -32.515186 0 0
3.202419 624.369630 31.840322 0 0
45.550255 745.101870 67.509872 48 1
-19.188969 423.211880 163.762800 28 1
-25.280153 314.786070 -43.045502 0 0
92.236183 399.574860 -136.786960 26 1
24.544077 752.597960 281.086090 39 1
74.101418 605.439640 150.656720 38 1
71.015884 808.476750 78.571198 30 1
-139.956820 747.300720 -15.783968 6 1
-100.341680 762.234250 -49.677616 6 1
-56.505795 786.358030 -101.744040 7 1
-27.797913 673.174500 55.413139 0 0
58.400497 261.974550 -37.823486 27 1
-17.245712 421.373290 -20.024452 0 0
62.181683 437.067540 -166.962970 4 1
-5.941501 670.018310 10.017906 0 0
-110.488560 420.982330 -16.875837 40 1
-56.130032 459.550080 127.138250 0 0
16.224161 692.627620 129.169530 36 1
152.172650 824.454040 95.984711 30 1
-44.887310 496.102080 -0.392040 0 0
-60.603607 151.633870 -44.184429 0 0
-54.258465 613.308530 74.567329 47 1
-211.107030 851.272770 235.928480 13 1
-103.650730 804.722470 194.835570 9 1
-12.645376 261.706240 -14.917269 0 0
-100.680670 423.277590 -54.144836 40 1
-75.851738 346.151950 -7.679215 0 0
2.731032 419.695740 -32.762402 0 0
8.313228 441.113340 -147.697070 21 1
7.979268 790.467960 -58.771473 7 1
-22.434422 248.695690 -219.996720 20 1
85.791397 812.096440 166.787230 5 1
-108.605940 525.552000 139.289700 60 1
-56.351997 496.224060 203.900920 59 1
-79.634804 172.854280 92.044502 45 1
-29.147938 275.400940 -25.260151 0 0
3.351313 506.451630 179.992130 59 1
-13.527288 633.879760 193.343600 37 1
-32.749542 513.407590 2.551437 0 0
-45.932590 700.793950 149.184690 44 1
73.868553 807.989930 182.203190 5 1
-17.093588 745.241210 256.744960 42 1
-6.831657 331.927640 55.748085 0 0
-46.397938 373.505250 -59.892944 0 0
-58.588894 311.574980 -12.995844 0 0
-50.445332 745.842290 140.545700 44 1
-93.080841 447.436220 -91.365868 2 1
69.406380 824.203800 163.650250 5 1
40.570938 717.681030 49.668327 48 1
-97.651001 841.084720 173.698520 9 1
-27.328335 622.243710 90.806656 47 1
17.463018 425.852780 161.894060 35 1
4.136986 738.697270 285.969970 39 1
46.893703 174.604840 -83.800362 17 1
129.548100 833.505740 70.850006 30 1
-21.450760 60.929283 -39.797478 0 0
-130.759110 815.324340 232.046010 11 1
-30.043503 787.846310 -98.524956 7 1
34.276814 679.266240 161.898360 36 1
-6.718660 321.791810 26.336123 0 0
-36.107311 735.963130 217.196640 41 1
72.103088 827.582580 52.736034 30 1
81.805611 844.022340 50.311874 30 1
-84.232918 711.662720 207.052510 41 1
-76.514229 513.617190 219.073290 58 1
-124.436290 816.923520 -87.717392 56 1
73.833565 500.501370 -58.496689 22 1
-158.597560 867.181030 167.298310 13 1
48.358044 247.253430 -212.062790 19 1
-0.076811 302.264980 -27.051107 0 0
47.308899 439.399720 -179.004790 4 1
17.996965 720.922180 72.597977 48 1
-104.155540 758.529600 -5.408384 6 1
25.412304 710.193910 131.706910 36 1
-9.283120 456.520420 128.945310 28 1
-11.385534 428.251620 226.314440 29 1
33.692593 625.956050 269.301360 33 1
21.432404 628.008480 43.054794 46 1
-10.020730 787.365780 -87.529449 7 1
-85.058144 769.017880 -65.494339 6 1
-23.308481 667.593020 66.106094 0 0
-148.137240 873.656490 164.779170 13 1
-135.167970 811.820190 -123.512530 56 1
3.275071 759.654420 48.771503 0 0
31.623302 698.958250 60.671188 48 1
-40.569752 547.510070 -20.169724 0 0
-56.264652 236.490660 -48.673290 0 0
-122.857190 812.812440 -133.660740 56 1
64.013023 326.330080 -77.382858 53 1
-182.500090 327.582980 -71.392754 1 1
47.225361 738.891780 294.075230 39 1
-27.523302 750.595760 202.714360 42 1
35.486736 747.918640 77.594498 48 1
-32.291225 373.941410 -18.918047 0 0
13.646874 392.516390 43.224110 50 1
-169.007640 797.618100 -150.603590 56 1
-4.522367 333.845980 41.314747 0 0
-39.466007 198.010090 86.027672 45 1
-89.734459 418.743290 -23.309628 40 1
-4.031849 388.737090 128.002060 0 0
-152.414840 741.386050 13.536181 6 1
-125.425950 801.626460 238.554690 11 1
51.818699 700.982600 145.547470 36 1
-36.848587 413.507970 -61.211594 51 1
-51.953289 259.357030 -49.789440 0 0
-14.689952 266.178650 -42.303219 0 0
-17.262159 480.890170 137.012540 28 1
-15.911244 245.554050 -15.126227 0 0
-30.074345 506.785000 228.035860 59 1
-75.520325 608.862610 107.018050 47 1
-87.781212 593.637210 147.587570 47 1
-66.390785 713.076230 311.345180 42 1
-4.264520 782.145200 -58.076622 7 1
-56.744678 704.802120 305.434450 42 1
-62.517288 762.841430 96.427933 0 0
-15.745219 460.972600 -10.999064 0 0
21.121395 718.845090 42.158905 48 1
-7.829443 747.411870 246.723860 39 1
13.862200 744.814270 84.820145 48 1
-49.651737 412.865020 -105.487530 51 1
-58.375572 664.989440 161.886490 37 1
71.336426 816.927120 140.580720 5 1
-36.011787 643.482670 183.799060 37 1
50.281986 408.126980 -102.265520 51 1
-44.588840 797.155030 181.098450 42 1
-37.308994 618.670230 57.254349 47 1
-74.950111 415.313290 -35.759102 40 1
13.953299 242.387360 -238.722150 18 1
-62.315536 412.806950 -45.908443 40 1
-66.139244 419.623350 -19.461948 40 1
18.443197 378.095730 54.206280 50 1
-48.265907 273.839660 -50.933243 0 0
-191.307800 858.001770 209.984020 13 1
6.128797 404.297940 8.359869 0 0
-0.857531 589.905580 77.531204 47 1
-6.288494 613.942750 68.160240 47 1
-49.892014 631.122070 202.543610 37 1
-18.909966 439.074010 -166.433230 21 1
9.035722 276.169160 -25.020611 0 0
-92.039215 760.314030 253.613830 42 1
41.603909 798.259220 194.546590 5 1
26.394005 304.036530 -51.241177 0 0
10.100032 213.203540 -124.460590 0 0
-24.612129 751.359440 188.969960 41 1
2.180775 769.017090 84.473511 48 1
19.745111 405.455140 -14.269388 0 0
13.290051 239.506180 -28.512581 0 0
54.733158 601.620730 175.505400 38 1
-118.414120 747.235900 8.637556 6 1
32.353149 254.949870 -203.286560 19 1
-4.436928 695.619630 123.074890 36 1
23.466583 779.147280 72.476685 48 1
-142.648320 814.548710 -64.562157 56 1
-167.936250 329.347230 -8.252436 0 0
-7.196043 77.184807 -36.245945 0 0
-59.439915 797.236820 87.873672 0 0
-76.890671 750.659610 261.393340 42 1
-54.815147 716.298890 285.363400 42 1
-1.917185 396.108460 -20.076168 0 0
99.560295 396.502140 -90.396744 25 1
-199.853700 328.595980 2.587906 12 1
65.522804 674.517640 199.955380 33 1
-22.500668 320.899900 -58.865879 52 1
25.991259 686.372740 63.025650 48 1
-29.063532 726.566280 278.081300 42 1
-121.154420 816.964900 206.536870 11 1
3.996710 414.271030 150.092070 35 1
38.323418 266.889310 -27.240030 0 0
-17.413836 408.943940 6.866120 0 0
-127.700240 458.196560 -110.417630 2 1
-158.703810 849.237790 217.047520 14 1
-4.918835 555.369510 60.105721 0 0
65.806854 195.517270 -40.916283 16 1
0.891464 258.977690 -207.486980 20 1
71.116997 386.762420 -105.629320 0 0
55.905365 431.938720 148.823090 35 1
2.384117 483.033110 -101.987010 32 1
3.823566 287.415680 -11.044166 0 0
-213.772110 806.236210 264.750550 8 1
12.538251 256.311650 -210.712340 20 1
-26.574825 300.781310 5.499786 0 0
34.033348 765.177490 47.520527 48 1
-22.852325 764.629520 178.864690 43 1
59.667053 386.352020 -177.624570 26 1
-45.403015 738.160100 272.668270 42 1
34.760719 621.924070 63.959400 46 1
-57.631912 734.084290 138.456130 44 1
-62.039261 673.624390 42.821114 0 0
-102.355850 853.530150 143.721680 9 1
-40.989719 408.614410 -6.796490 0 0
31.786356 727.346560 109.694630 36 1
43.119179 629.947810 132.221570 38 1
-198.453310 861.475220 192.557370 13 1
16.371450 246.299820 -98.016273 0 0
-12.076295 422.995970 15.310534 0 0
-26.888847 588.638850 20.520967 0 0
-112.034120 812.212520 238.024550 11 1
10.218668 292.607640 -40.041618 0 0
-50.854786 773.755980 98.723289 0 0
13.857759 401.540920 -27.087126 0 0
-8.569063 617.276120 46.664722 0 0
-11.248595 346.113590 71.312119 0 0
-19.313007 529.939150 37.193188 0 0
92.247658 816.269100 175.899730 5 1
-15.044744 531.244930 19.610619 0 0
-49.557487 473.139430 130.032270 28 1
105.019060 409.339360 -192.631760 4 1
19.087812 821.169070 166.202300 5 1
10.446682 375.689610 227.225040 29 1
15.600078 494.361760 -48.896141 31 1
-26.908169 489.468440 142.086930 28 1
47.709415 672.918030 168.988020 36 1
-43.952911 535.456050 -22.851889 0 0
12.611910 416.537720 -60.340683 51 1
-44.841106 734.582760 157.942860 44 1
-107.175930 510.444370 155.256640 60 1
2.107022 459.213650 -43.487103 0 0
-43.637398 715.454040 73.368286 0 0
-147.575490 823.471190 -85.894081 56 1
-61.280949 169.070370 -49.276691 0 0
-44.680431 697.049260 59.234493 0 0
-89.439888 513.384460 173.455720 60 1
-129.490680 735.133300 268.765320 42 1
-14.987446 512.289430 15.816014 0 0
28.853134 366.637600 51.040405 50 1
-97.841469 161.639340 121.398000 34 1
-52.129372 595.824950 42.653786 0 0
-80.746216 805.527950 121.797540 0 0
66.168983 606.122860 22.302877 46 1
-186.682690 831.520390 251.330400 8 1
60.315598 649.954040 237.674760 33 1
29.532459 633.810360 118.494960 38 1
-7.407887 623.821470 8.485252 0 0
-126.967260 141.545870 111.340690 34 1
-263.178470 289.333370 5.838607 23 1
-56.783951 606.566960 59.331841 0 0
-60.546352 690.853760 263.634310 41 1
-120.620090 849.938780 140.239410 9 1
13.912319 236.103090 -250.990520 18 1
-29.993237 268.617030 -15.085293 0 0
-118.973610 501.682530 156.514130 60 1
-28.308905 562.795900 -0.628986 0 0
-16.445972 786.570980 196.292790 43 1
-134.755720 874.130000 196.069350 14 1
-228.176730 315.902770 2.810024 23 1
-26.589857 621.056760 198.612520 37 1
