22.761261 228.530820 -19.321987 0 0
100.303790 257.567080 -32.569439 8 1
-94.917030 111.169970 73.684074 36 1
112.589200 253.702380 -8.422233 8 1
-87.974220 245.152890 94.575989 2 1
82.293938 204.549420 28.879087 10 1
16.205084 249.869490 19.374508 0 0
70.977524 188.092320 -43.385086 45 1
-35.910835 195.606350 146.705260 46 1
-78.977898 242.764880 115.959240 2 1
-69.088051 171.248550 -35.784424 26 1
83.124557 173.931730 83.763039 10 1
-76.166847 143.667920 -10.047713 35 1
17.111912 270.180390 4.853481 0 0
-8.148285 194.272990 8.776965 0 0
-37.347168 300.852170 53.761875 47 1
26.096790 92.710480 7.885893 0 0
55.322697 143.081390 86.779373 13 1
154.503250 94.354408 55.824471 4 1
-86.021942 100.765790 81.047707 20 1
-24.074026 279.866790 -16.274582 9 1
-63.767460 216.225300 38.455303 16 1
-7.766940 142.671620 46.250263 40 1
90.982475 266.661350 -17.213907 8 1
-34.323608 136.919050 -10.473656 0 0
-22.496449 138.215620 45.555607 40 1
-65.308266 219.342770 5.326140 16 1
-16.958672 160.740660 -12.169956 23 1
115.744790 241.953870 -43.428104 8 1
15.954291 128.612380 -20.971529 0 0
-44.733192 154.273410 -77.137779 27 1
23.733923 122.949970 -80.438423 32 1
79.975868 114.546520 46.287926 11 1
-24.969839 301.882450 51.907024 47 1
-37.098377 166.317600 25.859337 12 1
7.405807 271.959410 -53.320240 9 1
6.888125 98.853645 3.070737 0 0
8.923657 65.125748 8.670288 0 0
10.697529 298.300480 62.971752 14 1
8.215498 116.241420 -120.981190 17 1
26.005419 257.607640 -28.069019 0 0
147.317000 101.652640 41.859791 4 1
1.927811 285.273440 40.469757 0 0
14.690105 114.686910 5.118648 0 0
-33.400143 143.221080 39.400379 44 1
39.236496 162.175630 24.769396 39 1
-94.933571 231.720410 127.171360 2 1
-82.172905 59.731304 -45.794224 25 1
4.882886 138.916370 -26.046631 43 1
3.618878 132.889940 -3.863205 0 0
-46.161674 203.662900 61.782547 0 0
-20.791117 186.056980 33.292706 12 1
-99.023170 245.939450 93.831360 2 1
53.773884 269.630950 -45.903004 8 1
79.009773 176.838680 13.531558 0 0
1.007296 48.403843 -4.306421 0 0
148.599470 223.536480 36.661995 7 1
11.493439 284.971650 -23.606798 9 1
28.256605 174.339100 25.540253 37 1
-52.871819 202.010240 127.676810 46 1
-9.832317 151.878860 19.273745 0 0
14.707907 148.883100 -66.149673 32 1
96.264397 102.339130 9.884760 5 1
-48.646069 299.936800 67.980873 47 1
-57.355854 215.995680 69.026443 0 0
-5.840856 144.448970 -90.258812 17 1
-36.923553 283.058840 34.209263 15 1
30.154659 137.825100 0.757377 0 0
119.834840 190.408170 -7.378346 45 1
76.904602 85.021851 75.898155 11 1
-4.505666 285.235810 64.553078 14 1
99.840759 192.525960 55.761761 10 1
-94.040291 130.879260 1.789765 35 1
-40.878658 72.120819 20.852495 0 0
-30.708563 62.278450 2.012244 0 0
19.720564 141.179180 -28.519382 0 0
-79.129623 176.155590 -25.751972 26 1
74.601257 75.416946 85.073029 11 1
32.877296 122.409230 80.353470 13 1
83.594604 127.032260 27.299871 6 1
21.420229 244.365860 -17.532547 0 0
-2.253486 261.623320 10.290497 0 0
-5.030226 34.045429 17.229677 0 0
-13.069367 20.257675 12.232524 30 1
-16.218937 282.405460 65.737297 14 1
-19.958693 151.394700 33.253437 0 0
23.811350 145.689640 -79.346130 33 1
-29.023052 300.846920 63.318649 47 1
-83.985291 245.850370 107.323220 2 1
2.864967 170.703930 -1.265642 0 0
70.409241 280.987150 9.291630 8 1
140.521000 223.394560 5.740105 7 1
-83.595604 137.341710 -6.006161 35 1
32.888153 157.495150 -73.054565 33 1
-55.760857 218.863070 27.120049 16 1
-29.086060 252.979570 -37.934669 9 1
-55.046974 82.992683 20.864307 0 0
50.027466 133.928540 80.345390 13 1
96.391815 97.565704 58.385151 11 1
-68.136673 143.188830 67.384987 36 1
10.934930 122.301860 -6.587492 0 0
36.408810 131.379460 69.826508 13 1
-62.376064 69.184975 -83.391541 21 1
64.589653 107.533610 113.792930 13 1
-66.886658 73.825645 -31.670824 25 1
79.349266 107.755580 57.007366 11 1
-91.453011 119.494060 70.504433 36 1
-12.401089 38.026199 -14.084597 0 0
100.280980 166.159910 85.749657 10 1
-3.910929 274.894500 -34.915829 9 1
92.955139 261.046080 -51.335152 8 1
-22.222363 196.387710 147.769320 46 1
-14.198710 276.840000 -17.749947 9 1
-142.646590 123.417470 -9.205490 3 1
-98.868568 80.034378 38.119354 19 1
-11.365034 261.107330 -61.085037 9 1
73.428215 175.092590 82.364815 10 1
-35.791603 295.279570 18.359627 15 1
-13.405270 271.733950 -48.171368 9 1
-2.026718 257.331420 -74.736717 9 1
23.750050 117.535640 -7.311087 0 0
-40.557194 149.567470 -13.237975 0 0
-94.069160 67.089256 41.697853 19 1
-25.918936 108.383680 3.084685 0 0
53.376545 135.451870 51.178810 6 1
-79.232605 137.603700 -25.473413 35 1
30.111687 275.284880 -58.055912 9 1
-3.904262 272.319460 35.798279 0 0
7.807369 291.565520 30.488438 0 0
-68.898109 149.233310 41.511646 36 1
-69.431091 170.140750 -24.460247 28 1
97.305855 150.955030 -63.574287 45 1
-31.236916 164.777390 -64.759384 27 1
-9.091249 142.013120 -16.163761 0 0
65.579979 275.169920 -57.263538 8 1
119.962080 243.405590 -31.539917 8 1
-54.901642 71.169937 64.037186 18 1
-12.275879 298.117520 68.454514 14 1
53.484463 277.685790 -34.377110 8 1
-5.341916 -2.200728 2.093514 0 0
-56.009178 218.562560 82.679031 46 1
-77.580849 174.796830 -35.067650 26 1
-35.586777 168.493640 42.330513 0 0
-26.429396 247.488370 -45.413784 9 1
-36.039139 239.069810 -55.179855 9 1
-67.057205 171.191910 -11.478730 28 1
-78.948326 117.957200 64.720993 19 1
-27.070463 171.203900 23.487549 12 1
16.355392 169.160140 33.787334 39 1
-27.988482 46.302605 1.233523 0 0
86.410530 266.323060 -28.291252 8 1
-93.765503 121.556880 62.667221 36 1
31.697138 279.373900 -31.846689 0 0
57.839005 167.507370 22.551989 38 1
113.247530 191.363920 61.028721 10 1
-7.637926 235.836410 29.700329 0 0
103.848860 198.181690 16.335314 45 1
39.311279 168.146160 -61.845257 33 1
-84.904488 136.197360 30.134220 36 1
-51.664421 76.499870 -56.336021 25 1
10.984756 110.701380 75.729202 13 1
-60.966675 66.649101 -53.205708 25 1
31.484566 142.220900 -6.888036 0 0
-4.617797 130.994030 -4.493957 0 0
-2.232256 11.249599 -13.581232 0 0
-34.557636 204.932250 132.529510 46 1
-97.775803 100.353710 41.792503 19 1
10.850690 297.986600 84.982552 14 1
-23.224970 297.243530 11.214601 15 1
-76.271042 177.873430 10.600744 28 1
55.936634 120.145760 109.652600 13 1
70.582642 103.105790 64.284752 11 1
9.111912 164.683550 -42.898945 23 1
1.722309 17.264076 -0.085334 0 0
-26.711899 149.256330 17.094503 0 0
-54.055145 156.250170 -63.885914 27 1
-4.949792 65.237518 19.096214 1 1
8.666851 167.730960 20.357410 39 1
-73.038574 146.600650 26.559191 36 1
-102.860870 91.511711 53.902397 20 1
-29.425964 128.947190 12.179482 0 0
-9.782732 7.575732 22.124088 29 1
-21.778736 168.711460 -20.302906 23 1
39.217957 166.443680 9.054407 39 1
-44.230133 200.567930 140.731120 46 1
-37.455582 153.060550 31.050760 0 0
83.044052 274.825100 2.679908 8 1
61.984203 188.184570 69.017982 10 1
-44.945423 217.254430 89.807030 46 1
10.537622 262.810490 -69.294823 9 1
-94.788940 112.467290 61.292248 19 1
-6.335935 105.035840 5.030626 0 0
-24.559307 123.668230 55.413891 40 1
-33.409496 261.904360 -25.803490 9 1
92.362320 101.352890 51.973946 11 1
7.021370 267.539700 1.887260 0 0
131.606770 217.210680 42.312523 7 1
-51.885391 89.807426 57.621346 18 1
34.051952 152.169750 -4.893499 0 0
-38.231411 303.001890 77.127510 47 1
-63.227142 90.209984 29.493210 0 0
-21.775866 207.654970 135.496030 46 1
-57.300098 173.037690 -28.881716 28 1
-80.015327 79.971100 -63.040890 21 1
67.922386 89.999390 84.547096 11 1
-103.397070 124.426250 -20.256708 35 1
-8.760364 254.979200 -53.743423 9 1
22.321714 188.237030 46.648975 37 1
13.373242 140.713590 8.791471 0 0
-8.917384 297.156560 88.913986 14 1
25.429914 276.509310 -7.367803 0 0
-1.499313 218.732530 16.706598 0 0
-88.816383 62.863777 -73.306648 21 1
85.666817 183.203450 74.512215 10 1
110.929150 110.961700 52.237679 4 1
-101.280530 125.505570 33.315655 36 1
-4.423165 296.225770 52.577606 14 1
14.929590 123.430080 60.941322 13 1
6.105924 261.460540 38.519272 0 0
82.264481 151.021380 95.797562 10 1
72.229477 198.233220 -30.815218 45 1
-17.470406 216.346190 116.087260 46 1
48.740456 80.029068 17.040031 0 0
-33.449986 160.693710 4.549183 34 1
39.771458 282.351720 -42.416950 8 1
-1.764015 262.711330 -46.732887 9 1
-67.695908 144.783800 -31.564711 35 1
60.902653 178.605650 79.493927 10 1
-68.152412 144.865780 51.275299 36 1
82.815689 203.431640 5.007988 45 1
-2.640705 11.733912 6.392317 30 1
-27.066996 276.023320 47.622452 14 1
-84.556358 81.720573 69.726967 20 1
-20.778231 121.807350 7.320042 0 0
-6.947696 267.664400 -63.156044 9 1
-101.239360 232.029880 114.519780 2 1
63.676991 281.034970 -12.182053 8 1
-6.541321 174.010890 -64.016571 31 1
32.855789 283.047210 -0.673355 0 0
90.727875 162.394550 -59.360825 45 1
-62.525368 71.918655 -70.310875 21 1
-34.657951 48.186470 -30.969645 0 0
-60.044678 155.494420 26.110563 41 1
-17.398438 218.588200 88.451797 46 1
-78.826180 143.168430 17.923275 36 1
-32.378460 160.228610 31.955584 0 0
50.829136 281.667790 -5.947319 8 1
-17.513584 48.949478 4.305923 0 0
-22.381596 92.103821 -11.546179 0 0
-2.358507 39.594326 3.787751 0 0
-33.070793 59.803757 9.421277 42 1
2.155413 185.661930 -1.880299 0 0
19.979439 295.172880 62.018559 14 1
-6.688292 20.219215 -1.923198 0 0
163.135640 221.654510 31.358221 7 1
56.483803 124.343270 98.662163 13 1
-84.671600 59.756077 -37.712261 25 1
16.511345 137.687270 -13.708178 43 1
127.409970 220.027190 14.268536 7 1
-73.019615 206.421490 106.200900 46 1
-7.567698 15.627035 22.816854 29 1
-21.756083 49.632023 -90.107780 24 1
-10.258183 277.634830 -27.978880 9 1
-119.022640 190.288820 133.748320 2 1
96.093674 105.096960 24.128117 5 1
-13.732713 45.423889 10.951208 0 0
-6.442498 246.636110 -67.847137 9 1
-21.094664 286.941280 45.651989 14 1
15.109085 219.527770 -13.047371 0 0
50.830738 141.568440 93.350441 13 1
9.473112 291.536380 58.465851 14 1
89.159225 113.225790 34.330479 5 1
-78.984955 112.122700 44.162243 18 1
27.766968 123.768310 6.075752 0 0
-14.941542 162.557170 -27.259748 23 1
59.619957 125.232700 32.116173 6 1
-113.856590 229.612400 108.667100 2 1
-106.388600 116.119110 -47.341152 35 1
93.903976 73.767265 75.189262 11 1
-67.717987 97.840721 37.593220 18 1
-49.245827 104.047160 57.240879 18 1
-16.579441 284.208530 77.499153 14 1
30.736729 133.383990 -9.015720 0 0
40.596066 276.329930 -48.088230 8 1
91.825005 105.459950 44.902626 11 1
-58.059193 182.376160 -6.895457 28 1
-13.279257 265.357060 34.288780 0 0
-107.075190 114.026730 -33.190392 35 1
-103.762570 73.146698 51.133190 20 1
-25.881336 45.080547 -18.194344 0 0
-51.564808 213.926090 96.042648 46 1
88.412270 186.862630 17.156246 0 0
81.700684 201.215420 -20.035269 45 1
1.891761 66.557396 -2.718543 0 0
-30.198690 182.607090 46.583687 12 1
-81.561256 109.384390 -74.415924 35 1
-19.977852 117.737790 63.192875 40 1
-129.536360 186.486330 108.180340 2 1
-62.528179 216.092620 21.769365 16 1
82.290977 195.269300 -33.397831 45 1
100.210180 194.282640 40.396790 10 1
-0.146479 148.399700 -1.275873 0 0
-119.807110 142.407380 28.743500 3 1
32.452198 244.297550 11.703971 0 0
-85.905922 69.002602 -68.740181 21 1
60.279495 270.946900 -23.030704 8 1
-63.743977 210.145610 100.801520 46 1
-33.203751 146.385470 5.207676 0 0
114.474050 183.585950 -26.339800 45 1
56.462822 275.179320 -58.282860 8 1
-96.157074 129.471480 19.430185 36 1
43.492264 275.669340 -26.979038 8 1
-0.327444 134.127260 -22.254351 0 0
99.834396 196.685840 -10.147641 45 1
-9.712110 276.998990 52.979397 14 1
-47.650768 155.459290 31.694378 41 1
69.747871 168.454990 87.395653 10 1
-51.836048 94.481682 65.676262 18 1
-22.807652 254.338460 -51.764606 9 1
-83.201759 118.358040 -65.490501 35 1
92.350952 269.883640 -0.255681 8 1
5.310399 135.807330 -13.529546 43 1
15.612577 80.991875 5.639136 0 0
73.043205 131.048630 38.499332 6 1
-5.494779 133.512940 20.542351 0 0
-58.828514 145.728060 47.364700 41 1
-72.311920 175.866230 -3.949947 28 1
62.955639 135.960340 47.937946 6 1
-90.319618 108.217570 35.379108 19 1
-68.035439 74.011848 -64.184555 21 1
83.210381 189.596410 59.861469 10 1
-16.413769 137.071530 24.404308 0 0
-10.400628 127.026580 -8.397438 0 0
-34.607944 127.456850 -91.540390 22 1
-78.073975 63.828239 -28.763634 25 1
106.874710 175.862000 -45.502197 45 1
20.527939 245.783770 14.039696 0 0
-80.275818 136.740620 43.767265 36 1
-68.489807 62.441921 -86.443886 21 1
-9.632199 156.748030 -10.693329 0 0
35.111691 113.112400 34.418179 0 0
-73.520729 72.789497 65.483139 18 1
-66.027267 214.995480 70.220802 0 0
34.201488 268.008970 -34.106293 0 0
-40.697441 163.598630 -56.747437 27 1
-17.426863 133.150940 -85.212524 22 1
68.508972 156.638340 92.473198 10 1
-54.233273 151.131180 12.165699 41 1
22.991730 295.942840 73.667068 14 1
-37.676331 116.994350 -94.993752 22 1
-85.471977 161.175990 -51.846352 26 1
-21.731348 274.319310 57.674282 14 1
-137.734530 126.923560 -3.726394 3 1
-101.276810 86.255371 42.900185 19 1
89.202545 169.483730 -47.928474 45 1
-91.984070 108.568720 -71.899971 35 1
-11.761652 283.980440 33.874928 15 1
-40.798500 301.591670 69.643799 47 1
-17.540297 62.524178 -0.648558 0 0
-2.520265 211.696400 122.582540 46 1
-112.610620 216.066070 123.862480 2 1
22.190046 277.713290 -50.705673 9 1
40.170593 157.422710 -67.671768 33 1
-3.937685 96.876175 3.403667 0 0
-84.587257 122.754490 78.746994 36 1
-19.162813 106.962710 7.272980 0 0
-29.408699 136.707950 41.442604 44 1
-74.307381 166.254270 -49.608028 26 1
74.122261 195.242720 52.932831 10 1
-38.128799 131.524250 33.976761 44 1
114.677080 197.469700 6.365826 45 1
0.177743 216.516890 24.098467 0 0
46.401382 129.158450 36.958984 6 1
64.528320 93.774940 73.779381 11 1
20.176805 285.039860 86.849106 14 1
75.145050 266.119350 -39.026119 8 1
83.071968 133.774600 32.872269 6 1
-104.157290 240.418520 104.251370 2 1
89.516106 199.389630 30.209360 10 1
-2.661393 149.849580 16.017136 0 0
-11.436977 37.631413 9.909624 0 0
95.191330 179.711840 -44.808388 45 1
-10.468189 221.966710 92.174644 46 1
98.394073 254.913670 -25.247297 8 1
-96.216324 127.088050 27.205645 36 1
22.036034 273.901210 -37.674488 9 1
10.308182 138.944340 -73.775261 32 1
57.039349 152.798630 5.878538 0 0
-97.251831 166.389430 -33.195705 26 1
42.854248 105.996210 103.416950 13 1
-41.063274 152.674870 18.251308 0 0
-0.048348 217.759740 102.091590 46 1
-94.866562 118.580470 -50.841408 35 1
-82.894127 116.445720 56.482944 19 1
-16.421690 91.643486 5.152923 0 0
-50.016354 168.572240 -26.575602 27 1
17.052528 125.531520 -107.991550 17 1
-61.642765 64.954567 72.489571 18 1
8.182803 60.497234 -4.957032 0 0
16.440504 122.932430 -83.433067 32 1
34.422009 272.439510 -13.240623 0 0
17.507402 133.447690 -72.281693 32 1
66.925430 276.181000 -24.320494 8 1
35.469028 144.250090 8.093764 0 0
11.960984 130.537320 -27.985222 43 1
111.762210 169.452270 83.770119 10 1
-74.048515 245.442180 100.043110 2 1
-91.686409 132.239400 -12.072733 35 1
-58.614994 197.841160 131.095640 46 1
-78.165901 79.041481 56.731899 18 1
-12.232859 134.011060 -64.390221 0 0
-82.117851 241.549300 90.898689 2 1
67.331543 114.233830 117.058950 13 1
-96.666786 242.172940 72.681717 2 1
-40.944839 189.180010 55.258694 0 0
114.237480 170.525540 -49.090900 45 1
3.552660 288.178440 104.688550 14 1
106.730160 249.033100 -35.701141 8 1
-14.968786 142.120330 36.733566 0 0
-13.499448 161.566070 -46.331532 23 1
-56.104584 70.367233 -58.136555 0 0
-2.261585 278.729830 40.040215 0 0
-19.206484 64.660606 26.903223 42 1
-19.214121 169.761430 -61.262726 31 1
-18.243633 165.305370 -1.785519 34 1
-11.205530 62.292385 15.508114 1 1
61.183132 204.135990 -26.169903 45 1
-74.779099 145.825410 11.247022 36 1
-18.989363 109.057590 -23.781601 0 0
-65.163879 94.755562 45.935722 18 1
-32.755077 203.503720 124.826860 46 1
-42.039062 199.950700 133.316740 46 1
27.531761 171.479140 -55.372467 33 1
-48.212021 312.382970 74.434692 47 1
-81.043556 131.444610 56.422081 36 1
96.374641 101.978980 -0.331498 5 1
-91.528496 244.216550 81.313553 2 1
-24.807261 42.921165 -25.558611 0 0
-123.271910 188.299770 125.075640 2 1
-0.512610 281.088560 -25.109596 9 1
8.186229 279.472110 39.524223 0 0
-122.150990 168.975490 141.154680 2 1
58.782108 270.818760 -35.315723 8 1
-36.601997 158.339280 -16.048481 0 0
-49.311459 303.835170 52.814919 47 1
110.983110 201.826400 16.874426 45 1
137.905560 106.431850 35.262413 4 1
-12.798946 47.260818 -1.585575 0 0
25.534622 273.518860 -15.902919 0 0
-7.553500 213.773960 111.011940 46 1
-62.785831 223.802830 11.111999 16 1
-36.181175 59.366943 -43.563637 0 0
54.625996 161.564070 13.789550 0 0
-4.490839 136.946790 34.026550 0 0
-18.731064 240.844180 -71.801003 9 1
12.959170 261.990390 -62.013306 9 1
-65.873108 67.731651 -76.668602 21 1
-3.634805 163.558810 -51.952419 23 1
-83.176323 129.956420 -33.693226 35 1
-9.720506 173.576840 -30.571489 23 1
28.455566 244.018430 -20.675940 0 0
9.821958 299.464420 71.399292 14 1
26.540159 92.794403 17.401804 0 0
144.210650 105.308400 48.096447 4 1
-38.845158 133.749680 11.793513 0 0
-7.860638 253.677580 -70.865150 9 1
4.974781 43.772457 2.977352 0 0
-83.965942 131.167020 66.154892 36 1
20.497454 275.085630 -67.894730 9 1
100.488560 83.357620 64.994240 11 1
23.901096 131.685880 64.674965 13 1
-26.374739 165.752760 -58.867100 27 1
-71.933151 98.338036 73.207619 18 1
-9.915861 35.658203 0.484751 0 0
7.335287 229.538680 23.600012 0 0
-35.688637 144.365800 32.146839 44 1
-28.217979 75.361229 -77.707596 24 1
91.328583 259.213170 -22.018606 8 1
-76.498444 88.291229 37.387447 18 1
95.485687 255.803380 -38.285862 8 1
147.490950 223.898380 17.692638 7 1
-95.578445 103.030440 49.831779 19 1
-3.677149 1.853552 -4.378127 0 0
-16.508415 281.279570 56.718220 14 1
-40.460041 218.755720 78.761665 46 1
-2.725828 271.598140 -56.353176 9 1
13.108440 131.464320 16.547760 0 0
-27.562748 51.098881 -30.986326 0 0
-0.965149 229.423950 21.699326 0 0
-64.090637 176.158200 -31.846603 26 1
110.973410 112.255530 66.126427 4 1
-102.615850 116.616150 59.600273 36 1
-65.120842 72.069504 -48.058899 25 1
-54.658134 110.190770 59.952724 18 1
-7.553533 280.886170 85.565636 14 1
-10.601277 139.175660 -78.387802 32 1
3.681492 254.488250 -70.520172 9 1
-64.120773 302.313080 82.694633 47 1
-19.053925 153.402370 -15.942555 23 1
66.555931 210.615780 35.110352 10 1
85.752571 196.121990 40.877644 10 1
-24.754597 159.919040 9.322069 34 1
2.579456 84.292793 -2.721609 0 0
-53.547230 216.427230 75.627892 46 1
-7.708533 12.713652 0.639504 0 0
26.531548 136.790010 59.471493 13 1
62.923183 94.086823 117.753550 13 1
-64.044579 138.975540 -43.120167 35 1
88.841026 107.331730 -2.390588 5 1
-0.143427 140.109330 -75.982475 32 1
111.022860 188.903240 -31.440208 45 1
-25.572628 211.896820 103.769130 46 1
-90.879631 168.804150 -29.331493 26 1
18.247911 182.738680 50.010078 37 1
-97.169334 122.020310 -38.457348 35 1
81.231804 71.871620 83.846977 11 1
-32.416397 106.698170 -1.170568 0 0
9.609099 133.064730 -36.191349 43 1
-17.816656 97.763466 -1.580024 0 0
-17.218781 137.366010 54.932751 40 1
-9.586820 200.846020 16.612251 0 0
91.445419 99.701057 64.877388 11 1
46.341099 164.193300 22.135670 38 1
35.797264 137.358990 11.490851 0 0
71.816994 106.466350 56.326946 11 1
127.565080 108.938200 35.094704 4 1
28.123848 264.228000 -31.550158 0 0
-63.000931 108.984180 47.694382 18 1
-16.644413 169.389370 -31.161589 23 1
37.968067 140.018230 -1.671599 0 0
79.792747 93.285667 64.558929 11 1
-25.986572 241.347200 -51.877636 9 1
110.831270 169.897020 -55.937653 45 1
-18.320642 125.812320 60.496857 40 1
48.157894 129.067860 104.106610 13 1
-21.808647 204.939180 125.529560 46 1
-91.373436 112.110950 84.288589 36 1
89.313110 263.370300 -35.654861 8 1
-118.646220 220.277070 118.600470 2 1
-13.094786 129.749530 -53.912079 0 0
117.158960 180.821690 75.147804 10 1
-1.474608 122.401570 -124.384160 17 1
-82.443085 123.301740 -51.511536 35 1
-57.922909 229.540050 5.082266 16 1
-79.842400 93.468529 78.045540 18 1
-14.566691 207.894620 120.279430 46 1
-22.056288 272.951420 -18.574629 9 1
86.238121 163.627990 -51.681011 45 1
-42.696938 158.744160 -70.488815 27 1
-35.891624 284.422970 26.846964 15 1
-4.525047 291.918060 99.455200 14 1
-65.035957 149.861590 56.011814 36 1
-16.861858 275.084900 -31.328835 9 1
0.998223 132.056410 37.075878 0 0
-131.499770 134.350230 9.753326 3 1
38.057430 278.950710 -55.092491 9 1
43.110596 119.099770 92.386589 13 1
-20.922293 263.640110 -32.038376 9 1
-110.497490 244.204210 83.917328 2 1
75.770493 269.032070 -64.417366 8 1
-7.685003 269.972440 50.589565 0 0
1.908074 287.600520 83.238403 14 1
-5.270087 71.475235 5.299972 0 0
-64.278099 92.496948 70.308678 18 1
77.972633 209.504620 3.142020 45 1
-142.141220 127.518710 10.494026 3 1
-89.238457 48.090561 65.742447 20 1
-57.121864 297.818660 80.050064 47 1
-7.455179 201.394380 132.440030 46 1
18.108143 261.279240 7.655148 0 0
-30.034748 281.175380 58.977825 14 1
75.607246 119.454590 17.692106 5 1
-39.456211 214.888760 99.973885 46 1
73.418907 275.167820 -3.418550 8 1
-39.595459 168.987960 -44.898895 27 1
-14.866782 127.772740 0.770436 0 0
55.594395 127.643390 38.317173 6 1
90.330521 150.557660 99.207733 10 1
-74.584732 65.652138 -45.835114 25 1
-8.479594 217.557360 101.148040 46 1
0.333386 144.088750 30.959311 0 0
66.022644 101.907590 118.557140 13 1
17.030804 60.525925 10.210826 0 0
24.197027 183.057590 38.029720 37 1
121.051610 215.575130 34.092056 7 1
-100.105770 211.433300 144.891630 2 1
-54.193966 82.044441 67.480713 18 1
9.561281 198.004820 -8.807714 0 0
-30.867332 218.922320 97.664017 46 1
-47.473633 110.222890 8.332098 0 0
113.410040 110.867030 40.606346 4 1
-162.587630 119.929510 29.695686 3 1
-29.011587 143.284790 -0.869573 0 0
-94.164780 94.149750 31.236944 19 1
101.486510 163.896330 -54.180019 45 1
56.287540 281.985080 -12.874412 8 1
77.506599 92.384277 72.243103 11 1
30.290838 102.625100 28.526569 0 0
-87.089783 69.165573 83.100288 20 1
-105.768460 226.080400 119.844170 2 1
92.412590 197.018860 21.325768 0 0
-4.359669 45.982815 0.385671 0 0
-97.849976 108.424190 -57.021706 35 1
54.490234 110.281810 105.096130 13 1
99.921219 188.408810 -31.655317 45 1
98.385345 191.893360 -21.556570 45 1
99.003639 189.113200 62.348072 10 1
10.822437 122.372310 -15.266534 0 0
-33.229221 288.133510 38.291862 15 1
-31.105097 63.211540 21.767870 42 1
42.125160 155.500460 15.638447 0 0
-47.307098 207.427990 103.437870 46 1
120.164870 111.649440 54.217712 4 1
-12.318836 115.091510 60.213661 40 1
-90.178200 106.459970 62.668697 20 1
-14.938828 6.260236 16.906679 29 1
-155.543010 119.555140 12.276612 3 1
-40.170528 66.731133 -73.654694 24 1
22.937119 115.511630 -0.047276 0 0
13.250807 267.689790 -47.126705 9 1
148.647350 99.176048 57.755352 4 1
-45.393688 159.936360 -22.192755 0 0
20.564865 168.890670 14.592938 39 1
64.861908 129.741620 110.196900 13 1
-62.220287 300.908110 70.012039 47 1
116.678200 248.299010 -13.260069 8 1
-108.486170 136.955570 9.784996 3 1
-132.108950 176.423460 120.608630 2 1
-2.290792 135.515550 -100.323040 17 1
-20.907770 217.757640 108.109750 46 1
-70.750320 113.703210 71.418175 18 1
102.679340 99.310028 12.077003 5 1
84.042191 114.580380 9.282634 5 1
-17.191208 137.505420 -5.967557 0 0
120.294820 188.337140 63.029499 10 1
-100.575230 65.312256 57.824825 20 1
144.616930 219.877930 31.532850 7 1
93.178078 196.425160 11.953267 45 1
4.937571 297.702240 90.265411 14 1
13.842933 270.914220 -2.104822 0 0
-2.233568 280.921020 108.985680 14 1
70.038322 165.623930 12.104977 0 0
61.356758 270.006410 -44.116066 8 1
-38.846092 161.513890 14.821224 34 1
8.009036 269.338560 -39.569489 9 1
147.425350 101.663830 66.176155 4 1
-85.897720 60.591274 76.087723 20 1
97.595375 199.049320 0.249688 45 1
158.988250 223.344740 37.260654 7 1
11.279879 284.270420 93.199249 14 1
43.749989 139.136750 95.622185 13 1
-2.019151 223.078890 26.735895 0 0
-13.525596 255.971770 -48.162582 9 1
-21.473698 241.710450 -57.967144 9 1
10.264994 171.242400 30.018534 39 1
-120.638150 182.086810 137.279170 2 1
-2.354909 185.100680 6.983779 0 0
-130.769070 130.565810 -9.737034 3 1
-26.771769 115.477620 5.723018 0 0
-24.729670 132.673890 -83.366852 22 1
-0.266403 301.421540 75.192116 14 1
-85.613853 131.748500 44.844563 36 1
-95.791687 58.801765 66.041161 20 1
22.173441 246.751630 22.409515 0 0
-23.804207 290.181670 66.324440 14 1
-30.643288 266.347720 -20.594263 9 1
-97.780945 224.552540 137.890200 2 1
61.213898 160.401380 36.503254 38 1
-40.182213 123.013990 40.490604 44 1
-101.700870 109.002500 -65.710381 35 1
79.683281 198.573810 44.335484 10 1
109.660370 250.241760 -42.736336 8 1
70.848709 267.531250 -51.550297 8 1
-115.509270 209.336490 125.744130 2 1
87.758873 201.844920 -1.685934 45 1
-23.746378 91.754593 -4.075231 0 0
29.067322 124.507120 86.294144 13 1
14.180662 283.493040 79.580612 14 1
6.798399 282.096500 81.033997 14 1
-68.904694 209.854950 90.827415 46 1
-87.440712 169.254680 -44.029995 26 1
110.766340 252.395290 -24.765297 8 1
96.816277 95.091766 -11.877872 5 1
-42.643841 289.856630 8.190083 15 1
54.117882 129.212520 93.462173 13 1
45.110325 127.506420 58.248039 13 1
-51.490681 223.571700 35.349720 16 1
-1.731245 128.332820 10.082869 0 0
9.203802 268.446290 39.198704 0 0
137.948730 222.659240 44.324020 7 1
5.138748 262.250030 -52.807301 9 1
-54.101093 301.019380 58.142811 47 1
108.296710 175.557770 79.303818 10 1
-49.111088 79.856895 17.838203 0 0
-23.729836 160.690640 -36.635365 23 1
-105.113880 136.170610 1.172430 3 1
-42.479267 228.697140 -60.252350 9 1
123.799550 109.172120 46.837223 4 1
-54.539326 215.134380 62.168198 0 0
18.689383 121.317380 72.027267 13 1
-22.315279 62.477200 -81.810997 24 1
25.110851 69.238297 8.978619 0 0
-92.352470 237.286790 116.571620 2 1
-21.323065 163.732210 -76.155624 31 1
-31.520489 171.547440 36.318321 12 1
11.494638 145.954130 -72.052086 32 1
-53.154694 98.359802 54.815495 18 1
6.352602 140.531480 -19.047264 43 1
-35.450027 249.636810 -36.589443 9 1
49.193665 202.982380 55.002724 10 1
50.956223 163.354920 28.112051 38 1
-48.094944 200.508610 54.839989 0 0
-75.440735 85.078293 43.903358 18 1
-33.679317 91.268036 6.283831 0 0
25.231375 279.243930 -21.547579 0 0
7.606269 247.093860 16.853559 0 0
86.682297 92.775528 67.690361 11 1
-40.313408 70.027473 12.157400 0 0
76.119293 272.540800 -10.154871 8 1
-26.165325 212.711670 117.763270 46 1
-27.570982 254.718550 -45.669006 9 1
-13.540203 284.729640 93.816940 14 1
-42.845860 54.675404 -82.007690 24 1
115.002300 197.944760 40.219440 10 1
35.877659 144.991150 -74.956154 33 1
-80.846832 83.787491 87.165657 20 1
-144.108550 124.088630 -0.669797 3 1
-7.558590 288.915010 41.421227 14 1
32.333675 250.952130 15.286024 0 0
-12.171194 75.685326 7.192556 0 0
-14.366580 200.895720 140.799420 46 1
-0.783682 117.803860 -131.450840 17 1
-64.006241 155.661820 32.223911 36 1
-76.386742 70.775208 -74.913322 21 1
-44.147030 103.303170 2.153379 0 0
-66.417671 197.168270 128.829620 46 1
20.590248 107.134720 94.804474 13 1
-1.343980 26.587669 10.604659 30 1
-34.853241 309.607360 61.569534 47 1
76.402328 99.504044 66.762001 11 1
-3.115386 265.143010 33.599205 0 0
12.489923 111.136990 -3.537157 0 0
29.482405 276.181120 -42.932495 9 1
72.206131 180.909290 76.781876 10 1
-53.779732 151.381290 27.232025 41 1
-91.934769 130.384980 41.284088 36 1
-129.341060 180.324340 130.075320 2 1
32.015697 113.575080 100.361170 13 1
52.366344 271.102260 -38.718815 8 1
-44.780334 71.858047 -64.212540 24 1
1.744767 255.862530 12.187885 0 0
84.838158 193.096890 53.711246 10 1
129.947940 219.777310 27.520760 7 1
4.491677 128.438670 -112.306890 17 1
-30.123865 139.948390 21.279718 44 1
64.874260 278.545530 4.745097 8 1
112.905900 179.205380 -43.210777 45 1
91.827637 194.967320 44.781048 10 1
92.406921 181.115970 71.342628 10 1
-86.347702 105.728610 75.678581 20 1
-74.483414 139.368270 67.568947 36 1
-103.105430 126.433120 -8.991387 35 1
-27.395988 156.476230 -12.316969 0 0
6.877779 176.097790 1.430088 0 0
28.797689 147.030350 7.637702 0 0
-6.980809 141.485000 39.086620 0 0
-11.536197 83.249916 -0.298117 0 0
12.169924 131.422790 -86.739258 32 1
-7.779662 243.424970 -74.366173 9 1
8.061371 290.345280 69.791763 14 1
-2.327788 273.561160 -41.955528 9 1
-86.893364 77.848320 62.536999 18 1
-112.039580 206.721880 132.162630 2 1
-47.452091 221.325730 -63.932320 9 1
-95.301758 132.302930 -5.225807 35 1
41.557384 114.955580 105.475210 13 1
28.347071 284.833160 -45.320606 9 1
-64.524849 107.067200 68.241402 18 1
-42.068771 144.953510 23.718620 44 1
-0.029183 173.662510 -67.587540 31 1
-105.385450 239.607890 81.408157 2 1
-51.211124 173.045360 -36.515121 27 1
-97.036629 123.846060 49.240059 36 1
-84.610497 137.506850 22.839375 36 1
-10.635254 157.892840 2.282012 0 0
-71.544388 144.706380 36.557289 36 1
43.412731 139.865430 77.362282 13 1
73.407501 97.027512 32.250278 0 0
-57.842819 310.886990 77.220963 47 1
-10.296298 299.774440 81.711975 14 1
22.197947 133.658040 -78.298241 32 1
-4.009726 210.752350 23.016497 0 0
-60.866898 86.037415 23.885920 0 0
56.850567 138.707470 96.159576 13 1
86.921883 74.439720 78.777428 11 1
58.615803 134.418140 104.353500 13 1
139.431110 218.504360 20.037849 7 1
-26.888638 242.729540 -62.888306 9 1
56.839802 280.693420 -25.343332 8 1
-19.657381 51.509735 -3.811969 0 0
65.344017 198.878080 -33.334499 45 1
-97.136887 97.569763 65.895569 20 1
-9.430547 283.584930 79.173492 14 1
21.963572 97.869072 19.629137 0 0
96.994690 266.131410 -5.438856 8 1
24.703197 271.168490 4.470062 0 0
151.112290 220.375560 24.986889 7 1
-9.823639 166.529970 -31.946102 23 1
17.100458 137.555590 -6.406597 0 0
-19.450134 139.019810 31.036411 0 0
82.161812 269.971470 -22.703739 8 1
-6.783620 133.719060 -111.581580 17 1
15.156562 118.407950 -89.746605 32 1
-171.334060 112.619950 19.450977 3 1
-139.994080 131.648180 -9.429915 3 1
10.495001 146.208560 -31.025208 0 0
-25.169559 155.879780 1.450063 0 0
36.030807 127.942750 76.097260 13 1
-3.265657 23.875610 3.756785 0 0
-10.867147 286.220730 102.812320 14 1
44.108456 144.422610 3.027472 0 0
-38.620869 45.299931 -87.968826 24 1
-21.816441 72.277657 -6.446778 0 0
-16.763687 224.007000 96.186127 46 1
109.364970 195.991380 35.516994 10 1
9.344986 254.863620 9.143493 0 0
71.178787 196.753160 59.267864 10 1
-23.205259 113.023230 -2.050848 0 0
103.908720 260.625180 -1.709339 8 1
-14.780439 250.661100 -53.263103 9 1
-1.915416 144.149480 -10.915773 0 0
-16.780117 40.570896 3.097758 0 0
-3.764481 162.268450 2.374712 0 0
-6.040112 74.465706 -5.719447 0 0
-96.682816 70.356903 64.726448 20 1
93.621025 106.014620 -14.660658 5 1
27.308689 117.701460 92.256554 13 1
121.210890 245.394060 -23.689795 8 1
71.934494 134.757710 108.037010 13 1
-18.901796 65.276245 17.976236 1 1
88.373711 113.279470 45.146957 5 1
-25.896088 270.465030 -30.709339 9 1
90.573715 192.632400 -28.681498 45 1
-151.321460 120.682010 4.894205 3 1
-93.875977 86.438965 28.808928 19 1
-94.534729 231.811740 134.276790 2 1
81.489754 164.343410 90.770180 10 1
23.110592 252.068300 6.298267 0 0
-123.697380 239.787510 90.719307 2 1
-48.692936 124.353360 -87.352585 22 1
-30.440762 157.544540 -3.022224 34 1
-68.830025 215.641040 77.068810 46 1
-36.296825 177.293820 47.683331 0 0
-131.356670 131.263490 -17.313387 3 1
39.507523 151.783840 -10.407029 0 0
-46.115604 162.305210 -50.540428 27 1
14.476006 111.062420 84.011299 13 1
-20.580862 258.583830 -38.387463 9 1
30.981293 254.047560 -24.470219 0 0
51.505722 79.538185 25.367119 0 0
-18.634687 134.984210 -114.822940 17 1
38.083866 131.886110 59.483952 13 1
57.860619 160.298390 26.689480 38 1
68.556610 143.916060 59.944557 6 1
-51.564899 308.168550 87.010841 47 1
7.914626 26.110855 22.429201 30 1
22.214544 277.061550 0.841022 0 0
2.064478 142.071410 22.708208 0 0
60.797951 164.148910 17.066963 38 1
-11.906042 169.025090 -73.940857 31 1
-7.988380 289.616880 31.854404 15 1
-11.655658 32.638138 14.920355 0 0
26.461811 173.695830 32.464958 37 1
68.143631 274.059020 -31.703430 8 1
-89.301315 116.411270 -62.401745 35 1
3.153804 145.328260 -71.155418 32 1
-74.456352 134.700530 78.788910 36 1
-104.010750 113.107130 -40.856220 35 1
12.618976 194.427170 -3.433804 0 0
-93.153221 240.597730 96.122147 2 1
-98.378708 93.743599 39.081429 19 1
-37.395912 140.987340 16.786659 0 0
97.904030 104.215410 56.400173 11 1
19.394047 87.160469 8.181868 0 0
2.055538 94.750633 6.479791 0 0
75.616653 82.399979 82.776047 11 1
15.112406 63.464863 2.727506 0 0
19.619408 126.976630 8.657948 0 0
104.196180 192.047740 49.976006 10 1
-78.771835 76.867203 71.215393 18 1
100.263480 183.514690 66.562836 10 1
-36.881367 150.940290 -72.127434 22 1
-118.253000 141.520370 -18.381327 3 1
42.992443 122.261190 51.549049 0 0
-58.290306 212.341080 85.557663 46 1
33.163776 73.024467 13.078210 0 0
-56.457958 151.952360 42.159737 41 1
-71.564644 179.342930 4.328505 28 1
101.635800 109.086010 46.053375 5 1
-109.576930 137.643080 16.883316 3 1
102.928790 102.812030 23.165670 5 1
7.889759 171.873630 -44.136818 23 1
26.826742 111.652970 -4.958500 0 0
-37.583645 297.484990 7.451025 15 1
-43.197311 59.093037 -44.941864 0 0
-5.561891 171.476350 -39.052654 23 1
55.214561 138.791120 57.545536 6 1
23.171101 129.307660 -3.102488 0 0
22.824368 104.653690 -2.028666 0 0
-127.966870 168.713580 131.857800 2 1
46.955158 279.934600 -32.614376 8 1
-28.766315 223.838420 90.239044 46 1
77.811386 191.116960 65.474121 10 1
-33.603333 293.035950 24.779713 15 1
-21.235474 216.326970 94.600990 46 1
79.346405 276.149990 9.174684 8 1
-85.002121 95.995224 27.325457 18 1
-74.654030 124.931880 -59.539707 35 1
85.620934 178.560880 -46.280167 45 1
-168.021880 114.183720 10.816983 3 1
-26.640678 177.290560 27.126049 12 1
-45.787460 293.607270 19.288843 15 1
-81.218620 132.803510 -1.214551 35 1
-12.661583 272.721650 -23.588713 9 1
-105.671170 221.552370 126.071240 2 1
3.222443 247.610090 38.045364 0 0
-2.918522 136.466080 -11.176099 0 0
110.325600 192.490600 -18.088255 45 1
-93.097282 70.092445 57.420219 19 1
-77.604141 135.722030 -10.238272 35 1
69.149551 127.190480 32.021866 6 1
72.873138 273.207890 -26.508566 8 1
109.823330 114.017360 45.725258 4 1
-74.469635 97.039383 35.955750 18 1
-9.981205 254.957120 -64.326347 9 1
-37.374878 55.440575 -33.501232 0 0
-76.951805 239.319890 84.888680 2 1
-36.190411 307.647130 52.621872 47 1
50.456978 280.197540 -47.511475 8 1
6.534804 296.487980 46.026661 14 1
-51.749470 195.336320 149.249680 46 1
42.549969 251.684370 13.944354 0 0
-32.988525 164.474400 -56.468811 27 1
-109.263310 120.020240 -30.355320 35 1
71.819992 181.701830 -47.528263 45 1
42.550640 284.285520 -15.851794 8 1
-57.711437 169.458560 -22.768030 28 1
-127.516880 192.002840 111.949960 2 1
-86.503510 79.805618 76.593567 20 1
-105.897700 121.895280 37.102760 36 1
-3.676429 283.265290 -18.584417 9 1
14.014152 171.600050 23.450880 39 1
44.306114 139.157470 61.010971 13 1
-8.889744 141.046620 -98.952896 17 1
-50.276264 195.373860 141.712020 46 1
-86.437271 67.575111 76.345970 20 1
49.208569 113.356410 101.069030 13 1
9.172678 107.100780 -134.599690 17 1
-24.659145 122.530180 0.984233 0 0
-103.841500 85.719940 49.352417 20 1
-90.036568 240.113740 108.489430 2 1
-18.114319 146.376650 44.261810 40 1
-27.849453 207.873340 112.797470 46 1
-14.776142 243.059480 -63.727917 9 1
-13.726794 297.979580 60.275326 14 1
-23.123508 145.111430 -5.187483 0 0
-38.705433 206.156940 112.260370 46 1
-82.253876 133.678070 10.124014 36 1
-30.039948 156.748490 -27.098871 23 1
6.507172 165.556500 -50.820042 0 0
14.935026 115.888820 -119.224660 17 1
-30.971706 248.698900 -50.537804 9 1
-67.877426 133.859890 -47.302299 35 1
1.554444 75.690117 5.154409 0 0
-5.721132 169.692310 -56.148098 31 1
4.179034 265.108920 8.999239 0 0
74.912094 202.264620 -21.790524 45 1
-43.919689 299.414980 52.061100 47 1
-46.859814 233.231870 21.333197 16 1
159.476790 223.186250 25.048458 7 1
-30.486683 159.519260 25.035997 0 0
-12.961115 218.836030 111.258970 46 1
100.858190 93.678368 54.418980 11 1
-29.374481 288.754060 15.792946 15 1
-78.374367 165.243740 -42.567150 26 1
-49.196327 158.843140 -74.437820 27 1
87.973351 109.197710 -10.274213 5 1
76.588707 173.807020 -53.073994 45 1
-50.870106 66.795654 -50.801029 0 0
30.253729 166.709700 27.763002 39 1
39.629940 172.937670 31.684242 37 1
-65.564499 114.430690 59.178219 18 1
-73.085274 172.244490 -15.117929 28 1
-79.328911 172.332470 -3.587713 28 1
20.717190 233.394350 -14.200713 0 0
146.875180 220.723740 43.042465 7 1
-21.043921 154.193370 26.869402 0 0
0.481729 138.226810 8.389583 0 0
-10.278249 121.856380 56.245274 40 1
66.189613 140.883300 100.770360 13 1
7.957350 104.426840 -0.987047 0 0
-9.843074 249.348650 31.115753 0 0
8.514276 273.474030 -31.067158 9 1
3.615615 18.977964 -9.333321 0 0
-124.208890 208.369960 118.915790 2 1
20.681105 139.870670 7.516741 0 0
-56.633499 204.683030 109.081730 46 1
34.282455 121.543320 40.952763 0 0
-72.378792 67.243004 -37.042473 25 1
-26.646004 130.254090 52.493202 40 1
-45.696644 202.368240 122.958110 46 1
-99.478752 61.853546 45.567028 19 1
106.700060 254.432510 -12.439905 8 1
-62.838722 224.551760 69.201523 0 0
114.694630 190.573720 50.940769 10 1
-58.322453 148.256550 33.439865 41 1
26.449053 89.509300 1.787571 0 0
-14.728421 299.322720 76.448280 14 1
3.935960 287.075100 34.123569 0 0
-75.146317 72.293442 -24.700415 25 1
-39.561924 141.138790 -74.516411 22 1
-83.354401 62.803967 -23.178047 25 1
-68.770126 199.782780 122.471710 46 1
10.931607 120.345600 3.962507 0 0
134.644910 224.509370 2.320792 7 1
-87.011269 123.476750 65.051186 36 1
-84.828209 242.721360 129.683230 2 1
105.268000 253.010890 -47.258537 8 1
71.057381 268.269740 -20.712770 8 1
98.781960 158.058910 91.159592 10 1
17.771545 279.099490 -36.202557 9 1
-2.645777 125.190100 3.943195 0 0
-91.108749 128.275910 -24.302149 35 1
-33.838203 220.306340 79.788216 46 1
-0.835168 178.825810 10.505783 0 0
62.598438 166.757170 85.615395 10 1
-40.795624 284.227570 21.937946 15 1
-29.139729 205.451070 136.724000 46 1
-15.546276 117.860200 -48.599445 0 0
-39.282509 161.919920 7.963931 34 1
27.337761 169.241670 18.439144 39 1
-37.803024 195.577420 153.306380 46 1
-6.200431 132.434950 55.054470 40 1
-4.995803 136.973070 -82.124420 32 1
24.831438 62.795673 11.437435 0 0
-5.281724 287.946620 48.701717 14 1
-19.110229 297.084500 16.703577 15 1
64.392860 268.729490 -55.037472 8 1
-50.669273 65.518417 -68.471169 24 1
-43.925987 184.747120 49.366188 0 0
1.459311 125.320950 -10.898342 0 0
-18.349081 80.184326 3.911234 0 0
-69.445755 231.788890 79.453758 0 0
-58.068565 70.632210 70.087608 18 1
0.697628 145.367170 -92.076477 17 1
84.630402 109.336610 17.038078 5 1
-29.567823 284.068480 32.417744 15 1
0.356216 216.125520 109.151370 46 1
-6.105521 267.115540 -36.124420 9 1
-32.770355 136.774750 -3.552535 0 0
-38.288780 170.097930 -55.187881 27 1
-30.806631 157.340290 16.749588 34 1
-6.897195 117.135270 6.143380 0 0
-47.505077 231.861590 42.295296 16 1
-4.050075 21.503391 23.757053 29 1
17.897200 265.465330 -57.714634 9 1
-30.559746 134.994460 48.514717 40 1
2.763355 62.515785 13.188270 0 0
-73.250008 138.657230 60.668087 36 1
92.537628 168.763870 -56.888371 45 1
-41.432621 238.301410 32.651688 16 1
35.242912 282.485930 -48.635845 9 1
-32.532585 172.299300 14.619464 12 1
26.266256 280.192110 -35.900524 0 0
103.982090 174.907140 -52.515022 45 1
14.316603 131.651540 -78.286697 32 1
-35.233799 118.838980 6.107997 0 0
-85.690056 129.386310 51.674877 36 1
109.324040 200.455280 30.357243 10 1
7.534311 134.060840 -99.234528 17 1
-28.623266 125.316410 -4.795352 0 0
-30.575300 202.416460 144.556270 46 1
-26.375553 69.121132 33.122108 42 1
24.865213 113.365010 -80.821854 32 1
10.666950 73.689598 2.796522 0 0
-76.241219 64.215256 -82.937828 21 1
3.664744 132.217960 26.034212 0 0
-60.005196 307.212980 67.949257 47 1
-26.678162 133.444270 30.512394 44 1
47.740982 135.731290 74.103760 13 1
21.056950 294.671750 84.037842 14 1
110.948570 111.581750 34.044102 4 1
-70.484184 145.299190 -22.084356 35 1
74.405807 201.803450 41.377579 10 1
-59.644054 220.469940 16.595562 16 1
100.702170 90.293404 -9.004694 5 1
-41.333237 144.521680 -2.753548 0 0
-52.373310 222.337140 57.142601 16 1
-93.002251 125.134600 54.567379 36 1
-53.570656 152.321330 19.132959 41 1
63.516575 103.134580 63.147152 11 1
29.650108 279.064150 -14.118553 0 0
-29.054628 165.561810 6.636113 34 1
62.753929 90.320061 34.485241 0 0
36.415577 140.055500 68.399139 13 1
1.900216 289.252380 48.752258 14 1
-150.580670 126.176750 -1.900884 3 1
44.994370 103.798350 109.639050 13 1
-13.394243 40.749081 -3.429073 0 0
-64.806427 166.008160 -20.866692 28 1
104.729030 158.763410 -58.379440 45 1
-23.277069 67.160172 10.729755 1 1
-0.754193 138.812730 1.737011 0 0
7.629905 122.468150 -113.093640 17 1
-79.498299 127.387720 -46.628899 35 1
-85.428055 135.336990 -12.347604 35 1
-31.007570 166.847890 31.349510 12 1
-3.863505 300.903020 69.438919 14 1
-82.194298 133.647630 -20.561544 35 1
-55.783512 108.930790 3.998722 0 0
-61.873695 76.555702 -36.025906 25 1
-98.512337 65.089691 34.331051 19 1
-9.138089 210.941770 124.316330 46 1
-18.869766 214.422390 101.755690 46 1
-39.913918 135.798660 29.036837 44 1
-64.722198 217.718230 83.021255 46 1
-30.349157 125.659870 59.460060 40 1
-39.545929 289.228820 30.999315 15 1
-46.298046 63.719593 -74.287117 24 1
15.726167 291.457340 76.178955 14 1
-46.203945 151.859020 43.969246 41 1
34.982159 162.399870 18.501675 39 1
67.808350 201.072460 45.832317 10 1
-92.513199 105.529020 88.286880 36 1
67.476234 213.808520 -3.728065 45 1
103.787290 184.843630 -42.536030 45 1
83.944412 83.367500 74.709778 11 1
67.308350 160.404160 27.354080 38 1
-1.771644 207.774080 12.578612 0 0
-6.774385 271.751310 -49.482098 9 1
-62.196995 70.736900 -61.446396 25 1
-107.460430 228.087170 112.732810 2 1
66.244690 276.078830 -7.493226 8 1
-7.836255 23.942963 10.072780 30 1
-30.363564 147.026700 11.301298 0 0
95.475616 110.617560 19.772730 5 1
7.638264 189.054050 0.390221 0 0
-51.533916 83.492180 60.390175 18 1
61.634216 211.844830 -15.457637 45 1
5.931374 279.428470 -24.000484 9 1
-12.559441 149.900020 32.476170 0 0
31.565990 122.408000 0.496830 0 0
68.450165 186.474500 68.142586 10 1
-11.841954 163.745410 -39.876549 23 1
26.504456 154.205980 -72.736008 33 1
-35.415924 56.536850 -81.830849 24 1
30.034939 130.198620 -2.047063 0 0
-91.700981 111.485290 67.465691 20 1
64.434937 140.072890 53.439949 6 1
25.379143 135.680330 -12.648227 0 0
-47.514603 132.622890 -80.379814 22 1
-124.487670 233.253070 96.715233 2 1
-38.321938 203.937150 120.672090 46 1
-35.170300 61.280476 34.368626 42 1
-39.751640 177.464680 -35.159172 27 1
121.852750 109.385140 64.941208 4 1
-37.225220 101.737050 5.174673 0 0
123.546420 182.124950 -36.452187 45 1
105.459910 197.445790 2.591905 45 1
5.335269 136.182370 40.203133 0 0
-51.348473 231.675720 13.603240 16 1
33.299366 134.037870 76.845985 13 1
114.159970 191.996840 -3.857168 45 1
85.266312 103.883230 61.409607 11 1
-20.538925 153.495930 9.875605 0 0
95.658836 197.836170 32.750896 10 1
-8.484901 149.144740 26.855192 0 0
-17.544401 289.713380 26.374241 15 1
-95.337074 102.258080 57.000793 19 1
36.506908 131.786710 7.647638 0 0
6.355324 127.366520 -37.764565 43 1
17.921019 207.798870 -6.037875 0 0
-132.068850 135.040540 28.998682 3 1
91.253220 195.839940 52.031040 10 1
22.686457 179.024810 44.484909 37 1
0.852185 109.272480 -136.346160 17 1
26.127552 131.076540 -18.579882 43 1
75.367638 206.562870 -2.684515 45 1
41.560219 135.148620 49.033390 6 1
-72.840195 139.638430 -32.614002 35 1
19.920193 159.210190 -72.191330 33 1
-3.046359 108.447650 9.767233 0 0
80.872543 203.497710 18.027462 0 0
101.130370 201.538820 21.930798 10 1
75.695206 194.576520 -35.229671 45 1
-35.846603 80.541435 -66.855621 24 1
-2.725202 64.151833 3.228652 0 0
-129.038570 134.240050 17.463896 3 1
-39.617916 124.609860 2.584818 0 0
-30.747303 294.002990 6.083577 15 1
69.672668 272.090030 -43.093842 8 1
-162.734040 114.162090 19.528538 3 1
152.881300 99.705597 45.067146 4 1
-44.907509 144.419600 10.949059 0 0
-28.262356 258.519410 -30.803007 9 1
-15.286336 286.551090 38.944027 14 1
3.132298 293.383450 100.333980 14 1
-66.166603 74.566757 71.872826 18 1
82.994865 96.654991 59.751850 11 1
-17.881630 139.600080 -77.334587 22 1
-57.216339 226.024280 27.888016 16 1
21.407917 274.192960 -29.750458 0 0
43.273369 143.409300 10.022313 0 0
20.440542 115.009860 84.126221 13 1
70.998062 276.369840 -17.521484 8 1
-58.393932 117.961430 3.595412 0 0
-100.376460 110.224680 65.332634 36 1
-58.967361 102.907420 47.392422 18 1
95.229477 88.870560 61.295429 11 1
133.972430 218.365300 13.987577 7 1
18.025862 172.925810 -48.571911 33 1
-74.708382 73.977814 -64.327454 21 1
-6.775736 81.039246 9.091573 0 0
77.424782 144.077640 52.675323 6 1
-90.316925 110.648290 49.129192 19 1
57.645409 140.049360 64.189445 6 1
-22.914703 132.439640 -1.744873 0 0
78.184723 206.502110 -8.711707 45 1
-125.274980 133.936140 -17.652344 3 1
34.366402 127.838870 -10.225191 0 0
-80.840919 173.913600 7.840287 28 1
-59.573925 167.841520 -44.974541 27 1
-56.325722 215.117020 91.513939 46 1
100.027740 94.084480 -0.249337 5 1
-21.369162 210.794540 109.134290 46 1
-40.040024 208.835690 102.644050 46 1
-15.359373 268.360470 -41.837925 9 1
10.709264 132.867460 -105.391090 17 1
103.664160 259.832610 -15.281302 8 1
142.264130 103.686250 54.233841 4 1
120.449350 243.484450 -38.999668 8 1
-8.864909 225.346860 23.586481 0 0
-34.019211 171.598820 23.273617 12 1
109.112400 166.633590 89.319176 10 1
-67.903091 69.937889 61.914200 18 1
61.508160 123.469510 111.036670 13 1
63.536041 131.486470 43.076595 6 1
-55.927528 70.021141 -69.138443 24 1
14.922706 130.080690 2.247510 0 0
-2.925791 53.260384 -1.945020 0 0
-94.271011 107.336890 -65.802658 35 1
14.681442 152.531810 -74.332298 33 1
5.633584 105.207850 8.644240 0 0
-75.242348 85.240921 73.509407 18 1
9.690955 238.137310 20.563942 0 0
-32.922653 238.608860 -61.395794 9 1
50.784042 115.936380 108.668230 13 1
95.542015 101.500510 -10.209372 5 1
-28.695902 78.167137 -2.598536 0 0
-112.168030 199.483200 139.955990 2 1
20.524015 164.573350 26.303133 39 1
-18.583052 295.511780 56.410717 14 1
40.726032 72.870110 20.732616 0 0
-102.910450 122.761720 -26.635487 35 1
98.691170 174.255680 84.660591 10 1
33.853119 246.874250 20.325949 0 0
3.168409 109.912700 -2.106494 0 0
13.594260 292.499330 64.233269 14 1
65.149490 191.233630 -43.352539 45 1
-24.387106 159.613240 -29.822441 23 1
-20.477978 102.276420 2.438200 0 0
14.916148 276.778320 -29.195965 9 1
97.103928 177.479450 -50.868286 45 1
13.395501 141.959370 1.861503 0 0
-96.596153 239.254390 103.448780 2 1
0.281007 134.999480 -34.156216 0 0
55.472950 191.103150 66.938148 10 1
-79.036530 106.843640 73.602631 18 1
12.234085 292.176700 91.694908 14 1
-53.777325 223.400880 22.083786 16 1
39.677700 126.480270 81.387939 13 1
25.211479 124.137920 71.321342 13 1
-36.692474 222.284530 -71.297226 9 1
-10.563648 88.784203 4.238162 0 0
-24.909399 64.952728 23.224461 42 1
-88.402039 113.198450 54.923355 19 1
60.474331 275.387660 -14.790899 8 1
-29.031628 65.920242 -78.456665 24 1
59.834129 196.545360 56.658035 10 1
-45.551960 160.088180 -62.958141 27 1
-4.335136 174.405870 4.052243 0 0
3.694939 -0.988085 4.833567 0 0
66.094986 90.239685 124.176960 13 1
24.907026 87.423088 11.734629 0 0
103.160580 193.879880 -25.594963 45 1
127.556300 215.018800 36.269806 7 1
-83.090485 117.052600 69.728500 20 1
112.369870 185.769330 65.081879 10 1
-53.521549 81.820656 28.156822 0 0
-57.455025 222.860290 49.330135 16 1
-22.665104 198.472750 153.972730 46 1
59.082531 82.844048 25.570074 0 0
-8.435050 187.809490 7.519729 0 0
-78.871521 140.509140 49.396938 36 1
74.164497 206.009660 36.356419 10 1
-14.368609 264.969270 -52.769215 9 1
-57.182888 196.075070 137.242600 46 1
-17.236555 71.587204 17.278700 42 1
-99.824455 229.701950 122.419950 2 1
-130.099000 188.440730 122.584720 2 1
-33.323910 211.452550 113.966830 46 1
80.353340 181.150380 71.277756 10 1
-89.326248 85.873222 77.523239 20 1
30.495953 271.584590 -24.711281 0 0
39.261219 272.836120 -33.906246 0 0
9.449064 111.891420 7.870861 0 0
-82.151794 129.056700 5.418356 0 0
19.058077 267.954040 -50.130985 9 1
-30.673479 135.385160 -83.740067 22 1
81.438011 112.447430 52.309387 11 1
13.676048 251.427120 13.546391 0 0
17.719383 138.632540 -22.838387 0 0
-7.854661 128.818850 12.325530 0 0
15.254098 127.451620 -13.918987 0 0
4.689518 176.740200 -60.237156 31 1
