-40.526318 512.081850 -17.970196 0 0
-108.991700 86.293442 -45.565392 2 1
19.521074 98.786331 141.390320 14 1
54.942631 293.999110 -65.642738 34 1
-15.990835 42.664772 8.572449 0 0
1.606343 489.324650 43.568760 0 0
-57.208115 456.655430 153.658680 42 1
12.170870 400.866850 75.383194 70 1
-82.158195 135.997560 120.294590 30 1
-19.344383 455.672640 17.130396 0 0
128.322480 211.336980 -73.563873 51 1
113.620720 511.699220 4.527122 44 1
-127.962900 281.043550 76.934853 35 1
-43.023048 414.835750 -39.323399 72 1
-79.745598 432.595830 100.135990 68 1
19.866695 367.321660 76.199387 0 0
127.603070 153.723190 -4.715429 87 1
2.578497 122.900780 -11.988796 0 0
89.239754 140.412580 -5.702562 0 0
-43.407509 407.615540 -0.827206 72 1
43.079670 337.997920 46.465748 0 0
-33.554691 382.814090 -23.108070 72 1
7.154693 98.910347 9.516618 0 0
42.569878 353.100250 167.764560 50 1
-52.085709 475.408330 -38.640987 72 1
-93.331070 117.188160 27.771521 7 1
48.040848 338.870790 2.368156 57 1
-120.213810 235.761800 110.709590 27 1
-118.693040 98.554131 50.837376 6 1
57.501530 503.373230 25.475748 46 1
83.451294 366.411440 42.148453 55 1
122.304370 350.946930 30.045998 48 1
-40.895634 369.677090 43.348461 0 0
-32.935547 264.889370 99.930878 73 1
-123.470090 188.830290 56.969864 13 1
-5.112486 394.797940 15.445040 71 1
-112.226430 158.710920 68.938293 40 1
-62.378719 322.744260 -57.191074 58 1
-60.551842 407.209870 -30.707165 72 1
131.559080 250.957820 -108.842120 45 1
5.937873 381.253810 73.819565 53 1
22.804976 475.489440 30.965929 0 0
19.746773 357.441010 158.420930 50 1
-48.024815 393.134770 118.471940 66 1
-35.765015 437.046630 137.478500 66 1
-23.296122 346.616520 73.448524 0 0
64.121315 340.180020 33.444702 57 1
-6.959143 186.622860 65.495041 85 1
-23.056616 267.565520 122.931080 73 1
-25.119560 416.217040 138.138260 66 1
49.391060 363.929530 29.213146 57 1
32.092815 276.019930 121.552600 75 1
-25.584694 503.582670 65.147873 61 1
56.212692 369.430510 56.732887 0 0
-43.274445 405.150630 169.337370 42 1
-109.096830 283.424010 95.601982 35 1
-49.383972 474.273620 14.097955 0 0
165.184970 304.018160 61.575256 36 1
-23.142130 382.815090 38.111088 0 0
42.819958 237.009780 -53.608734 0 0
14.164244 386.429020 -11.073224 71 1
-71.705299 412.924740 84.801102 68 1
41.413506 91.924637 61.835049 83 1
32.902779 426.261960 26.512993 71 1
75.018211 408.209200 79.556374 54 1
-91.167732 418.215730 56.078972 68 1
-26.350964 170.919070 49.833584 85 1
110.291560 276.029910 55.452579 36 1
-8.415206 260.978300 141.452650 74 1
92.093880 398.846070 104.397030 54 1
-35.532150 308.908510 25.140591 0 0
136.134030 275.056880 17.591955 37 1
-65.793282 352.594020 54.891609 0 0
-53.959633 196.628970 -27.963467 0 0
-33.916016 105.178690 117.660050 15 1
-51.912857 275.713560 107.979580 73 1
7.383850 251.523880 5.696217 0 0
35.791149 133.618450 14.032801 82 1
5.383591 114.061680 31.737329 0 0
-127.952850 333.456730 -28.060789 25 1
-11.536599 523.576290 55.089725 61 1
17.920891 101.807440 107.055020 0 0
-109.954730 468.732390 -47.754822 62 1
175.008510 284.017090 26.455404 38 1
78.087692 364.508760 169.910770 50 1
13.069740 79.638092 10.097156 0 0
-21.530693 347.801760 157.129270 53 1
-83.346893 323.124390 98.051033 68 1
-0.380358 542.958740 21.716476 43 1
-80.960060 384.329350 -15.930854 72 1
42.121143 514.482360 30.518261 46 1
-20.866669 282.604460 32.460995 0 0
70.825104 127.161790 86.345695 22 1
10.746827 350.256230 87.589066 53 1
-81.152657 254.359420 106.586520 27 1
126.262340 344.589540 -6.898707 21 1
135.638490 294.415770 49.420475 36 1
11.432442 347.607330 7.304555 0 0
-5.529327 77.779907 21.426693 0 0
51.309227 382.201080 126.143630 50 1
108.020190 349.591030 62.259598 48 1
-107.050930 131.816940 132.060520 9 1
-112.255560 507.294040 82.374962 64 1
164.477170 165.673250 -87.217995 51 1
7.855218 481.099910 65.500038 0 0
-74.196167 410.591430 32.988934 68 1
-99.460876 370.532010 89.818939 68 1
-19.727863 439.629090 28.652964 0 0
-39.659660 405.513550 97.787613 68 1
-71.420425 492.791630 -59.648903 62 1
21.846443 400.351990 91.717216 70 1
29.337994 79.225464 172.806820 14 1
67.188141 355.666690 -1.837201 57 1
-19.280739 113.230320 26.200117 0 0
27.806728 188.529480 1.819747 0 0
-28.565228 186.918180 19.367407 0 0
-28.026188 147.338000 14.915679 0 0
-78.995514 161.105150 68.850540 77 1
-33.942680 68.270126 22.517149 0 0
-108.608630 294.033110 49.881927 80 1
-165.984540 324.326840 1.946733 26 1
66.488441 557.496830 -14.180974 47 1
146.739910 244.190730 9.782945 37 1
75.613586 514.438600 -49.632580 47 1
-9.838039 543.600160 -35.965919 41 1
62.330143 479.131500 -44.394100 46 1
-132.393010 332.969640 -67.374908 25 1
-35.081131 507.254360 6.335636 0 0
-183.713840 310.739070 14.910069 26 1
-199.897860 322.084290 -11.812956 26 1
-42.170841 151.057560 -63.534889 0 0
-137.659380 469.902680 35.841656 64 1
42.772297 249.254290 142.891570 75 1
68.926796 218.556660 -65.071785 56 1
-32.804062 423.925870 18.863338 0 0
-89.357658 311.759800 -8.943800 59 1
-75.948341 511.963040 -68.278198 62 1
-19.556774 412.822480 46.828838 71 1
-15.264328 159.174270 61.041447 85 1
49.467812 341.637910 64.488838 0 0
-52.110176 251.094800 30.207075 0 0
-81.275787 109.922670 45.929615 7 1
-149.647370 310.897740 49.377281 24 1
-0.252009 283.984770 114.886420 73 1
-0.523531 324.257230 11.764126 0 0
-14.002819 129.844190 -4.619683 0 0
-63.506470 112.910120 -56.934731 32 1
4.293266 222.904600 11.928997 0 0
158.134810 176.628370 -102.364300 51 1
75.086304 210.298830 58.884781 79 1
-44.004166 335.800900 31.362072 0 0
28.199787 382.210420 97.609695 50 1
23.999380 530.735660 0.279802 43 1
110.316930 506.609620 22.778765 44 1
-41.722237 438.907650 10.608915 0 0
-46.543518 140.954880 135.175840 31 1
-0.010865 137.614940 18.145496 0 0
91.167084 488.706330 -50.038731 44 1
42.156734 350.578770 93.590637 50 1
54.007301 227.503080 38.828510 79 1
11.929195 456.276310 25.737667 0 0
-49.443813 496.707790 110.843650 65 1
40.962719 413.884430 91.680725 54 1
17.647423 116.338990 -101.436160 16 1
-62.840584 482.320620 112.913750 65 1
30.676188 395.822140 157.585040 50 1
-81.195724 518.867740 69.552635 64 1
-74.293579 173.862990 32.722980 76 1
-80.584518 474.831540 -25.690214 72 1
-91.534264 492.211980 -66.260422 62 1
1.122919 193.229600 38.081383 85 1
-26.140127 124.937260 139.551760 31 1
-114.815350 304.070220 16.897245 0 0
-103.389600 451.831630 -23.673571 72 1
-12.590954 464.033750 -48.714397 71 1
110.230170 277.188320 29.356569 0 0
-1.542488 28.356924 11.501862 0 0
-94.449219 303.794490 43.488571 0 0
-11.261833 360.270320 68.869064 53 1
76.064171 199.841220 -52.984348 67 1
-46.908596 479.865420 31.344259 0 0
-46.318253 441.745820 121.177690 66 1
-23.800823 178.121690 -4.065642 0 0
-57.823757 148.825820 -92.734413 12 1
-67.444336 102.386420 -3.137224 33 1
-100.799710 518.223080 51.222618 64 1
116.137560 300.852510 -71.849701 45 1
-124.062820 489.229400 81.792053 64 1
-74.468338 441.828190 128.446060 64 1
-94.788040 240.733610 141.587230 28 1
144.463650 321.800960 74.025711 48 1
23.524965 158.060530 79.265671 86 1
-68.181465 475.490750 14.981602 0 0
-94.538429 427.079860 2.558097 72 1
60.221806 300.909610 1.698365 0 0
-5.270743 494.288820 -37.851570 71 1
-63.993118 260.527070 117.976140 29 1
-14.877979 463.166750 61.374958 0 0
148.598850 278.631100 83.661568 36 1
-106.599880 104.228940 67.031364 4 1
-190.435300 324.236760 -41.572830 26 1
14.926184 443.750700 -28.483850 71 1
-1.014038 154.626160 -65.823837 16 1
-55.347507 462.649750 136.730010 64 1
-61.739532 280.684660 72.186203 80 1
0.332373 388.911530 141.328900 50 1
-75.093681 211.843510 147.404880 28 1
-2.055336 376.143800 107.225750 53 1
-97.111458 480.015660 116.633650 65 1
-37.612553 286.143770 82.322380 73 1
156.366350 362.719480 -16.486151 1 1
-4.072545 194.231220 -22.048359 0 0
40.723869 544.520940 17.721087 47 1
39.625904 348.242280 140.382310 50 1
140.808070 276.317200 -79.110298 45 1
20.898052 308.530000 38.249725 0 0
-44.828793 72.901588 132.443500 15 1
16.548235 297.888730 12.086014 0 0
-75.060715 500.733950 49.120865 64 1
42.373592 527.189700 -32.598709 47 1
171.254960 272.982910 40.642189 38 1
-86.705498 431.562810 83.656364 68 1
100.874630 382.630950 103.235570 54 1
62.590508 299.003170 -30.901663 34 1
-110.767680 306.818360 74.872070 35 1
-129.345410 500.439970 37.286724 64 1
11.554139 491.988250 -26.217442 71 1
106.652010 359.033360 27.016819 48 1
-45.637871 159.859070 25.116177 0 0
-127.956630 98.654114 76.443703 3 1
-71.353645 289.847960 56.816994 80 1
-3.058003 146.414090 -21.893946 0 0
70.179176 385.389470 153.844300 50 1
-101.827360 126.182420 -19.667200 5 1
105.910320 214.221560 -53.653419 67 1
-0.095138 337.295680 174.659900 53 1
-31.539888 323.678410 114.852920 53 1
-58.302963 535.206670 -29.897888 41 1
-108.100980 464.321200 -11.913307 72 1
51.445271 291.752040 -82.928146 23 1
80.171349 550.003360 -31.964062 44 1
-42.561295 483.558290 85.380989 63 1
-40.629799 454.021730 77.462440 69 1
23.457981 504.072140 -57.081070 43 1
26.445210 54.561577 -5.726133 18 1
59.135101 420.428130 156.598970 50 1
-25.694098 371.168180 23.938379 0 0
-11.186674 351.347380 48.704933 0 0
122.103650 369.002930 -3.185500 1 1
-9.296958 76.983093 138.016190 15 1
23.048922 165.537200 -34.834557 0 0
-29.990009 406.891300 -24.835840 72 1
78.779457 480.288020 -2.494142 46 1
5.627326 481.843380 91.345818 61 1
67.405441 209.226490 -89.468521 56 1
77.499840 405.441310 130.672580 54 1
-94.432571 142.358840 108.994180 30 1
-88.979393 368.634520 -7.498266 72 1
-4.141355 355.874330 6.805036 0 0
-99.877846 508.450620 34.494015 64 1
-50.470749 402.366850 55.097862 68 1
-20.489517 342.213410 1.972404 0 0
-102.438030 443.701140 128.600220 65 1
-57.328365 514.300290 89.249084 63 1
110.552600 481.267910 -2.850599 44 1
28.399445 293.513150 114.464710 75 1
-63.345631 411.585570 9.334161 72 1
-109.286540 109.971030 156.944820 9 1
-14.930692 348.841060 101.244290 53 1
46.700333 345.914430 -16.991398 57 1
-58.413776 309.477720 -20.548647 60 1
-76.581680 527.365840 -20.513992 72 1
80.287415 361.372960 8.396901 55 1
-117.609260 480.280090 16.933285 64 1
-76.233086 423.849400 47.582695 68 1
25.625099 122.195630 25.470259 83 1
-89.857269 393.485440 12.521105 72 1
154.015270 181.069600 -67.681313 51 1
-26.964979 430.483490 108.463160 66 1
37.544453 130.384550 99.889023 22 1
39.933479 560.099550 37.214470 47 1
8.624611 82.385330 166.304430 14 1
68.725151 493.054530 45.656937 46 1
20.120283 128.031880 -11.668118 82 1
46.067513 56.987083 190.924000 14 1
73.815834 369.634160 26.358198 55 1
-146.725330 192.299190 46.043461 10 1
-96.827744 334.102230 90.752106 68 1
16.032742 541.060300 44.633362 61 1
56.487274 131.049450 76.533432 22 1
63.967316 539.618770 60.704754 47 1
-78.260902 145.116580 148.012180 9 1
36.893040 330.175200 14.657399 57 1
42.306648 339.805850 107.285960 50 1
-150.707120 322.073880 18.373241 24 1
34.339458 458.634000 -15.312052 71 1
-2.264564 426.048250 17.929827 71 1
-11.421618 431.752260 -39.610348 71 1
40.931274 453.691280 19.601509 71 1
-23.386490 472.216160 45.101799 0 0
-104.945660 118.702560 57.557152 6 1
5.390990 284.099400 92.548935 73 1
52.608414 99.642288 26.198219 0 0
119.605300 296.861660 -33.640987 34 1
-74.921593 309.816740 -60.259785 58 1
-63.004433 458.377810 68.344917 69 1
25.025257 357.826840 3.870658 57 1
-106.258050 315.508420 -8.110661 59 1
122.856660 296.623350 31.809666 36 1
-20.641964 447.939880 -6.281291 0 0
82.791443 515.168460 64.805069 47 1
-62.454830 459.001710 86.323692 64 1
-36.380215 407.734680 117.022700 66 1
11.490387 270.888400 5.829109 0 0
-29.736031 208.274810 -26.590101 0 0
90.362396 211.038250 -36.283497 67 1
23.363197 484.543060 -12.586436 71 1
64.158882 549.851260 19.133690 47 1
119.693240 158.828050 -19.165720 52 1
-34.281918 225.328310 14.581554 0 0
47.183792 326.658170 73.491898 0 0
-5.338657 176.581940 -20.009544 0 0
76.072632 402.724880 96.233871 54 1
-121.104950 121.574260 7.659229 8 1
37.910583 315.158840 33.595367 0 0
-78.833916 491.557920 116.824460 65 1
0.319705 526.542360 -17.347538 43 1
-16.296890 71.304749 8.843618 0 0
84.536430 347.879180 -45.120121 21 1
-25.657955 411.967320 77.676781 68 1
-65.242867 123.253050 -147.098510 12 1
-30.288448 243.251860 21.737173 0 0
-131.235400 501.044400 54.328899 64 1
-112.283990 388.842250 61.590214 68 1
96.411484 351.185030 -16.789631 21 1
-104.624020 485.995540 99.205948 64 1
40.182724 95.385735 15.185853 0 0
14.661414 183.831310 -44.191483 84 1
-5.610661 501.321320 -58.157684 43 1
-60.639938 244.558760 131.980010 29 1
-70.288139 233.529600 101.474420 0 0
0.168452 171.220350 95.303055 39 1
42.272572 45.011932 -4.001064 18 1
90.616707 519.574160 50.146675 47 1
82.083511 367.394810 133.296780 54 1
-120.799690 342.696260 69.743469 68 1
-82.474464 180.412990 14.797853 76 1
-95.290764 526.057250 -62.185410 62 1
-67.761810 503.029820 -8.057058 72 1
33.918610 359.468660 128.029940 50 1
-12.096282 254.677080 125.904110 74 1
38.726448 385.517820 110.625940 50 1
10.541451 268.497860 100.246960 73 1
-10.069653 472.063720 -30.592714 71 1
-110.243840 74.849220 -27.300636 2 1
90.826225 523.039860 -37.502048 44 1
-64.159027 369.490080 100.917400 68 1
58.862907 291.985630 -48.657707 34 1
-94.487274 179.565960 2.543413 76 1
46.629002 512.743100 86.637558 61 1
-57.565010 164.177370 87.765038 77 1
104.596600 148.057740 -5.695046 0 0
14.973416 95.314011 71.224960 0 0
117.078320 120.325970 -48.700741 52 1
-21.142860 445.272090 140.402660 66 1
41.955868 216.126590 57.128620 79 1
-78.505753 479.454010 -73.077614 62 1
44.207523 414.018340 22.507381 71 1
105.682490 151.353640 -42.788506 52 1
7.890930 274.067170 28.532036 0 0
-4.619666 275.069550 1.819675 0 0
-82.090515 239.591380 126.092800 28 1
-55.055092 171.380980 58.292656 0 0
-99.935280 278.118620 66.806801 80 1
-18.007065 544.824100 -62.190556 41 1
-91.509857 299.340150 12.857647 0 0
-6.926865 513.398320 -43.313690 43 1
111.425690 354.004360 -4.819718 21 1
-27.841240 365.407990 129.235230 66 1
-93.788712 94.695236 -42.837631 2 1
-83.708443 509.624360 105.117540 65 1
-54.825016 486.328030 -13.122247 72 1
32.483162 114.580630 46.693241 83 1
-73.274544 447.697630 -67.323036 62 1
-16.691036 297.253660 7.784978 0 0
-63.918423 337.266820 80.006203 68 1
-104.579710 242.126880 103.849700 27 1
-35.469425 438.923400 173.921890 42 1
-81.226410 458.494930 126.700160 65 1
-11.911907 197.663500 -40.625816 84 1
158.544010 239.732100 42.037739 38 1
-92.728149 441.251740 -32.120304 72 1
-31.072792 508.991520 89.886856 63 1
91.595177 520.689760 -2.926542 47 1
-38.978016 89.791153 20.221565 0 0
45.090328 370.820710 9.765871 57 1
-48.146854 353.963560 53.379108 0 0
10.053871 308.691990 55.366505 0 0
-21.575647 487.721590 120.726240 63 1
124.156320 184.223450 -18.766727 67 1
-37.255215 378.352780 60.310722 0 0
-3.407031 401.975680 81.912804 68 1
-36.915207 155.293350 127.620640 31 1
14.220014 220.678770 -1.430507 0 0
6.915735 496.261990 25.725969 0 0
144.841450 193.972750 -91.405922 51 1
-101.826740 471.907170 39.987816 64 1
62.655064 118.501880 6.341325 0 0
121.170760 310.953920 23.135088 36 1
2.783215 75.736725 150.049090 15 1
-73.453377 469.920320 -9.961004 72 1
-2.044680 154.164470 112.702160 39 1
8.689623 249.751130 164.339110 74 1
-67.673004 335.445190 99.785110 68 1
45.040672 435.378140 4.116004 71 1
39.108036 393.598570 75.931427 0 0
-32.507183 489.236660 36.609898 0 0
36.464474 409.916080 148.885360 50 1
25.132391 520.709960 -31.583242 47 1
16.953272 417.252290 6.440293 71 1
-53.009506 447.206880 -66.527596 62 1
-41.548412 467.766270 90.733673 69 1
154.779020 263.378360 38.095722 37 1
103.863750 381.882540 127.374920 54 1
-20.195246 363.322970 87.684456 53 1
-86.339333 360.402100 10.105182 72 1
34.914742 276.348210 138.054050 75 1
-77.841019 276.041350 90.797470 80 1
45.273319 333.918210 154.444760 50 1
-99.355453 517.511540 -46.611752 62 1
-97.936340 458.999760 -54.223858 62 1
67.622185 344.565160 112.678220 50 1
14.951702 370.164860 147.103960 50 1
-79.674088 275.137210 31.767059 0 0
2.512698 333.926700 33.235218 0 0
-83.539589 396.750310 97.186333 68 1
143.366930 262.047330 -88.028000 45 1
52.250134 199.071810 -112.312100 56 1
-10.555631 461.863130 -17.020449 71 1
11.780125 331.963780 1.862899 0 0
-51.434502 112.190010 -80.268158 32 1
-73.148102 474.571350 42.406452 0 0
-33.071835 545.661500 -29.889687 41 1
-110.260250 304.989590 -29.097187 59 1
46.957378 501.308620 -2.511358 46 1
44.424500 188.713820 -48.500256 0 0
-3.384980 417.849330 43.246380 71 1
-65.423149 476.226780 75.244072 64 1
-26.681501 208.261250 1.155107 0 0
27.901279 489.640810 95.732704 61 1
-67.706047 540.538020 -46.961704 41 1
37.167801 496.265110 -28.471710 43 1
-74.436371 426.116940 156.676440 42 1
-50.072937 292.454960 95.782738 73 1
113.640030 195.687360 -28.060719 67 1
80.811310 306.988980 -73.128716 34 1
-60.202232 424.982240 165.439640 42 1
6.076056 550.274600 -66.635490 41 1
-78.297638 299.137020 42.497971 0 0
23.604914 399.259060 35.000912 71 1
-132.453830 232.887070 100.099260 27 1
-96.554497 396.939360 -20.912968 72 1
2.824031 184.625170 52.294609 85 1
76.603493 98.544975 108.964230 22 1
-47.331497 380.921390 168.508040 42 1
-67.047737 230.418260 150.298810 28 1
-58.321087 481.634610 43.061443 0 0
20.106997 201.010670 69.837212 79 1
-19.641809 205.012800 16.562256 0 0
125.441220 132.400160 -30.063871 52 1
14.739634 86.429047 43.329514 0 0
-115.367220 347.284030 -39.256813 25 1
-60.385612 170.561940 -82.875877 17 1
-68.015610 346.180210 32.622478 72 1
107.584820 330.369510 -41.397808 21 1
-67.464737 147.960590 117.878110 30 1
60.518219 370.235810 106.571750 54 1
-7.483571 296.673000 -48.453278 60 1
60.132328 359.710600 87.400108 54 1
-16.212027 195.854610 32.940693 0 0
-31.587671 413.516820 178.142060 42 1
-50.326595 420.685000 113.274400 66 1
-110.555540 337.228580 82.059212 68 1
-38.353016 540.918760 -55.893772 41 1
-54.057304 398.314640 100.664060 68 1
-69.351074 383.873020 106.708120 68 1
38.947296 228.497390 31.380468 79 1
-22.453327 39.195526 -6.947967 0 0
152.223880 317.956820 38.791382 37 1
-30.451229 375.135680 7.366824 0 0
164.081150 251.161420 27.905560 38 1
46.930668 43.970520 16.547003 20 1
-39.210064 356.532470 74.317986 68 1
5.295903 358.327480 125.976760 53 1
-119.658450 98.146255 20.950726 8 1
29.607626 206.973430 -43.634296 0 0
-42.048107 126.138970 76.753052 0 0
41.914150 111.017040 20.199022 82 1
-7.056825 14.889332 -1.628123 0 0
4.466010 478.376160 1.445719 71 1
23.437744 293.344090 27.003502 0 0
-48.420933 269.690980 -2.240601 0 0
36.904629 88.584084 46.612988 83 1
63.925659 479.750850 -28.115152 46 1
-164.562000 328.306920 -55.638775 25 1
-84.494415 459.561040 -65.012993 62 1
34.770672 376.625310 56.689148 0 0
-13.841592 323.843290 25.677185 0 0
33.333046 185.430800 39.619469 0 0
-57.297455 363.300900 5.988162 72 1
-48.874203 512.066890 72.792107 63 1
-109.217630 184.472690 77.176262 13 1
29.519800 46.671936 23.073954 19 1
-102.734220 387.346890 4.591166 72 1
-41.765808 451.488920 21.051609 0 0
-119.851070 318.193080 6.342336 0 0
91.182663 499.565160 28.935783 46 1
128.431780 331.690220 26.134533 48 1
-55.385025 91.793007 39.677975 0 0
46.416275 408.223940 75.859276 70 1
7.125418 157.066220 -9.647292 0 0
17.090242 140.948170 36.868305 0 0
62.757431 394.512180 168.436840 50 1
6.845924 49.852539 22.697664 0 0
136.271180 202.684810 -105.469700 51 1
-48.151775 343.821620 87.253029 68 1
-2.450985 353.690550 -9.150139 0 0
20.081320 88.851143 24.270370 0 0
-37.523907 271.515110 18.895359 0 0
-38.743500 238.009920 5.554873 0 0
11.159299 143.526950 8.024094 0 0
-2.043456 187.540410 23.374783 0 0
-124.535120 300.735780 29.978025 0 0
-27.566717 346.026760 42.511349 0 0
77.281235 477.335210 18.474800 46 1
-31.605133 449.029330 -37.747490 72 1
-55.397858 510.978000 -39.786167 72 1
121.067320 346.466000 71.049095 48 1
136.725330 289.338100 78.050003 36 1
-16.803143 95.383575 -0.281735 0 0
-26.542370 278.260740 111.249600 73 1
-24.122618 278.732480 91.610481 73 1
-63.815830 184.598160 38.352486 76 1
9.480840 454.726810 -12.992533 71 1
18.259119 356.296420 19.492960 0 0
-64.037369 104.144960 -88.612427 32 1
51.392666 329.668030 35.579964 57 1
33.370350 410.160250 105.266680 54 1
-85.860733 123.172620 -155.583620 12 1
-102.896740 407.777250 28.332506 68 1
-109.143190 502.879790 -51.400871 62 1
173.142550 269.212650 8.267669 38 1
-70.338493 401.032780 159.421630 42 1
-7.031868 163.353820 79.178314 85 1
38.987957 473.607850 49.381496 0 0
54.503399 341.644470 168.871430 50 1
84.939835 483.458740 32.840736 46 1
-66.503494 305.584290 -80.278404 58 1
41.416382 104.582430 131.767360 14 1
69.387100 384.936040 25.233971 55 1
-47.499767 315.294190 -31.319241 60 1
18.619757 354.965180 55.156517 0 0
54.548897 547.092530 32.191467 47 1
26.886511 460.822720 22.136372 71 1
-33.176495 155.971620 -87.927185 16 1
-80.707489 475.480590 62.350918 64 1
101.099990 502.480770 -33.126629 44 1
-11.542054 505.590330 105.608620 63 1
7.845227 431.600590 120.671750 66 1
-106.462370 505.030700 102.677960 65 1
-64.765411 113.787280 -27.736219 33 1
-43.687359 497.129270 95.589523 63 1
18.854553 128.855290 99.310104 22 1
5.149463 404.022430 146.879780 50 1
-17.636707 150.777070 -83.422501 16 1
9.562410 476.529300 -30.335880 71 1
75.328369 490.220280 -48.406166 47 1
-45.507427 376.209990 90.406883 68 1
-11.802416 234.824770 156.522540 74 1
-103.272130 173.275050 37.231583 40 1
-105.047680 353.224550 11.522401 72 1
108.456180 147.920010 14.672380 78 1
66.317940 378.014100 122.236530 54 1
64.005028 292.938960 -92.555130 23 1
44.801552 114.690620 -3.851666 82 1
-89.731644 291.845150 78.739555 80 1
70.653656 404.196470 64.509628 0 0
106.943240 370.222630 1.277033 48 1
83.953995 347.831180 69.623314 55 1
174.078990 352.721890 -1.076303 1 1
95.666473 274.390750 -112.130770 45 1
139.228040 298.691250 7.229868 37 1
-174.061610 338.210330 -28.344439 26 1
48.417370 277.032350 128.708710 75 1
-62.510883 269.961240 38.215084 0 0
-10.485100 104.630970 124.973010 15 1
51.220184 555.350950 8.034164 47 1
79.941551 355.057740 26.361523 55 1
32.736015 370.597750 34.514717 0 0
-25.890514 521.846560 82.356239 63 1
-45.155594 166.605500 -62.849926 17 1
26.731911 350.049990 84.215828 53 1
12.381131 435.794650 22.423052 71 1
-96.967758 284.633120 19.924006 0 0
-114.899630 363.183290 45.720505 68 1
-100.587130 492.841160 44.174332 64 1
-136.376500 328.489960 3.161283 25 1
50.947742 321.760160 -0.382203 57 1
34.991314 483.679660 8.804922 71 1
-59.751240 443.658080 103.207050 66 1
-11.218303 173.079770 7.740039 0 0
143.888340 261.646090 20.112240 37 1
115.942750 484.140780 -17.306194 44 1
-154.016370 336.046420 -10.094763 25 1
-151.636860 330.501280 -31.305841 25 1
-66.951431 419.710540 -69.683029 62 1
181.083020 325.858340 5.625233 1 1
75.225311 540.774230 -7.346850 47 1
1.462024 356.486760 40.563400 0 0
-5.856290 430.769290 141.883450 66 1
100.514380 362.522280 89.136169 54 1
-114.153330 357.274930 75.038719 68 1
-40.663162 286.321170 115.084810 73 1
-48.724533 135.193600 -120.727770 12 1
6.191001 196.938800 -43.236675 84 1
38.529583 89.221695 155.909870 14 1
-131.755510 316.137570 36.190918 24 1
-58.124935 148.981870 26.186346 0 0
67.745979 350.881470 158.112080 50 1
-131.321950 333.977390 28.510473 24 1
18.623339 269.314150 133.700900 75 1
89.333923 455.998960 -23.814993 46 1
-58.111618 442.880650 -35.567753 72 1
10.668346 114.519780 16.814438 0 0
96.856392 387.957370 88.288773 54 1
-10.599398 104.920180 15.447411 0 0
-22.789396 401.675540 132.085830 66 1
-0.321907 495.705320 72.123306 61 1
-134.259630 200.226790 -1.377705 11 1
26.284605 333.485200 66.118393 0 0
-18.875452 497.992370 4.751390 0 0
-66.436020 385.194920 155.029940 42 1
-55.848904 271.402070 83.170502 80 1
-103.564220 411.684300 49.361435 68 1
11.140685 177.084580 -30.391623 84 1
-72.992599 345.723940 66.812775 68 1
-66.914841 142.591480 94.334152 0 0
-4.865555 420.149350 -12.946292 71 1
84.307686 511.443630 36.753578 46 1
-121.106810 305.175450 49.845943 35 1
-35.436951 445.419400 100.157300 66 1
-25.236465 403.295350 21.055119 0 0
-107.048840 298.116150 91.075241 35 1
52.948341 444.378880 15.862406 71 1
-88.833755 264.004300 11.257705 0 0
-42.537823 416.998900 80.042313 68 1
-11.030559 406.786870 -2.527781 71 1
21.802429 428.500820 -8.347637 71 1
-1.285360 307.682310 20.976892 0 0
12.446587 405.911410 110.574350 50 1
24.342703 71.335777 26.409079 0 0
-101.999000 99.731323 81.432053 4 1
56.480503 116.985920 110.685850 22 1
59.288433 73.989746 177.920350 14 1
31.225674 342.492340 -21.193541 57 1
-56.605347 359.469820 21.616211 72 1
22.192352 523.297300 55.725517 61 1
114.457480 335.717470 13.885175 48 1
-36.620815 462.832820 -14.604872 72 1
-96.774635 234.165480 127.747220 27 1
12.729705 494.301910 -7.081720 71 1
20.027084 214.772630 43.549984 79 1
5.562704 160.912000 42.733479 0 0
18.835951 473.620790 16.157568 71 1
18.123041 321.407710 30.192562 0 0
-92.298813 125.179070 5.950222 7 1
16.286539 346.711030 -7.289584 0 0
-42.465267 315.745360 1.186400 60 1
-148.708790 191.781690 1.746291 11 1
-138.929630 303.067470 57.240589 24 1
57.127880 335.654690 105.807730 50 1
-28.938383 62.737988 150.333340 15 1
12.178446 389.697630 104.574930 50 1
-102.288900 409.112300 79.017616 68 1
-47.031231 380.453370 -16.117468 72 1
-83.647804 460.257200 111.632010 64 1
-90.626854 305.652010 58.247467 0 0
20.255077 181.763460 -68.038437 0 0
20.068304 322.606600 45.710125 0 0
33.169933 166.355180 -8.886021 0 0
-21.413183 514.722780 -38.411259 43 1
5.682697 60.802692 -0.104724 0 0
-9.133404 80.800285 36.900196 0 0
49.493286 501.756380 -38.961452 46 1
-82.792747 446.114690 5.946248 72 1
-55.021355 329.095580 -44.439762 58 1
10.109455 384.485930 15.230397 71 1
-6.813486 403.654110 122.641910 66 1
60.863628 102.280680 141.477020 14 1
-40.665382 177.531620 19.699949 0 0
48.959881 464.674070 11.859130 71 1
122.017970 143.571410 25.275124 78 1
150.406890 369.206910 0.829624 1 1
78.338844 366.039120 82.936363 54 1
45.048477 355.355440 116.509120 50 1
-196.156430 309.786410 -0.541803 26 1
-6.118022 419.467710 -29.172125 71 1
76.696320 546.151060 10.555993 47 1
29.669350 418.569030 138.250530 50 1
-113.948410 112.469420 46.732502 6 1
20.506603 286.086670 91.821892 73 1
-70.451637 163.971770 111.381890 30 1
-35.007790 172.144900 5.563495 0 0
-22.688921 356.976810 112.444880 53 1
21.327116 488.903440 68.960144 0 0
59.013618 375.490540 139.005770 50 1
123.080250 348.476750 45.325180 48 1
36.321449 309.857570 49.003899 0 0
-24.035192 390.989930 3.229210 0 0
-12.806646 178.155270 50.160088 85 1
1.079830 467.020140 -8.690945 71 1
-3.987201 90.483658 127.475650 15 1
-98.384705 442.384460 78.178986 64 1
156.657850 231.659290 11.884383 37 1
104.401040 523.352420 -16.819567 44 1
-39.014557 394.342620 61.052174 68 1
-18.653210 506.646820 25.596712 0 0
22.150652 512.526000 -44.529236 43 1
-73.149513 297.200290 -16.675140 0 0
-34.338455 309.542760 -16.210546 60 1
-107.614690 112.096960 28.615616 8 1
-25.137484 514.050230 -2.902342 0 0
-131.195020 322.438260 -13.608256 25 1
26.333536 330.373500 -29.990427 57 1
101.670330 361.617550 12.924713 48 1
-87.362045 513.584470 41.824409 64 1
-55.501690 507.842290 -17.297384 72 1
13.415166 285.704410 3.291745 0 0
-101.649710 295.025390 63.780041 80 1
32.557961 281.738490 -125.615820 23 1
-11.713733 355.883240 21.279280 0 0
-110.640750 134.934390 105.203060 30 1
41.804337 324.228730 -33.701698 57 1
-225.289810 309.028840 -16.454334 26 1
-85.987793 310.112210 -39.362747 59 1
2.079306 440.403810 -38.369328 71 1
77.216309 523.950990 -30.532970 47 1
17.469772 450.969330 -55.272469 71 1
40.611420 423.001830 48.689602 70 1
-31.586220 452.395320 37.074287 0 0
-13.146744 456.111910 31.673370 0 0
157.069850 277.446010 44.240738 37 1
122.197420 287.530700 56.559601 36 1
-23.458992 115.603740 2.286986 0 0
95.977432 339.703700 77.835236 55 1
44.576801 329.147000 117.798190 50 1
0.948507 74.665474 -7.173456 0 0
-74.816238 437.165740 -56.664097 62 1
49.753471 412.220550 141.766270 50 1
-66.685814 426.989750 58.942959 68 1
-49.637066 440.191800 169.002870 42 1
40.242409 384.650240 160.728330 50 1
164.274810 289.049070 56.595013 38 1
-45.138180 428.527070 90.266335 68 1
47.924423 137.416580 90.816833 22 1
-11.734264 311.045870 -2.927354 0 0
45.244713 262.819090 136.804500 75 1
25.624626 150.891360 25.790382 0 0
-58.919472 351.647860 166.958630 42 1
-50.213314 462.378110 52.696033 0 0
5.871684 352.156590 162.932530 53 1
3.433006 285.204990 129.368640 73 1
-128.969350 335.476290 47.667210 68 1
82.169312 210.737010 -94.037682 56 1
1.568213 252.647890 -10.197545 0 0
-25.514179 85.017685 -23.172770 0 0
120.181890 201.874160 -41.462547 67 1
-10.004848 441.075010 4.016077 71 1
11.267400 150.102430 -24.421259 0 0
-102.229110 290.043670 107.130970 35 1
-15.283850 505.651310 54.534519 61 1
-87.293327 109.814610 81.086273 4 1
-20.563717 399.360720 109.740710 66 1
-12.508050 370.294280 7.509367 0 0
35.565338 289.533660 -104.182460 23 1
-67.626625 396.688720 35.922485 68 1
96.357674 361.870150 151.351430 50 1
32.337624 102.572780 110.928670 22 1
-98.419128 506.730350 -36.372181 72 1
-34.471275 324.344880 100.266040 53 1
2.039312 407.398130 32.990746 71 1
124.752810 284.302060 -86.074547 45 1
27.255341 195.110170 20.732098 0 0
-37.414364 132.126420 22.537619 0 0
-138.322590 325.568910 -55.901695 25 1
-30.904310 196.805330 30.499786 0 0
-57.430370 408.693120 166.472630 42 1
-119.642810 293.505830 73.830322 35 1
19.257456 400.315770 -15.147279 71 1
-90.551056 355.693880 95.222740 68 1
18.667229 187.355350 56.006004 86 1
-119.811020 301.700440 2.679581 0 0
-134.249830 296.803160 76.818527 35 1
5.823564 502.918270 -67.499733 43 1
-88.564743 170.623930 29.576523 76 1
-81.970520 521.259220 -57.719395 62 1
-1.923417 513.452090 6.602811 0 0
-24.061224 526.528140 -23.193316 43 1
-73.103729 138.133060 -110.738650 12 1
97.256706 310.875060 -58.572411 45 1
126.062780 211.734480 -99.664711 51 1
-12.208572 150.831210 -5.508621 0 0
26.593353 473.230870 114.340520 61 1
-13.173721 277.095890 -15.487095 0 0
12.261166 417.553190 47.139210 70 1
-86.906822 149.680530 126.563710 9 1
-57.976810 295.278050 81.691917 80 1
-121.037970 114.910360 20.854685 8 1
-23.735577 478.134060 60.561005 0 0
66.262619 414.808350 50.505730 49 1
-20.897577 362.775670 -6.050418 72 1
-101.610690 484.186680 -57.071186 62 1
57.375416 290.450650 -115.099690 23 1
-24.740444 330.905270 47.895264 0 0
42.180218 116.447400 103.740810 22 1
-2.248641 457.720030 -40.292370 71 1
-129.533390 305.592530 -30.426714 59 1
25.774050 137.815170 -60.478680 16 1
-141.223370 334.977170 17.624063 24 1
-28.052849 192.583440 -15.228644 0 0
-44.822498 249.969540 140.253310 29 1
-71.794540 270.549350 77.069328 80 1
20.867729 457.382570 -28.153507 71 1
-134.136690 198.564830 50.447819 10 1
146.204570 271.568910 3.862863 37 1
-16.726498 424.211730 12.846597 71 1
70.757942 287.212370 -56.638508 34 1
71.011551 466.912750 -45.077484 46 1
26.365509 123.437430 -83.248276 16 1
176.789670 304.073730 34.740345 38 1
3.544164 476.922970 52.067192 0 0
29.615511 284.922330 38.305706 0 0
1.207568 535.100830 44.677578 61 1
-9.416276 446.048220 116.490820 66 1
8.194304 288.477200 20.215076 0 0
-18.134783 93.433929 28.822119 0 0
-91.335800 107.979800 56.471043 7 1
14.029529 93.276443 126.912170 15 1
17.699379 517.380620 0.738186 43 1
46.471607 280.217590 -130.373640 23 1
-155.187040 189.053070 59.832844 10 1
98.050484 362.621950 38.373859 48 1
-39.354645 255.752410 17.594267 0 0
24.510139 43.627201 8.685495 0 0
9.739784 205.109630 23.366732 0 0
-27.128082 92.526459 122.450560 15 1
135.348660 289.012880 23.342640 37 1
2.200427 42.561962 10.188245 0 0
95.944748 290.263370 -89.609413 45 1
-1.973683 292.267330 3.995745 0 0
-89.654686 159.000030 -33.472565 17 1
76.741455 193.093480 -111.915390 56 1
-112.675060 461.050660 94.745354 64 1
61.063980 501.881680 8.051380 46 1
-9.206986 289.701390 89.413368 73 1
-60.924442 405.323640 22.629021 0 0
12.998882 399.342320 60.667938 70 1
-98.709282 304.139070 25.169033 0 0
6.547738 508.840330 71.741150 61 1
-42.002426 360.262050 20.617256 0 0
-142.279370 82.123688 72.992325 3 1
-34.242027 385.311680 28.132755 0 0
-169.348650 174.490480 51.157093 10 1
-85.678459 493.392850 -23.000240 72 1
12.902912 169.999980 -13.246573 0 0
-129.466900 488.731110 61.989288 64 1
60.989780 409.544310 74.878662 54 1
-57.619011 309.704250 -52.010204 58 1
17.444630 532.452090 13.929556 43 1
29.612740 418.135590 57.512283 70 1
-11.147057 416.464510 147.664000 66 1
-107.172840 239.132100 118.296710 27 1
-29.526937 351.229860 99.601227 53 1
-43.085869 350.572110 40.163502 0 0
-1.195920 511.067230 21.515377 0 0
6.107370 89.004135 20.130791 0 0
55.854485 94.047356 62.539425 83 1
-2.186440 102.691390 -13.000763 0 0
37.987762 445.586120 -5.810409 71 1
127.996840 264.692410 -105.396840 45 1
87.618233 299.096800 -32.865414 34 1
-4.084447 387.758000 28.122454 71 1
133.000400 332.137760 49.934143 48 1
114.603280 335.223420 -29.637583 21 1
-92.284966 109.706310 -44.967358 2 1
-13.122026 276.350250 116.469180 73 1
6.812398 332.171540 47.121944 0 0
-28.925543 460.876280 104.931840 66 1
59.452251 365.057130 6.072727 57 1
-15.011664 151.882660 -68.479126 16 1
-71.447815 418.457150 -31.374039 72 1
30.128807 386.354920 46.198208 0 0
132.545350 279.667210 4.326343 37 1
1.850715 380.323240 121.770970 53 1
84.099167 497.825740 9.673666 46 1
-16.746130 201.890490 -27.643028 0 0
-31.977858 397.820310 86.520874 68 1
178.538910 290.881410 10.715760 38 1
9.109469 191.383580 -29.370184 84 1
-85.124420 102.323860 -8.322156 33 1
-5.439663 348.214170 62.474674 0 0
0.973734 465.495850 27.855377 0 0
-88.077454 504.815430 -72.455284 62 1
60.101837 403.047850 42.030651 0 0
-7.204405 64.855110 -14.683000 0 0
-14.657621 489.090240 -7.974285 0 0
49.888954 213.894440 42.839962 79 1
-86.367966 474.580230 124.735080 65 1
-105.134760 313.462340 7.155264 0 0
53.302399 363.456700 43.792076 57 1
-113.856380 507.128420 65.443901 64 1
10.572836 240.261080 14.158651 0 0
-65.691193 88.084625 -5.040097 33 1
-6.488190 216.213240 -9.065262 0 0
10.418200 93.558891 151.410030 14 1
56.079178 209.547500 72.219521 79 1
50.390423 390.755430 44.909431 0 0
-22.210407 112.868180 -12.325520 0 0
-19.215981 465.332860 85.096878 69 1
-58.021484 167.450820 -38.764751 17 1
-140.712590 333.519960 -21.338400 25 1
106.670070 346.555690 34.305347 48 1
-151.390810 329.453370 -49.615124 25 1
35.646198 365.492860 -2.816516 57 1
-99.916595 315.238280 64.545708 35 1
-100.323540 418.475950 67.369766 68 1
-103.417120 468.410490 -24.910238 72 1
-6.765487 312.937470 42.164528 0 0
27.177464 171.877940 13.173017 0 0
-174.658140 191.128140 40.069599 10 1
-20.282217 343.107150 28.017721 0 0
-86.991013 447.009980 -44.079578 62 1
-27.626698 157.270490 -57.724354 16 1
90.837967 479.899170 -10.313237 46 1
82.326508 528.317930 -10.833822 47 1
-71.780891 312.707400 -39.346081 59 1
-6.828223 349.253720 145.738130 53 1
-62.857887 473.452330 -70.478020 62 1
29.766037 529.564330 66.197128 61 1
-19.860062 501.732640 116.957610 63 1
102.798680 519.050960 11.128526 47 1
-40.670837 322.605100 26.001316 0 0
51.444126 484.594270 50.409321 0 0
-85.484428 452.203340 77.540787 64 1
52.545647 329.529750 -17.314613 57 1
-85.297729 286.662080 40.491085 0 0
-11.663916 408.519990 22.974714 71 1
38.376549 438.483460 19.740776 71 1
-75.689972 512.105710 -15.835936 72 1
104.013770 213.388750 -77.025787 51 1
11.595630 374.061550 -4.139377 0 0
-36.180069 167.401980 40.015076 0 0
14.149066 451.759860 -41.356144 71 1
-66.566360 461.452940 17.339928 0 0
142.835340 266.983700 90.740471 36 1
-8.983152 535.061400 2.181406 43 1
-183.050640 330.094360 -13.011189 26 1
-43.452847 128.891330 -136.148560 12 1
73.273056 342.716550 -5.065954 57 1
65.917465 380.026460 80.472687 54 1
-5.200262 379.214720 92.737846 53 1
-130.436420 339.117430 -40.955524 25 1
116.854700 304.200740 57.846920 36 1
-54.735538 457.379150 24.603489 0 0
19.960716 135.333190 -76.337883 16 1
48.363293 366.256200 166.982620 50 1
73.174171 407.067260 148.279830 54 1
134.834870 131.952160 -8.318980 87 1
-120.212940 495.102260 27.732290 64 1
136.714720 180.918660 -28.287872 67 1
132.834230 375.615780 3.464672 1 1
-89.149506 457.651150 0.508221 72 1
114.443890 388.010100 107.710850 54 1
-126.429010 201.710020 16.633926 11 1
-47.208679 233.876880 158.593840 29 1
51.551491 262.204010 149.557370 75 1
-21.699009 305.371610 -40.816383 60 1
-0.108196 110.592020 5.861595 0 0
79.146103 289.340550 -95.682976 45 1
89.569061 535.255310 -30.234779 44 1
-55.319157 393.380250 45.195778 68 1
-80.723946 240.520830 109.843240 0 0
26.912603 353.428410 170.397030 50 1
122.519910 335.088350 39.298058 48 1
-131.955000 104.536120 59.374477 3 1
29.439482 217.909910 28.461956 79 1
-55.137142 203.046620 -0.305477 0 0
-33.714767 294.305080 34.137524 0 0
-100.631770 89.568680 -56.692120 2 1
-110.625420 392.049960 29.553061 68 1
105.074780 500.644500 -2.857819 46 1
-105.258720 473.851230 67.370934 64 1
-47.960133 93.999779 3.402942 0 0
53.927555 391.266050 67.105110 0 0
-92.357269 117.803940 41.964954 7 1
-43.307182 526.405760 64.113014 63 1
-33.153984 189.254320 -28.954475 0 0
70.424210 467.229340 -29.934908 46 1
-107.528820 364.010220 30.910793 68 1
-62.856613 455.774990 -40.524921 72 1
8.367539 177.053740 27.221092 0 0
10.904854 277.000370 120.076910 74 1
-35.927795 419.600100 5.535806 0 0
40.104031 413.975100 37.638783 70 1
26.127106 184.210110 -52.421669 84 1
-51.882397 119.339940 -144.838940 12 1
-18.810583 74.309952 46.872498 81 1
-7.811465 136.752900 5.997230 0 0
58.706432 347.390660 73.976707 0 0
-2.217350 406.871670 109.623360 66 1
65.528206 371.696900 170.039400 50 1
33.362099 96.409103 140.248410 14 1
-52.042259 473.385500 114.314540 64 1
106.157780 343.313810 49.493076 48 1
-45.586800 173.840420 68.414230 0 0
103.441840 399.546910 96.102493 54 1
-68.821640 175.096070 -32.703995 17 1
33.355522 112.549680 32.453945 83 1
-37.290604 504.789670 111.815750 63 1
86.957481 384.234010 136.537890 54 1
-37.122906 498.812960 -14.787877 0 0
-85.335304 132.735150 147.698290 9 1
94.186829 536.105900 -4.458291 44 1
-79.050041 112.254060 -30.803583 33 1
-97.351707 282.546480 5.846606 0 0
-105.634850 171.157470 -72.261818 17 1
34.130630 357.108830 74.583847 0 0
-10.269391 90.398834 16.313843 0 0
-82.976532 228.718770 144.185780 28 1
32.476685 101.197330 50.922291 83 1
92.186462 211.062670 -51.528442 67 1
100.065010 194.027310 -23.783136 67 1
65.275589 547.031860 -23.705732 47 1
-110.235350 68.803574 -55.156906 2 1
-202.942020 325.666350 -25.020916 26 1
136.297390 197.840840 -62.128876 51 1
-31.649237 329.745240 35.143826 0 0
-46.213871 371.447240 11.371630 72 1
110.362530 464.491270 -21.336821 44 1
-53.498657 182.024860 12.790229 0 0
2.503156 4.597043 -1.059581 0 0
-56.843716 466.332730 -48.164825 72 1
-43.386570 498.223390 19.517504 0 0
123.576020 374.929080 -15.762031 1 1
-96.270660 221.397640 160.320250 28 1
-1.335850 450.574490 9.935076 71 1
-16.514950 62.231319 57.106651 81 1
-52.034813 193.518200 -13.803011 0 0
146.163600 308.021670 19.259918 37 1
-22.488724 385.450870 -14.993114 72 1
-2.197378 469.069610 64.571877 0 0
86.637589 300.410980 -51.622185 34 1
-52.999592 379.406980 117.149570 66 1
-7.147531 491.924930 26.985203 0 0
60.135441 227.208050 26.203363 0 0
-144.952480 318.132630 -31.647503 25 1
-220.751040 300.393160 2.781122 26 1
-34.827843 86.744881 33.191376 0 0
-35.273449 469.999270 9.146469 0 0
4.293792 69.100647 12.577688 0 0
-143.045410 330.000030 -76.728256 25 1
-51.593220 128.654690 141.390870 31 1
50.056759 98.671684 48.257851 83 1
-73.253944 418.157680 71.877678 68 1
-56.600990 318.824950 -5.338484 60 1
-82.699501 285.680210 65.899757 80 1
4.584477 31.566849 -0.694957 0 0
37.200577 141.356780 82.597961 22 1
53.283592 521.288150 36.783813 46 1
-120.165340 286.357850 24.711676 0 0
77.103958 322.163910 5.260626 0 0
146.800720 304.529630 42.818604 36 1
-12.393654 508.707670 -1.556015 0 0
-37.640293 158.940080 9.759243 0 0
-118.427190 200.277480 37.127270 11 1
38.824986 127.643140 1.813692 82 1
-82.692940 424.104190 144.478360 42 1
-31.708750 494.596740 0.747383 0 0
142.277130 362.333220 -20.426708 1 1
161.682430 360.262630 -29.031075 1 1
1.624771 251.591130 18.279654 0 0
61.526146 262.488460 -57.584209 0 0
-6.184907 358.682650 134.090010 53 1
-11.001174 136.329410 -16.726851 0 0
-113.759830 469.223910 32.467304 64 1
132.269000 302.277890 20.909872 37 1
-67.011818 395.423070 -23.670412 72 1
99.249626 516.352600 -28.085258 44 1
-82.048180 166.856170 104.078260 30 1
-107.441670 392.411320 77.399513 68 1
-26.182215 299.244200 -60.409306 60 1
-122.179940 343.103880 38.396179 68 1
-97.663292 439.992130 -49.749542 62 1
113.908400 297.017400 42.287201 36 1
-19.035950 416.177580 92.290154 68 1
-28.878431 415.167080 -35.801796 72 1
-28.894045 378.195010 124.209920 66 1
-29.754517 427.199040 178.364380 42 1
-1.875726 398.366330 47.059231 70 1
147.318100 284.456760 70.579742 36 1
112.343600 515.467410 -8.794790 44 1
25.081799 344.189510 113.267490 53 1
-47.940651 281.860600 74.293564 80 1
23.117603 120.239940 55.159637 83 1
14.211341 436.038970 -17.007257 71 1
-9.988966 258.529510 2.151933 0 0
71.124001 479.356960 31.314772 46 1
-25.266388 185.175420 48.408409 85 1
-100.257070 168.791000 64.583878 40 1
11.975396 193.067720 29.641159 0 0
-45.054226 433.367950 -1.634280 72 1
61.760643 493.147950 33.619938 46 1
-71.340393 151.831270 104.254260 30 1
-1.191273 13.922733 10.879225 0 0
-5.583462 62.090546 65.435410 81 1
-32.444180 298.891660 -33.900562 60 1
-2.165872 483.270690 -27.963461 71 1
11.810493 260.796810 32.257492 0 0
-77.852104 340.120300 85.918228 68 1
167.799030 365.393770 6.796888 1 1
-37.889488 132.117680 141.124190 31 1
-65.141922 518.592590 76.775238 63 1
160.113400 304.278560 48.550823 37 1
60.793396 320.835720 12.429608 57 1
-16.750748 57.597881 8.988779 0 0
-107.370630 465.167510 115.813350 65 1
23.539648 398.492610 48.756275 70 1
64.350670 534.107790 -31.884525 47 1
-19.744335 268.596250 100.337140 73 1
97.248665 351.273410 70.566559 55 1
-39.749908 206.042110 -37.888283 0 0
20.187120 421.132570 31.682402 71 1
84.631027 534.347720 17.643150 47 1
-63.364605 371.751590 -11.522015 72 1
-28.864050 138.322070 -115.050510 12 1
55.524773 421.731320 55.426628 49 1
18.220268 147.100160 -53.837814 16 1
-124.790860 95.474464 38.977177 6 1
80.269142 354.478420 108.771550 54 1
65.012093 345.053890 46.863190 57 1
-23.490034 193.915790 -1.102193 0 0
-48.683186 178.339100 0.327753 0 0
-87.823387 122.302540 162.078780 9 1
-11.145816 176.167500 76.256462 85 1
-57.841125 167.763750 -53.109131 17 1
-32.304298 377.706670 -7.704463 72 1
-95.941490 399.130130 1.665317 72 1
-64.984734 463.189700 43.325527 0 0
82.550797 363.255620 146.774050 50 1
-71.099731 191.626160 8.754305 76 1
-44.538326 456.807560 -61.357464 62 1
36.343002 331.045870 164.357190 50 1
91.802895 476.310670 -29.412134 46 1
-8.793605 453.236630 -56.138741 71 1
-44.629108 277.738460 90.970718 73 1
7.830189 524.268490 -5.675149 43 1
-65.185158 452.409240 131.096860 64 1
88.846832 363.766600 117.364200 54 1
168.034440 257.540710 13.527929 38 1
60.578884 388.829440 136.049510 50 1
-80.151474 504.273160 -57.696728 62 1
15.083488 356.662930 68.199226 0 0
81.909851 222.018310 -62.847218 56 1
-122.881650 226.735600 120.732490 27 1
-116.616200 498.651180 -40.776966 62 1
-12.793510 207.325390 -0.921801 0 0
-71.696381 127.942740 -132.444200 12 1
-14.428026 373.828950 32.439156 0 0
-0.876282 404.638920 6.251895 71 1
-54.702850 484.477420 79.343605 64 1
56.636028 62.021904 184.020030 14 1
-27.330502 458.919310 118.285710 66 1
29.029089 179.978550 -8.667459 0 0
48.999393 338.188780 -28.565632 57 1
-61.838631 145.760310 130.140240 31 1
12.915693 499.534640 5.547801 71 1
-7.550550 479.164890 44.372513 0 0
-19.687769 187.044980 -37.192558 84 1
-66.421692 438.604490 9.240237 72 1
57.784992 408.688020 165.875490 50 1
54.403294 424.877750 143.231610 50 1
76.791267 395.009400 161.546920 50 1
-90.349564 139.134080 -138.590870 12 1
-90.378380 512.577760 79.204094 64 1
-123.286640 346.697600 -9.770203 25 1
2.694664 335.002440 19.368134 0 0
-62.165188 108.879070 -44.069004 32 1
49.759575 517.286500 -38.333195 47 1
55.696308 104.251740 124.527860 22 1
153.195300 296.962400 57.609604 36 1
26.826944 343.092010 139.164540 53 1
13.313835 201.610490 -1.333212 0 0
-113.149330 301.318330 60.406170 35 1
46.111076 412.964110 159.937060 50 1
-24.028381 422.501800 -1.322992 0 0
-36.765503 182.842380 -9.720131 0 0
-88.386734 203.641980 144.944790 28 1
56.936161 361.888850 143.083510 50 1
-39.678566 262.291320 135.023820 29 1
-57.304909 282.920170 -4.377540 0 0
-27.464960 417.199950 -14.673966 72 1
-67.518600 487.757050 -71.816826 62 1
62.222336 206.265370 59.733620 79 1
-2.425404 352.307130 97.180077 53 1
-20.432995 331.360630 114.668980 53 1
-92.166489 406.346860 20.266109 68 1
92.844093 348.187440 5.668706 0 0
-19.198410 175.915830 18.245697 0 0
5.067390 90.019432 34.321716 0 0
162.403520 348.400390 -9.958029 1 1
-23.430370 128.258090 21.829769 0 0
-100.292300 433.636900 -7.741399 72 1
35.128445 418.935550 125.418000 50 1
-4.204914 201.852720 -9.872188 0 0
40.737225 292.631620 -91.148697 23 1
25.142969 324.269320 11.133520 0 0
-115.926410 484.056950 91.193878 64 1
-59.328789 424.862430 83.117783 68 1
-93.418022 453.125520 132.550090 65 1
72.309128 485.648830 9.133878 46 1
57.784027 352.626220 -11.054147 57 1
73.405075 390.686310 124.193980 54 1
-3.135500 486.904880 82.487701 61 1
111.426720 362.948360 105.523540 54 1
-179.478840 327.308620 -34.058956 26 1
-89.563828 522.129460 59.544918 64 1
-13.411812 457.520200 110.435390 66 1
-69.639336 434.560120 -34.422798 72 1
-53.805191 195.467560 11.225994 0 0
-65.887543 408.848480 96.258919 68 1
-54.239407 542.130370 -42.852852 41 1
-3.436021 323.804630 56.905560 0 0
169.177430 310.572600 25.412647 38 1
95.668938 388.623080 38.531513 55 1
12.725590 112.684060 113.213100 15 1
-4.438704 122.406790 1.130097 0 0
-37.218430 245.463940 150.490980 29 1
-121.138860 152.917430 60.769772 40 1
84.800690 208.006410 -75.233803 56 1
33.830444 500.795070 -10.958834 43 1
-85.620331 434.805020 126.031280 42 1
43.988285 362.992950 98.276848 50 1
78.118980 351.236020 166.572620 50 1
-68.216827 326.968170 -42.856632 58 1
135.543880 317.201540 25.683018 36 1
24.808672 182.635190 -35.429798 84 1
109.799120 307.814330 -62.127453 45 1
-2.763078 96.471260 0.880995 0 0
26.034426 535.614320 -12.295602 47 1
74.442657 241.191850 25.095387 0 0
-25.397007 153.235260 67.434692 0 0
34.039848 534.633540 23.749289 46 1
77.391411 121.685550 76.019722 22 1
88.817375 336.671630 17.071932 57 1
54.540630 94.790237 155.498640 14 1
-36.864571 196.602750 15.415991 0 0
-45.492970 462.731230 127.537280 64 1
-71.110176 105.446630 9.329133 0 0
65.895515 337.533140 20.323574 57 1
49.763779 81.519203 62.150806 83 1
-48.046387 347.565670 26.531639 0 0
75.392555 375.170810 160.998090 50 1
-108.692680 498.441890 34.309807 64 1
-22.092714 534.172360 -0.759356 43 1
-144.619720 312.684050 36.795082 24 1
-118.351650 285.100190 86.151787 35 1
-67.726196 326.845980 89.484566 68 1
4.402755 77.824707 43.882317 0 0
-12.004060 544.375730 -49.430756 41 1
-49.887577 458.030550 66.098358 0 0
-52.436588 414.761660 59.526932 68 1
-19.477325 163.568570 73.714920 85 1
-25.241318 87.339241 6.437634 0 0
92.357628 375.207310 33.830830 55 1
-3.464069 344.081700 39.406517 0 0
101.478650 353.662930 130.451540 54 1
32.101318 383.185880 67.942642 0 0
-3.035973 162.715070 66.514801 85 1
-86.810249 399.833130 144.071290 42 1
64.370033 328.226010 -11.097096 57 1
-140.051700 195.343050 26.104561 11 1
-11.204432 162.172620 48.750378 0 0
-12.705689 344.938720 -8.442857 0 0
-98.181847 291.370570 40.638420 0 0
-72.242004 310.169920 -19.365555 59 1
2.942885 136.291170 -91.720528 16 1
-3.117685 325.822570 -1.188476 0 0
-3.547983 373.138610 69.321526 53 1
167.898010 336.888790 -18.325241 1 1
41.380157 423.163540 11.172064 71 1
106.022730 158.044540 6.453099 78 1
-115.660940 149.023150 77.569992 40 1
30.229420 538.522580 10.109972 47 1
-31.189793 443.623720 19.600004 0 0
55.269398 477.248540 11.964444 46 1
-107.884830 461.348510 -35.729393 62 1
2.642486 336.949550 63.192158 0 0
-92.024269 246.345200 103.995290 27 1
