-34.224972 158.880080 -13.458327 0 0
-75.306946 112.893980 -120.854070 44 1
-117.302190 124.650830 -242.247310 24 1
97.899574 172.411000 77.823311 21 1
17.690302 175.851580 11.047674 0 0
-18.566784 148.299530 -186.371250 51 1
54.465702 281.471560 -107.022130 39 1
3.220975 188.756130 -259.383240 25 1
38.166286 170.994060 -18.538916 0 0
-135.006350 180.575270 -46.838352 60 1
84.053177 313.700130 129.132190 0 0
-136.267820 128.078750 -19.966543 28 1
-52.697845 127.035000 -197.968920 51 1
31.161261 599.918270 14.153709 34 1
-77.831917 191.490230 -89.208397 58 1
-72.654961 535.726810 218.837300 45 1
-97.694199 138.834080 -176.105260 52 1
35.065987 270.455230 -53.623291 43 1
50.361286 416.489040 210.619420 0 0
40.966156 137.063640 -18.432404 0 0
-104.289910 182.684880 -208.441390 55 1
54.082272 228.611620 -47.458981 0 0
-14.672556 135.631810 -96.839722 46 1
52.056252 543.417910 124.868130 13 1
0.312055 275.212190 25.461229 0 0
9.504321 275.605500 -66.350822 43 1
-82.532242 190.750000 -151.493590 59 1
-107.872680 145.530360 -240.646740 24 1
130.281770 466.554630 210.552350 6 1
26.733940 271.194490 72.989098 32 1
-88.531387 239.981870 -189.860030 55 1
-4.944818 251.211820 69.524376 33 1
-154.257720 465.600400 40.112072 65 1
-96.900696 128.935100 -160.523090 52 1
129.826840 538.750000 11.552955 10 1
-10.137601 627.874020 -17.669683 12 1
16.415058 119.578100 -76.852318 0 0
102.245090 496.962130 261.131900 5 1
9.360629 392.144170 221.763920 17 1
100.234640 224.308870 -112.679000 26 1
24.480036 279.231110 24.919178 0 0
69.314186 472.919430 66.461060 0 0
64.324249 296.490140 -36.733173 42 1
73.086967 567.629940 73.783447 11 1
13.406527 45.328236 -24.644146 0 0
-116.722780 267.980870 -95.238297 61 1
22.821779 191.742390 -40.433578 0 0
57.302883 281.651340 -65.410118 43 1
27.156174 374.353150 12.872457 0 0
-15.971350 165.593660 -143.310490 0 0
-5.993061 107.079860 -79.312721 0 0
-107.226610 254.449050 -102.292340 0 0
103.495900 166.675230 94.875801 21 1
-49.504494 523.671690 219.362270 45 1
-91.972443 244.214770 -16.753483 62 1
-8.715648 193.465270 -124.067650 0 0
17.672953 116.299030 -30.611874 0 0
-157.592090 440.608610 -45.177689 66 1
15.963964 263.590150 154.429340 0 0
90.471977 543.885800 180.503890 64 1
-88.554924 89.458656 -109.105450 49 1
-9.495007 395.178740 201.707780 18 1
14.316788 197.449040 -17.168833 0 0
18.585846 595.920170 -2.737545 23 1
-66.253822 85.672127 70.355392 7 1
-70.528618 139.106520 -60.853840 47 1
51.139523 407.114780 31.777224 0 0
-20.564444 192.344820 -241.305150 25 1
22.655922 587.329530 -29.439400 23 1
104.992230 251.830370 -48.978214 35 1
-124.343420 169.573060 -61.325268 60 1
-98.934013 525.031920 -9.873860 3 1
49.334164 602.639340 17.000725 34 1
72.513054 257.051330 -37.820267 36 1
-30.002945 509.299770 173.928790 9 1
72.117439 365.512270 173.937360 14 1
59.156670 442.967860 219.151870 0 0
2.512280 105.596430 -48.234627 0 0
-79.695679 258.043580 -106.486050 58 1
28.236223 183.934340 91.349144 0 0
-45.017471 464.281040 4.128949 0 0
-139.765010 152.070790 -242.672100 24 1
-59.387970 158.871750 -209.458600 55 1
-155.577610 189.092740 -159.077480 54 1
-46.561424 174.131930 -245.456150 25 1
-7.551423 168.864490 -284.755340 25 1
-100.023540 542.643430 232.805070 45 1
40.284916 369.332860 184.033200 0 0
-41.878792 540.176210 -32.963036 4 1
-60.018833 200.627060 -124.595020 58 1
-88.177032 254.851490 4.689030 62 1
24.356213 419.388920 15.677001 0 0
-61.693535 248.002550 -8.779576 62 1
-58.807259 110.680340 -111.597570 44 1
23.402435 270.364870 -95.289055 43 1
-21.569498 207.867800 -127.535020 58 1
16.506941 148.716550 -103.208340 46 1
93.124985 511.123110 57.332600 0 0
-69.547546 129.713640 -94.973495 44 1
-55.035564 89.445946 82.521744 7 1
-89.317299 267.036990 -57.429779 0 0
29.027781 133.704420 -120.580700 46 1
-20.878170 257.876560 -87.554535 43 1
-114.946240 139.241580 -164.696780 52 1
60.686523 175.563780 -6.987670 0 0
200.993040 581.563720 97.781631 1 1
-12.619915 205.441060 -92.947342 0 0
-12.988774 202.651860 -212.166730 40 1
35.159096 167.976320 -35.088661 0 0
-89.085167 213.407420 -131.711720 59 1
6.374406 64.452843 -3.041592 0 0
66.512993 541.215210 134.068890 13 1
-53.602520 60.045540 89.250786 7 1
-119.758070 132.826140 42.582581 27 1
-66.824791 184.579150 -41.849995 0 0
-189.442470 440.329190 34.510494 65 1
-68.146805 292.601680 -99.634468 0 0
132.828080 288.241670 -15.505682 42 1
87.352829 570.987000 139.490550 11 1
-69.633240 142.600370 -166.100740 52 1
-113.080150 169.847980 -234.516370 24 1
-90.179985 249.183040 -94.430321 58 1
76.873306 573.111690 101.825950 11 1
-22.699724 241.516480 -69.300903 0 0
140.473890 319.737120 114.246190 15 1
-10.789252 148.081700 -60.383331 0 0
33.080486 216.942120 -215.198430 40 1
-46.799763 528.138730 -21.178383 4 1
-29.657713 178.006650 -124.186800 0 0
-83.155235 196.897520 -254.817600 55 1
29.470060 289.706240 -0.650557 0 0
17.353809 135.819600 -23.743097 0 0
80.546349 181.353300 174.604540 19 1
88.364357 190.005310 80.709290 21 1
14.228355 404.338680 22.161827 0 0
59.775021 202.265790 89.668823 21 1
-1.410017 224.047360 -49.205257 0 0
-78.544975 76.468483 -129.524030 44 1
-101.971090 515.729430 16.415861 3 1
-53.328484 541.377440 -46.562546 4 1
81.958427 259.821140 -56.836712 36 1
21.252846 398.316620 234.672710 17 1
-26.327541 200.520290 -62.842209 0 0
-14.976330 117.503000 -125.033390 0 0
8.150477 123.151290 21.335573 0 0
-62.422928 517.240360 193.642590 45 1
-52.063854 105.402060 85.666985 7 1
3.919083 261.138370 -72.057259 43 1
-34.421543 370.672910 -132.438810 0 0
85.953438 202.340870 135.211820 19 1
-27.809019 118.135100 -45.703903 0 0
38.680397 283.824280 -139.305540 39 1
-46.052902 217.190890 -99.154892 58 1
-124.322880 138.768570 -150.508640 52 1
1.287722 274.944580 80.535698 33 1
2.261733 175.942060 -136.235920 0 0
-160.727510 212.568180 -129.427540 57 1
11.146630 145.511800 7.239800 0 0
-47.497902 88.840050 -1.297484 0 0
4.605593 304.015620 10.289230 0 0
-48.454342 149.689220 -38.299454 47 1
-1.432660 239.065570 35.404476 0 0
-62.500500 264.693390 -95.226364 58 1
-91.042770 534.682190 -87.204071 2 1
-10.761148 72.001450 -19.541531 0 0
10.132755 325.940430 155.389510 0 0
82.597656 299.765320 -22.065683 42 1
67.212830 457.177610 24.798622 30 1
-125.829800 58.764912 -98.430931 49 1
-0.289094 414.766510 235.192720 18 1
-65.300896 96.025398 -127.167860 44 1
-46.487110 644.039790 13.408457 12 1
34.296402 281.487700 -66.922821 43 1
-27.245850 489.757020 224.074810 56 1
5.535470 199.189680 1.321617 0 0
29.427649 188.162380 -4.466249 0 0
-83.660164 90.990311 -190.911470 50 1
61.669094 332.918210 45.812622 38 1
20.212208 43.127022 -3.441803 0 0
-18.336376 250.285420 84.190094 33 1
-82.311066 530.313780 12.470201 3 1
-104.054460 108.352330 -69.606255 48 1
-107.323840 274.933810 -160.470110 61 1
128.646100 332.026120 140.506840 15 1
-82.314438 280.251310 -182.243360 29 1
-32.485764 106.368320 -34.493317 0 0
-113.926830 177.397380 -136.283890 53 1
-107.076370 530.587650 206.891630 45 1
201.367450 584.013850 81.375732 1 1
-144.024310 79.671204 -166.098540 50 1
112.454640 451.837400 9.824899 30 1
-30.886669 184.868030 -106.294810 0 0
96.731270 236.604430 -44.359798 37 1
-134.489230 223.581990 -118.366290 57 1
-110.341610 264.816710 -136.560820 61 1
38.863319 200.270340 116.493350 21 1
-153.941820 221.770810 -104.134830 57 1
-90.992996 224.837540 -24.491423 62 1
21.365683 321.798680 182.587360 0 0
-55.532677 114.695800 -29.721901 0 0
-173.001980 456.290410 47.655144 65 1
-35.951939 513.139400 158.094530 9 1
-93.303436 122.878930 -32.532478 47 1
103.336240 229.728270 -159.529630 26 1
-38.720444 135.289220 -213.693100 55 1
-23.390060 232.076200 -99.680977 0 0
87.798004 568.345830 122.432860 11 1
-81.183121 528.821040 53.849167 3 1
-13.605657 100.202800 -64.129692 0 0
-49.671295 180.445070 -46.074738 0 0
6.064006 169.598830 -43.777138 0 0
42.869537 281.721370 67.882027 32 1
34.494709 160.646350 76.776245 0 0
-92.134689 426.417080 -47.414860 0 0
51.430069 278.586060 -80.488640 43 1
-41.625702 127.173960 -82.483475 47 1
92.964394 551.511720 122.267940 11 1
-151.677540 48.149696 -168.335530 50 1
21.101688 402.215610 -3.845724 0 0
-84.559631 246.953290 30.805294 31 1
34.600357 290.971040 49.942104 32 1
-124.110590 546.857970 -28.145460 2 1
-92.122879 240.229540 52.532234 31 1
-0.556558 172.354450 -10.919528 0 0
125.655830 347.386080 166.649410 16 1
-90.051460 106.124310 -117.441380 44 1
-40.651577 153.121900 -217.233460 55 1
66.554085 564.268680 125.839170 11 1
21.710918 608.564940 24.031675 34 1
17.274281 488.074890 7.356868 0 0
-85.070091 163.962370 -191.846160 55 1
-67.299431 649.543880 19.985989 12 1
-33.576569 245.322300 56.546112 31 1
76.703003 496.363800 82.426414 0 0
15.534222 139.624160 -57.584774 0 0
59.819881 260.055970 95.653030 0 0
-118.840050 525.309020 -81.325516 2 1
14.152678 538.119930 124.416950 13 1
-79.845886 215.947100 24.855473 62 1
-193.898150 434.353520 56.267319 65 1
3.442278 203.009750 -47.548367 0 0
-31.045197 343.920750 45.805485 41 1
-116.077200 195.840680 -43.498840 60 1
-83.080132 131.597760 -52.787773 47 1
116.238910 480.662320 215.613070 6 1
20.943457 285.284210 -128.443240 39 1
-8.151609 208.630510 -62.254528 0 0
-56.483429 113.691670 14.897685 0 0
33.534321 136.315410 33.962788 0 0
-28.087101 136.205700 -109.770530 46 1
-0.410935 149.964310 -88.780617 46 1
-86.297760 170.424120 -142.433070 59 1
-73.180275 105.768170 1.519434 0 0
-33.314571 139.667600 81.209579 8 1
30.154320 178.053270 -60.035900 0 0
-61.920452 81.601387 -151.003100 44 1
-3.787129 85.285645 -37.055035 0 0
-97.218979 192.654210 -125.407180 58 1
-102.766200 185.971480 -61.288483 60 1
-111.660870 223.422880 -116.887320 58 1
51.325764 187.032090 97.782951 21 1
-71.547363 145.347990 -33.538944 47 1
78.354912 471.870330 31.255453 30 1
-67.704193 547.333310 -68.929840 2 1
5.888320 222.312030 -11.380737 0 0
16.613970 107.076640 -10.257634 0 0
67.452011 289.402190 -111.317260 39 1
18.565531 325.414430 28.813292 38 1
109.548150 540.898320 183.893660 64 1
135.175450 273.457060 -39.361244 42 1
-66.662849 170.416470 -85.555695 0 0
-59.872578 194.854600 -210.562850 55 1
-33.527298 534.817380 0.316603 4 1
-173.161910 451.964200 16.713142 65 1
76.236893 269.449950 -67.908730 36 1
42.998688 469.278750 51.431919 0 0
-21.330475 545.132510 -52.274952 4 1
-5.157352 184.678920 -86.872398 0 0
-63.235672 200.075670 -53.674339 60 1
-95.513245 540.433650 -68.617737 2 1
99.616341 230.961870 -132.184660 26 1
-84.124352 223.537290 78.489792 31 1
74.019203 565.596920 44.758640 10 1
34.321335 204.280300 138.626560 19 1
-131.520950 253.182130 -90.339981 57 1
-96.280502 254.440090 -160.369320 61 1
-24.319204 199.006230 -104.488260 0 0
2.200099 95.026115 -63.182915 0 0
123.730150 353.712890 181.135240 16 1
-180.364870 202.063860 -112.134040 57 1
-58.068508 251.780880 73.770531 31 1
-36.759800 635.864440 -9.435890 12 1
-6.233678 34.084393 -9.516763 0 0
-7.760992 103.511450 -22.573303 0 0
56.436543 290.002440 67.794815 32 1
-70.274956 241.687290 37.081314 31 1
129.941770 576.685000 84.515350 1 1
17.006809 275.738490 127.288150 0 0
46.169907 180.796070 -29.580887 0 0
-92.605583 184.027110 6.454167 62 1
135.121570 351.450350 208.735790 16 1
-71.436279 229.063450 -210.023960 43 1
-97.334023 279.942960 -147.756090 0 0
29.315100 101.345460 28.252584 0 0
-92.866798 291.474180 -131.245500 0 0
63.323994 201.513150 74.022064 21 1
-34.424843 183.241180 101.331750 20 1
-1.784605 84.656380 -13.211493 0 0
-13.290196 109.838750 -93.549095 0 0
-88.411064 225.249650 -85.452904 58 1
18.226713 282.236080 55.001682 32 1
108.284570 475.390080 199.995330 6 1
65.346008 208.443770 149.902560 19 1
17.308716 193.621410 -56.390091 0 0
-37.869675 226.788930 -191.839520 0 0
-1.784006 220.742260 -204.933040 40 1
-94.991013 79.090385 -131.404860 44 1
31.962650 55.319321 -3.825809 0 0
0.326769 202.131880 -77.251724 0 0
-81.260635 132.038930 -69.594421 47 1
29.421646 263.425480 -162.431560 39 1
-32.224323 120.716930 44.741791 0 0
-20.199593 198.779280 84.189583 20 1
19.836607 130.206800 -138.149230 46 1
-12.689725 119.827740 -13.468623 0 0
2.250037 215.088440 -225.278810 40 1
-3.793962 111.848450 38.283733 0 0
-171.711260 203.583400 -161.425000 54 1
-39.825909 180.008270 -224.013720 55 1
-20.392363 265.714020 -59.976479 0 0
20.398962 0.914536 -0.685399 0 0
-20.301817 496.595670 192.842540 9 1
9.564210 199.791170 114.167020 20 1
-5.577889 357.006410 187.818050 0 0
47.532768 332.117550 16.926195 38 1
-72.667625 638.975950 -4.263726 12 1
75.690399 345.683260 128.147200 14 1
-32.794922 343.365200 27.497791 41 1
-114.935980 85.605392 -175.696760 50 1
109.320680 558.024050 83.053841 11 1
-26.802139 282.660520 -72.260002 0 0
11.760776 517.339970 14.614644 0 0
-100.006120 115.188600 -54.345551 47 1
95.634239 471.035100 40.129028 30 1
-141.910800 107.650670 -4.465839 28 1
10.367849 345.635440 173.151600 0 0
73.636818 505.758730 65.004974 0 0
27.368635 189.532650 114.526830 20 1
-31.492857 507.566280 144.435550 9 1
98.494850 237.175430 -4.164039 37 1
-35.220604 248.311660 -24.788609 62 1
5.203834 200.067700 98.622162 20 1
-128.931490 160.657000 -231.572160 24 1
-76.442390 547.793520 -43.999714 2 1
-97.659882 111.605420 -100.587600 49 1
-41.856884 182.032620 -70.812988 0 0
-161.974120 91.421417 -249.207500 24 1
-150.519470 174.556790 -147.431950 54 1
-49.743084 111.775750 66.686653 7 1
-70.012215 115.179280 -189.150940 51 1
81.194649 291.567660 -50.748394 42 1
-71.561752 71.253868 69.532806 7 1
-130.013230 502.155060 51.576298 3 1
-27.809719 355.617000 57.433571 41 1
20.851923 465.675480 7.436673 0 0
2.998191 120.725030 -69.432747 0 0
63.947403 173.835240 194.260890 19 1
19.059135 221.134550 -85.409325 0 0
-36.536655 105.460110 -68.085510 0 0
-67.399910 546.057010 -20.201370 4 1
14.188744 173.009740 -31.219076 0 0
-89.055527 237.321460 -40.473572 62 1
-43.353081 242.077450 -71.501877 0 0
-4.402269 192.088870 -242.859480 25 1
14.165701 420.673920 -2.763603 0 0
-56.282967 240.442870 -114.175930 58 1
56.525700 497.151860 65.641197 0 0
169.959400 584.734560 104.974960 1 1
15.198654 216.286180 18.131971 0 0
-12.037642 512.850280 169.559980 9 1
-48.712898 97.762329 -86.174866 0 0
-97.388916 207.851880 -98.799179 58 1
-118.255960 508.196140 35.291294 3 1
10.669201 31.249329 -4.697574 0 0
-129.321370 536.123410 216.730740 45 1
-88.407814 214.499860 -191.147670 55 1
47.253899 372.688480 164.787310 14 1
71.177231 198.299790 -102.211490 0 0
140.352490 476.624270 217.493620 6 1
23.814480 268.587310 141.186720 0 0
-27.008173 198.033920 -86.703934 0 0
-98.462746 146.164860 -157.073720 52 1
-74.129326 73.853661 -144.547260 44 1
-15.658320 124.562130 -52.271996 0 0
19.051743 336.003270 -12.393474 0 0
-61.858597 219.094730 -123.121730 58 1
16.462267 206.092270 134.198040 20 1
-71.067978 388.582950 220.687090 18 1
64.290855 486.469640 74.603615 0 0
55.802895 176.835940 -84.462448 0 0
-3.285184 511.694980 187.645000 9 1
-154.616420 154.346540 -258.280030 24 1
-57.585423 241.301640 -54.661503 0 0
11.920169 266.675750 2.152040 0 0
-15.795554 96.449890 -36.327789 0 0
-144.085590 94.137100 -245.663530 24 1
-26.607292 190.721410 134.327060 20 1
-27.895010 311.484070 -80.912163 0 0
-54.275131 355.881470 55.957481 41 1
103.493950 336.216250 121.718120 15 1
-106.921940 243.398540 -13.047805 62 1
-91.398033 169.695160 -18.763580 60 1
-48.700047 139.922230 -56.125843 47 1
-118.781680 169.897460 -214.525270 24 1
-112.393810 135.310650 29.243956 27 1
-90.742180 151.906660 -172.558490 53 1
-67.594315 123.055310 28.765911 0 0
-90.653740 529.075560 39.962521 3 1
51.650116 360.867430 137.347460 14 1
59.952366 601.735230 6.282337 34 1
-88.952003 53.660934 -135.851090 44 1
-32.326519 365.721310 45.309319 41 1
56.200706 230.941300 85.089584 0 0
22.356689 136.385120 15.460636 0 0
-17.035316 174.009120 -75.263794 0 0
83.836739 496.081390 53.673733 0 0
-94.703728 182.028380 -195.716690 55 1
-10.299892 243.715420 57.497208 33 1
-121.085980 121.823980 -2.952437 28 1
45.170635 125.915880 7.020253 0 0
19.186081 348.742800 23.940630 0 0
-53.262184 238.059360 33.406906 63 1
-31.923300 511.537170 198.442170 9 1
67.866837 463.258300 44.390934 0 0
23.134172 123.376910 31.206570 0 0
91.239380 239.080430 -163.272140 26 1
118.687800 468.896610 40.926853 30 1
-154.475510 203.981120 -184.492320 54 1
36.828671 140.347660 -34.526958 0 0
-33.786732 127.994480 -197.589370 51 1
-91.605492 247.579070 17.371761 62 1
-50.367737 113.569870 -65.796951 0 0
-95.505417 106.679780 -168.861510 50 1
-27.081741 204.968430 -14.127174 0 0
-41.941177 124.307800 -134.007690 44 1
-63.571251 252.243150 18.732655 63 1
-12.397329 253.604970 14.561332 63 1
141.287580 280.998690 -27.938198 42 1
-106.987120 180.584700 -74.956284 60 1
-3.669995 163.043200 -66.279137 0 0
-7.006098 245.458480 -15.702955 63 1
26.506969 339.333500 155.527970 0 0
42.313583 331.402830 30.944178 38 1
17.666351 194.494230 86.537682 20 1
-124.737690 74.761673 -179.207900 50 1
-139.812940 50.829449 -177.096830 50 1
-119.505390 154.203690 -163.311160 53 1
-105.059680 84.722481 -105.900120 49 1
16.228924 594.844850 15.871084 34 1
55.138828 270.872070 -96.366341 43 1
18.519537 312.857300 150.549000 0 0
-87.783554 104.889240 -80.864464 48 1
-94.047180 262.956420 -6.431746 62 1
-19.022036 342.101840 37.153099 41 1
-64.078430 197.995290 -21.377556 0 0
80.953423 516.387080 246.017460 5 1
44.589386 169.111220 -4.191522 0 0
-19.991896 149.216670 -2.866153 0 0
96.697502 251.231800 -72.914337 35 1
-21.942377 130.673650 -122.700840 46 1
11.186450 189.185710 -74.569176 0 0
-4.273530 206.265750 75.925415 20 1
28.845802 413.272640 211.545700 17 1
4.489630 616.084590 14.955931 34 1
96.736557 557.725160 10.962658 10 1
-171.010130 217.209230 -95.962311 57 1
-133.685130 99.803780 -169.374390 50 1
-39.645599 196.938140 -78.322502 0 0
-68.355934 401.293820 233.987530 18 1
29.764050 584.289490 -44.179558 23 1
-133.536040 437.240260 -60.707569 66 1
-119.458770 455.148280 -19.170719 66 1
54.531651 267.768220 78.343399 32 1
-90.832977 103.406170 -49.042881 48 1
-78.035072 223.933500 -126.890730 58 1
35.357674 189.569170 63.452862 0 0
-132.523970 531.026550 -54.363239 2 1
61.686131 188.774170 64.594254 21 1
-16.375608 259.957400 72.980354 33 1
-86.434669 188.322560 -206.839580 55 1
-9.024178 143.254560 -211.949310 51 1
58.876106 491.672390 50.757294 0 0
-99.650215 175.981430 -147.949600 53 1
194.689120 580.973270 111.815640 1 1
-48.995029 219.440460 -17.579384 62 1
-115.549220 223.631450 -81.662430 58 1
-73.011299 187.594560 -27.498549 60 1
38.816181 456.356810 26.431805 0 0
-13.530691 200.676270 64.096428 20 1
-21.322250 404.456390 231.742600 18 1
93.181717 340.709260 109.098210 15 1
36.224800 222.627780 -190.075910 22 1
-55.428352 122.042970 -97.157692 47 1
-40.041721 194.891720 -113.079540 58 1
-14.050487 181.260640 10.277639 0 0
-132.889040 235.363100 -88.229927 58 1
-0.341813 134.027040 -121.659550 46 1
16.262115 456.403930 52.376640 0 0
-41.146999 353.397310 38.107002 41 1
8.969870 311.855530 -3.357254 0 0
-130.219860 143.728180 -235.158420 24 1
-96.601692 164.218170 -166.355010 53 1
-140.906270 228.449490 -105.619650 57 1
46.728500 223.010590 -202.625140 22 1
-84.915619 200.754670 -222.250410 55 1
-124.429450 252.839740 -119.107190 61 1
-28.664482 248.086980 37.460926 31 1
-6.886374 119.786830 8.543489 0 0
-78.476952 404.136720 -60.418194 0 0
55.845840 278.159240 -160.750470 39 1
2.501531 584.822880 -50.250683 23 1
21.500904 70.115761 35.186394 0 0
116.676910 238.429490 -25.392643 37 1
-77.285904 240.283070 -19.598392 62 1
-37.391762 236.330520 14.095437 63 1
-70.160431 249.254320 57.012756 31 1
-20.416756 212.153850 -203.857250 0 0
28.151093 465.165190 52.262928 0 0
-24.593384 67.998512 0.766722 0 0
57.063271 283.176820 -46.285988 43 1
-33.943287 195.024140 -22.371273 0 0
-66.014503 537.349240 32.300106 3 1
123.414960 466.180570 197.016850 6 1
0.156626 545.623660 -57.525181 4 1
12.023387 221.229520 -189.295260 22 1
41.940338 539.592530 151.590390 13 1
83.990700 231.209550 -137.277330 26 1
13.433936 84.981560 -21.823692 0 0
-93.623230 251.531220 -38.415520 62 1
-44.164955 284.316500 -88.539688 0 0
-8.524543 331.986080 26.699503 41 1
28.955454 324.186740 6.037021 38 1
78.364670 483.100590 72.725655 0 0
-28.343206 128.338470 -76.567612 0 0
-76.339851 264.723330 -75.903404 0 0
-65.482643 59.209763 80.841011 7 1
-70.391380 299.611600 -183.135540 29 1
-37.919628 251.579500 0.214413 63 1
-136.213470 169.620730 -151.061920 54 1
-13.656585 78.629845 -45.458359 0 0
-49.473549 406.338780 230.376310 18 1
28.939257 391.755580 15.860044 0 0
-20.630650 238.008650 -50.109070 0 0
-43.009895 166.571930 -45.842403 0 0
-54.987823 353.986570 -76.455772 0 0
-25.443775 126.546880 -19.884312 0 0
112.276020 220.520000 -21.962618 37 1
5.476947 331.614170 -9.419249 0 0
108.685970 558.741090 60.030022 10 1
-50.183426 256.058320 45.500031 31 1
-115.919660 112.924710 -170.372340 52 1
-26.066225 151.441040 -43.190296 0 0
-34.126984 169.524830 -23.829399 0 0
-12.924848 493.847780 262.480350 56 1
-0.108559 545.620300 -17.547583 4 1
95.204041 480.726500 235.498730 0 0
-43.778969 308.023250 -92.850342 0 0
-32.200996 261.025330 78.733551 31 1
77.552162 290.975860 -64.781784 42 1
4.582514 552.172730 -38.485962 4 1
-9.134313 236.010930 -66.372581 0 0
-25.062082 238.654400 -0.483690 63 1
17.558125 269.133030 -56.222279 43 1
-46.929722 168.851590 -129.829270 0 0
-27.044443 648.385190 15.756073 12 1
-42.880348 241.465230 90.074005 31 1
117.652750 336.280060 162.028880 16 1
-65.106804 230.871800 100.551460 31 1
123.592810 217.592000 -112.308220 26 1
53.218937 210.792470 160.316790 19 1
15.888671 104.388280 8.485125 0 0
-10.749682 496.322660 210.866930 9 1
-23.069317 255.818020 -9.430263 63 1
-87.250290 201.972580 -116.124210 58 1
6.034601 264.491910 59.759258 33 1
74.917419 545.986690 159.762130 64 1
116.171970 553.270020 24.511984 10 1
-110.107590 151.030790 -147.178220 52 1
-159.013150 456.450500 7.364642 65 1
154.767120 588.014220 73.357109 1 1
-117.067230 126.040370 17.518003 27 1
-110.699170 123.603220 -227.727980 24 1
-96.290031 189.282990 -244.762360 55 1
-14.485332 188.737210 -111.128900 0 0
-11.050016 384.316220 191.922270 0 0
10.352608 176.459930 -56.524635 0 0
-0.372011 141.109470 -2.404271 0 0
85.334801 560.930850 70.374535 11 1
-47.703480 529.925720 -6.952869 4 1
11.610177 277.503780 154.935300 0 0
-28.842382 177.950410 88.835228 20 1
-60.835079 106.116660 -78.026398 0 0
-84.622955 530.671330 191.063980 45 1
-8.416897 52.366940 -7.515956 0 0
87.780243 549.363770 136.608180 11 1
73.074326 465.286130 233.401350 0 0
19.696291 544.736630 6.471546 0 0
16.266903 407.939480 244.430440 17 1
123.487920 293.147000 -61.407478 42 1
-6.863725 54.055801 -40.991550 0 0
14.826346 408.950260 216.939770 18 1
-106.483780 225.977260 -174.853450 61 1
-37.354500 221.231370 -9.458139 62 1
120.290620 296.041810 -25.280706 42 1
-93.852806 181.687270 -91.661690 58 1
96.391319 201.002670 145.378190 19 1
70.935204 574.528020 115.788790 11 1
-158.240510 114.870180 -256.692380 24 1
85.437988 157.231450 185.870420 19 1
-114.742060 183.947080 -188.341540 54 1
104.762660 537.302800 196.853550 64 1
-73.042862 248.045720 -98.280396 58 1
-109.364230 87.322792 -57.323486 48 1
33.121273 162.776640 55.089058 0 0
-25.945307 114.582210 -61.847652 0 0
117.566190 246.576550 -53.202496 35 1
6.508117 511.696990 268.164180 56 1
92.446556 304.746490 -31.085016 42 1
7.871105 511.416290 240.483870 56 1
42.436920 485.727080 41.604259 0 0
25.345205 241.350170 14.631589 0 0
-119.936420 64.448463 -191.627810 50 1
154.906830 335.917850 198.781630 16 1
71.214622 192.662250 175.605070 19 1
-143.465450 452.806060 -30.804087 66 1
-44.223053 251.571730 33.385208 31 1
20.034967 570.347290 12.628147 0 0
-16.963736 199.673340 101.322020 20 1
-22.181353 168.097240 -282.249820 25 1
-9.651047 203.791260 123.806580 20 1
36.024670 266.419250 -112.870150 43 1
-120.753190 138.235210 -244.483990 24 1
3.549461 255.572370 -5.082530 0 0
-76.540642 88.941223 -121.706590 44 1
-51.126049 516.575560 203.153000 45 1
-10.312079 249.439970 44.477272 33 1
-133.346910 178.207090 -171.200880 54 1
116.661100 325.312840 106.836670 15 1
-79.810341 185.337400 0.179575 62 1
-81.765678 110.464810 -57.577702 48 1
-57.105938 530.759460 16.600657 3 1
63.875904 189.182400 50.501507 21 1
-59.976208 246.040280 47.494614 31 1
-76.780777 188.233900 -51.460781 60 1
-19.747517 237.654500 28.668673 63 1
31.065388 330.965090 39.638081 38 1
60.671379 268.308590 -169.679950 39 1
-128.450910 511.130950 24.955872 3 1
50.809685 532.096500 94.100487 0 0
92.965515 502.812650 251.426220 5 1
-75.926430 128.895600 -186.188370 52 1
-170.068410 190.468020 -156.423460 54 1
-106.495620 195.425640 -136.272550 59 1
-138.563420 470.841550 16.394547 65 1
-118.549740 166.708910 -73.868896 60 1
20.877827 366.347080 162.938320 0 0
-64.498192 198.113250 -223.631840 55 1
72.703682 285.325070 -128.812910 39 1
-137.686230 132.819410 31.592222 27 1
-30.726427 141.133420 -184.340300 51 1
-20.990084 135.481520 -206.520030 51 1
72.669632 356.994320 144.990070 14 1
-101.643360 90.506447 -119.421370 49 1
-158.649800 427.483310 -50.188198 66 1
-136.020550 69.751801 -172.086810 50 1
-68.172737 207.214900 -98.179169 58 1
25.568895 217.151870 163.039170 19 1
-81.901047 62.904663 -127.889020 44 1
-131.601240 165.232410 -248.138080 24 1
-123.984920 123.433270 -25.001041 28 1
-90.565117 191.197600 -28.849392 60 1
31.620516 392.932530 199.406800 0 0
-140.424190 125.175830 14.588805 27 1
105.687710 299.023620 -15.902568 42 1
-49.824741 238.013850 -17.007530 62 1
-1.380164 60.227535 -28.133448 0 0
32.623802 535.212590 140.047910 13 1
-86.322395 185.748860 -138.308290 59 1
18.920496 107.763960 -49.839695 0 0
-71.073914 304.244840 -162.348630 0 0
7.588148 3.524843 -6.821082 0 0
-81.046082 202.173520 22.550282 62 1
-53.563877 180.667070 -216.371260 55 1
-97.370384 525.402710 6.610067 3 1
89.159973 234.250690 -93.046242 26 1
-14.874810 240.279710 -91.044418 43 1
-45.065140 155.922560 -169.559970 51 1
18.781305 338.072330 35.481739 38 1
23.666922 120.434260 -64.907402 0 0
-4.015416 172.725460 5.542733 0 0
-13.980261 222.374540 -191.118390 0 0
86.492195 281.196810 -79.970413 42 1
-73.345123 59.907990 -145.408310 44 1
84.019836 217.668380 -116.972920 26 1
26.380899 3.364517 -13.093213 0 0
-77.993134 220.928710 99.301765 31 1
-24.805576 210.774800 -26.648508 0 0
116.121000 480.644500 231.612530 6 1
-96.158440 281.449190 -116.173960 61 1
19.929731 281.638490 -38.812012 43 1
34.537178 57.632351 11.314662 0 0
61.951302 287.741120 -137.456850 39 1
107.517770 554.418700 125.953770 11 1
-127.264920 121.110470 -152.122860 52 1
21.819607 150.403900 -19.148540 0 0
104.942700 226.727860 -38.423344 37 1
-78.138191 101.645680 -128.613010 44 1
74.983383 454.200590 36.038914 30 1
0.509058 203.053990 -25.538788 0 0
-26.152502 182.417630 -249.347580 25 1
188.680600 588.277890 85.617126 1 1
100.799580 246.549770 -35.481434 37 1
-27.921999 131.929340 99.265709 8 1
-47.634026 113.073270 -80.075279 0 0
18.732624 138.463620 -112.488280 46 1
-41.693195 117.764060 -20.819016 0 0
-119.435550 178.298390 -152.027560 59 1
8.450667 83.409279 -3.850657 0 0
67.093636 282.794430 -150.051450 39 1
-156.119960 235.633380 -105.206700 57 1
17.106737 346.971680 193.195620 0 0
-77.649948 264.797940 -50.191196 0 0
123.907420 293.219210 -76.693169 42 1
-77.782150 174.186100 -160.587100 53 1
-25.263439 542.419740 -21.847223 4 1
130.220570 339.534970 191.408080 16 1
-85.921280 275.085210 -109.148950 0 0
-96.318848 193.840300 -226.979780 55 1
129.140290 453.652500 35.113426 30 1
102.062660 219.431590 -180.836380 26 1
-28.791126 184.157850 -88.777252 0 0
91.843422 563.060000 44.383728 10 1
-106.095990 249.858120 -25.296417 62 1
97.153282 558.634520 89.849159 11 1
-121.527030 69.871696 -105.524220 49 1
-81.259636 240.769960 61.122643 31 1
-94.160027 120.299320 -78.925865 48 1
20.361334 332.615970 57.560844 38 1
-97.181702 220.844070 21.363087 62 1
29.698326 179.917980 77.223061 0 0
106.551100 544.394840 1.102342 10 1
-71.068176 527.488340 197.134570 45 1
-92.167297 261.928920 -171.275560 0 0
-23.169012 500.513850 232.118740 56 1
75.771858 196.456600 161.134860 19 1
-74.299881 224.139470 -92.203979 58 1
-57.023212 250.641040 -68.863937 0 0
-6.833976 196.898090 -36.870937 0 0
-133.683240 140.291520 -248.957290 24 1
39.834816 256.439030 -172.312560 39 1
42.179359 593.915410 -19.980505 23 1
-44.013000 107.415660 -54.477291 0 0
-89.231125 130.034000 -182.631880 52 1
-86.290573 535.704350 221.264020 45 1
87.657150 194.119900 95.232338 21 1
59.580082 435.041020 33.960487 0 0
-38.390099 182.293840 2.001645 0 0
-61.088436 221.371780 15.876546 62 1
47.337257 187.508480 121.393230 21 1
-120.036470 231.107120 -124.957660 57 1
-103.491900 190.681960 -45.672558 60 1
90.931328 336.706790 147.002610 14 1
10.117375 378.119900 27.321053 0 0
54.416279 101.942720 32.571922 0 0
28.595053 358.701230 8.691396 0 0
34.375347 210.413090 187.364880 19 1
-47.029030 110.076230 -133.168410 44 1
-52.228649 352.638310 -148.185710 0 0
-70.566444 377.575440 -65.869553 0 0
-70.400337 155.511110 -161.208860 53 1
-17.922672 184.871250 83.756844 20 1
-3.519732 508.217290 257.835910 56 1
13.855440 242.506550 31.080730 0 0
-12.949300 355.562810 37.078846 41 1
111.937580 347.343780 156.186170 16 1
125.102890 216.334410 -167.448810 26 1
97.746101 341.640840 134.022320 15 1
-126.345030 50.003231 -188.019240 50 1
-43.967281 139.853780 -77.853661 47 1
-23.413185 145.717130 -30.738039 0 0
-78.266617 264.248570 6.983880 62 1
73.032799 560.002140 24.333796 10 1
-17.746435 194.048140 -9.974085 0 0
62.860123 371.691190 165.740780 14 1
-73.134003 123.065000 -110.864490 44 1
7.371991 317.257540 166.253590 0 0
1.931103 346.157870 162.419430 0 0
-99.979256 157.504210 -226.288790 24 1
89.318359 447.863650 0.353446 30 1
13.290137 272.706670 20.455980 0 0
-31.507605 403.260890 214.147960 18 1
106.171600 556.796940 107.433200 11 1
47.651623 200.077650 135.202990 19 1
33.422829 190.684200 -17.736746 0 0
-71.700523 225.278960 -26.101849 62 1
-70.551620 130.532610 -172.614620 52 1
89.368248 194.334640 159.342860 19 1
11.242439 393.279080 30.258812 0 0
25.057934 139.929530 44.737309 0 0
82.230911 284.936710 -168.803270 39 1
-11.215216 258.176360 1.499576 63 1
30.141352 545.429690 112.450730 13 1
6.362471 625.325560 4.953151 12 1
-72.790100 200.706360 6.901223 62 1
94.968552 465.681580 27.504444 30 1
56.544590 196.803910 174.655940 19 1
-95.851913 292.055690 -60.933968 0 0
44.038155 151.689060 53.223942 0 0
2.140253 328.258480 18.724873 0 0
11.442941 21.663151 -15.614257 0 0
106.613430 361.433380 178.772280 16 1
64.513321 550.475460 123.668660 11 1
-23.581366 141.468750 -83.532578 46 1
-45.040543 147.489090 -182.400300 51 1
88.361572 555.691470 22.276525 10 1
-42.549667 511.291840 136.711930 9 1
7.918187 277.877990 36.347389 0 0
46.361141 395.691800 208.617190 17 1
-95.670082 115.578220 -181.028560 52 1
112.688900 492.514530 238.884450 6 1
36.325012 127.938550 -6.885219 0 0
-4.431567 276.928800 12.901283 0 0
-100.796140 74.203194 -194.310610 50 1
63.470341 574.040950 103.454210 11 1
13.272566 260.112120 141.470780 0 0
51.076321 379.120940 253.681150 17 1
26.030518 165.490550 8.612848 0 0
-86.580170 185.462620 -75.157280 0 0
-55.855125 138.888440 -184.551760 51 1
-60.115837 121.097240 -121.968280 44 1
91.556145 472.929960 53.029167 30 1
-17.775705 292.016630 -79.430565 0 0
43.853012 173.590650 58.271797 0 0
-116.795290 173.200610 -85.571144 60 1
-33.099564 261.288760 -58.927849 0 0
6.830657 598.768490 5.061828 23 1
23.628075 266.422730 -82.400253 43 1
132.201160 479.786040 237.607360 6 1
-112.818370 538.569460 216.111620 45 1
47.151836 204.362870 85.434486 0 0
117.410170 292.767240 -38.032597 42 1
-40.299744 127.389460 80.850388 8 1
85.948326 288.113430 -131.236270 39 1
-110.971470 252.675860 -142.360000 61 1
109.122680 487.257600 254.821120 5 1
-43.352764 137.406590 -198.646590 51 1
12.837462 103.724780 -29.310991 0 0
124.135120 359.743410 197.863370 16 1
-54.540001 206.698870 -97.442261 58 1
-60.158306 329.361240 -159.739200 0 0
136.484480 338.880860 203.730610 16 1
-96.266373 188.534810 -151.359390 59 1
-126.199470 183.405790 -62.451546 60 1
-96.555374 93.028519 -98.132820 49 1
12.787417 208.738570 -10.048586 0 0
-12.358533 251.546630 -111.411060 43 1
33.633148 396.969480 252.436600 17 1
43.031311 120.077420 21.433933 0 0
-39.330029 331.748410 -96.581406 0 0
-36.285168 162.585720 107.749090 20 1
-73.283447 280.496890 -117.778480 0 0
-61.694008 173.665120 -49.582249 0 0
101.863850 243.037400 -17.399679 37 1
58.724205 361.787960 148.694440 14 1
8.723005 69.431908 -45.122540 0 0
-104.973800 159.107970 -156.845370 53 1
-54.850605 292.010800 -98.091774 0 0
114.647550 337.849980 143.356840 15 1
73.465729 508.653690 78.208351 0 0
14.295533 443.333130 13.090298 0 0
-85.527245 278.667050 -126.749180 0 0
-89.064629 120.280380 -94.372581 48 1
-108.534390 515.570980 -79.282639 2 1
-103.634540 438.005620 -33.546967 0 0
-102.445870 94.612854 -66.280998 48 1
56.097340 449.557130 26.881107 0 0
-117.101720 90.780968 -80.918442 49 1
-51.982483 182.772630 -108.028870 58 1
106.636050 517.794250 266.893130 5 1
-39.400208 304.373780 -73.572571 0 0
35.919735 141.188670 8.740093 0 0
-34.107491 203.445220 -125.282700 58 1
31.805262 441.857760 1.806496 0 0
57.602505 223.493410 -193.094100 22 1
-17.272516 486.218810 200.659520 9 1
56.303677 293.163330 -24.752398 42 1
86.841919 240.679340 -25.607950 37 1
67.622536 501.281770 47.451851 0 0
-108.148210 290.717320 -76.712410 0 0
30.966963 593.984380 1.779126 23 1
-83.305962 135.318450 -162.156540 52 1
-49.358685 128.757420 60.216087 0 0
188.461560 576.614750 94.344841 1 1
16.391420 434.638760 -5.899852 0 0
-62.956932 99.907082 -139.700000 44 1
-15.761441 221.949340 -46.200581 0 0
9.332671 155.001650 -42.447334 0 0
-116.374510 194.629640 -57.111824 60 1
49.460331 287.450990 -130.794830 39 1
37.224159 397.771480 225.249050 17 1
-62.763161 147.205870 -202.391940 55 1
-72.606339 526.534240 20.800144 3 1
-121.637120 190.806990 -142.873210 59 1
8.146859 262.274320 46.819271 33 1
41.609608 332.515620 52.465656 38 1
26.709909 108.670200 -1.763911 0 0
0.238541 504.668270 227.656850 56 1
149.676900 580.247860 89.879562 1 1
-71.482796 185.842580 -204.493030 55 1
-49.116013 346.840480 47.166393 41 1
-94.799034 207.735000 -203.828490 55 1
40.263821 549.371580 127.984920 13 1
4.033973 132.557940 -134.098280 46 1
-2.237763 205.843220 138.124910 20 1
126.148090 235.618480 -85.187050 35 1
-158.691530 141.106770 -259.577450 24 1
-71.819260 216.175690 -205.507050 55 1
104.628480 284.521940 -93.330879 42 1
112.250900 346.496340 176.774370 16 1
-108.963150 253.367920 -128.397770 61 1
-28.791555 166.108660 -1.748631 0 0
4.279606 258.738070 -85.090103 43 1
3.302717 203.145020 -99.736374 0 0
145.530010 581.575990 65.297485 1 1
-18.597017 99.513565 -50.977604 0 0
-77.124031 117.360580 -178.208150 52 1
-3.862681 408.688110 223.432250 18 1
-117.960780 518.399600 12.485356 3 1
73.403687 154.652250 191.814300 19 1
95.617844 220.287190 -124.844880 26 1
68.609253 482.754730 49.948448 0 0
-37.194084 117.577220 103.038950 8 1
107.176320 566.007870 71.130257 11 1
39.981686 388.381930 244.650910 17 1
-122.745130 107.510510 -242.172880 24 1
103.463100 175.810460 104.506740 21 1
-36.682423 101.275830 -81.249619 0 0
42.358742 163.250920 66.354523 0 0
84.717705 234.687160 -39.214943 0 0
-75.620071 152.142910 -172.989300 53 1
-73.668297 138.893330 -47.044914 47 1
23.889986 226.004610 -212.416230 40 1
79.170380 284.234250 -155.186340 39 1
-92.377914 196.435180 17.833479 62 1
-34.546974 142.933010 65.853447 8 1
-111.778830 158.318300 -243.231220 24 1
-18.367992 499.945470 273.589750 56 1
-42.162067 220.411960 3.053042 62 1
-125.178850 529.482600 -70.419289 2 1
-137.411450 105.587770 -29.987055 28 1
-38.510315 197.096040 -9.052118 0 0
-73.179176 103.689040 -98.963890 48 1
14.870687 121.609190 -18.881641 0 0
-6.238039 266.983890 52.315662 33 1
29.684183 145.037730 -62.482372 0 0
-19.423332 136.878280 -193.513730 51 1
-127.330580 69.789368 -91.348907 49 1
33.295212 234.290940 121.174370 0 0
-61.889923 153.040220 -38.121918 47 1
5.260055 101.097520 -1.352915 0 0
75.226341 186.518300 86.916969 21 1
128.233180 548.005920 21.969299 10 1
80.924110 361.074650 164.910370 14 1
100.310300 495.691560 232.675570 6 1
-25.490883 174.491910 -137.057770 0 0
9.498680 300.653590 166.240100 0 0
-38.797081 170.182270 122.858580 20 1
-82.329689 186.323930 -265.390440 55 1
82.600487 190.411180 58.316658 21 1
-25.772238 182.663330 123.086110 20 1
90.723671 531.494870 193.599760 64 1
125.248210 487.377410 222.395370 6 1
24.431013 290.085110 157.456010 0 0
80.208633 559.472170 116.232530 11 1
11.335548 134.219680 -69.935692 0 0
-98.184586 201.676800 -40.869930 60 1
-65.231667 275.803590 -183.697160 29 1
-67.634918 44.971169 75.296379 7 1
-33.901470 246.669190 -62.209057 0 0
7.067223 222.096410 -214.507250 40 1
103.153240 299.218140 -56.906002 42 1
14.581484 463.520840 29.129190 0 0
-28.427103 449.574310 -7.815531 0 0
-58.086098 637.159970 -12.299896 12 1
23.926098 224.469790 -194.566390 22 1
-57.756969 117.578360 54.668503 0 0
-160.766600 459.870420 -5.147486 65 1
-68.082214 136.938890 -73.528214 47 1
-11.277028 140.687520 95.178764 8 1
64.860260 251.533170 -180.888430 39 1
69.444565 276.136750 -88.052444 42 1
31.107027 129.091080 -42.133747 0 0
-110.119870 263.707180 -154.323910 61 1
142.469560 456.226500 206.824170 6 1
-48.854816 129.319580 -116.349700 44 1
56.143036 170.333710 6.081694 0 0
25.812855 291.653900 28.755861 0 0
46.007656 240.304890 -176.968580 39 1
-150.894350 244.500980 -94.406822 57 1
-59.601383 532.094910 1.259024 3 1
-49.982307 177.540570 -33.265915 0 0
-84.512321 272.497380 -171.526460 0 0
96.007065 193.490300 110.247040 21 1
-4.946590 212.104030 -84.760086 0 0
-116.160450 256.570890 -85.094162 0 0
2.573735 233.699810 -4.468989 0 0
-17.191189 364.688780 45.404732 41 1
6.036776 142.783070 -114.422030 46 1
17.700657 382.630100 7.123161 0 0
-98.517258 550.892520 -25.890736 2 1
112.510210 552.153320 36.957169 10 1
11.566914 234.205260 -196.794460 40 1
77.176865 256.907350 -185.321620 39 1
-42.456528 649.057680 24.998568 12 1
-55.814545 315.957670 -87.548904 0 0
69.631027 280.841710 -61.345970 42 1
27.063276 278.075160 -138.244190 39 1
-79.601883 235.638440 77.041466 31 1
-131.531710 82.954132 -97.721375 49 1
-204.312530 424.104950 51.878559 65 1
-46.650761 121.240240 20.918488 0 0
7.170006 187.712650 7.512418 0 0
71.474541 522.908570 239.636110 5 1
27.953171 351.177640 169.057790 0 0
-113.452450 178.474660 -63.899487 60 1
-97.854507 240.988190 -121.788990 58 1
65.052963 327.834050 57.913086 38 1
127.336270 226.822980 -74.010033 35 1
-64.401825 643.493960 8.888616 12 1
131.591830 334.983890 171.004410 16 1
-114.355770 264.135710 -107.694200 61 1
-74.303459 167.773930 -203.436510 55 1
-31.996527 235.060580 -11.094202 62 1
-121.175510 101.686780 -165.709210 50 1
48.215961 286.466770 -117.409810 39 1
-111.567550 539.873050 -50.832409 2 1
-99.820694 203.497160 -182.256350 55 1
-74.542221 198.335590 -240.565020 55 1
79.066284 497.532810 41.744267 0 0
43.970352 275.516020 -156.011810 39 1
50.080765 466.810910 30.366896 0 0
-45.738525 249.233460 59.187897 31 1
47.932884 273.365050 -56.763596 43 1
11.865979 205.143250 66.801758 20 1
54.537685 552.940980 115.868390 13 1
23.301617 408.260890 8.180012 0 0
53.668911 519.799740 75.255234 0 0
115.410520 336.046780 116.793750 15 1
66.788528 200.879150 121.014780 21 1
37.118721 414.595180 17.205252 0 0
116.988640 537.222840 4.795779 10 1
-94.791862 536.796690 204.271960 45 1
16.093477 193.543320 -5.016248 0 0
49.981556 392.488250 229.005620 17 1
19.612162 272.049840 -150.806580 39 1
-23.200554 196.548750 71.534668 20 1
-125.352850 147.580350 -87.942650 60 1
-15.309165 541.847350 -35.343582 4 1
-137.230100 32.043289 -181.650590 50 1
94.584709 506.214810 45.525681 0 0
20.783192 525.510560 146.835370 13 1
-86.103477 254.944180 -21.762861 62 1
82.508560 509.962800 229.922470 5 1
-13.895694 495.327420 239.343480 56 1
-97.832993 200.065290 -22.121199 60 1
14.972522 51.191551 -39.970596 0 0
123.385910 552.736330 102.578840 11 1
-87.685318 637.222050 3.868487 12 1
-70.410309 199.402300 -262.051730 55 1
-82.796455 110.013790 -169.341320 52 1
-92.894020 246.128010 -3.567604 62 1
-105.175490 535.561520 -61.735569 2 1
-42.337341 356.040860 67.257072 41 1
29.944939 140.671600 56.635799 0 0
-8.415285 178.725400 -264.878910 25 1
-17.482510 144.829410 82.063438 8 1
-28.959812 122.156540 -104.423680 46 1
-54.521969 230.241260 -97.470650 58 1
45.110615 182.779690 87.413437 0 0
-99.726845 143.255170 -230.933620 24 1
-24.840803 156.959500 -55.281185 0 0
17.723274 282.372100 143.931410 0 0
80.670670 250.805850 -47.863495 36 1
-8.320621 192.468080 87.436218 20 1
28.132008 65.964653 3.944784 0 0
-108.198670 178.004010 -179.107130 54 1
-44.220974 133.641370 -66.686874 47 1
23.181759 87.002174 14.726511 0 0
-51.500881 81.218201 91.638588 7 1
49.417374 186.526500 70.420380 0 0
-106.186110 102.855390 -95.923187 49 1
73.280823 181.531750 108.192670 21 1
5.202632 41.664913 -15.575708 0 0
-25.155754 116.039660 -117.126030 0 0
136.276140 314.520720 98.776199 15 1
-133.243760 247.712690 -110.788940 61 1
44.114414 501.389130 60.797817 0 0
11.761881 106.799830 -77.738876 0 0
18.176126 275.878630 43.643166 0 0
101.304100 224.954270 -8.159643 37 1
25.453243 213.822860 -230.572390 40 1
-90.315620 262.179960 -83.812637 0 0
-151.204410 189.459030 -171.074550 54 1
-24.093285 206.288880 -115.150120 58 1
47.363117 150.817230 -4.544130 0 0
-20.726954 499.730990 219.586840 9 1
-138.286090 469.862270 2.895338 65 1
88.580795 511.608920 273.266110 5 1
-10.931090 549.840880 -9.969034 4 1
-85.597855 204.514340 -103.765090 58 1
-43.140411 644.851810 -3.076313 12 1
-110.749020 157.534550 -217.444340 24 1
-40.236443 181.831020 -83.736488 0 0
96.046486 558.642940 58.665421 10 1
-30.453283 217.991380 -197.242200 0 0
-93.190178 287.695650 -180.384200 29 1
46.369518 165.396100 -29.364147 0 0
-92.070831 245.705340 40.973503 31 1
109.389910 454.780210 21.791847 30 1
-132.364040 123.473510 -8.686454 28 1
49.519600 95.085510 20.545561 0 0
-41.304520 104.196820 -151.098950 44 1
13.240108 203.574690 14.026978 0 0
10.552291 57.838337 -24.551840 0 0
-73.366776 210.770080 -28.223242 62 1
58.189739 375.826170 243.710070 17 1
-40.969799 218.176930 -114.590390 58 1
-157.702070 213.542740 -117.151760 57 1
-85.962914 527.268070 0.721240 3 1
12.661029 217.303050 -106.475330 0 0
129.419950 480.544560 212.228070 6 1
-129.676530 512.393130 -67.162003 2 1
-15.569929 504.826630 255.933500 56 1
-11.527513 542.646240 1.575990 4 1
27.374512 187.335480 -51.391441 0 0
-41.773106 491.035250 -6.561178 0 0
93.155602 169.818310 66.379326 21 1
126.791490 328.130890 128.608730 15 1
0.557296 204.633990 -120.020390 0 0
-29.442591 412.378170 237.343460 18 1
2.522578 289.212280 4.114377 0 0
76.265320 218.730010 -33.576740 0 0
1.627189 133.980090 21.736214 0 0
-105.778180 201.181870 -205.788060 55 1
18.993170 179.609450 -66.535927 0 0
10.124460 603.716800 22.558712 34 1
-25.603298 246.697130 -84.023659 43 1
-6.988301 632.712520 11.010719 12 1
41.852962 138.753450 47.210556 0 0
20.830467 347.889370 180.441960 0 0
-117.088260 68.561829 -121.709470 49 1
-76.583298 107.293630 -87.361061 48 1
-73.252884 206.946910 -219.113530 55 1
-107.740380 100.374590 -81.446442 48 1
124.268840 579.630130 73.638145 1 1
82.938995 493.848850 67.679062 0 0
-53.226551 131.310270 -78.427734 47 1
31.178230 371.723820 192.415950 0 0
8.137474 403.293610 227.555650 17 1
-76.938095 236.146260 -32.296642 62 1
-22.060228 130.624100 46.539173 0 0
-90.318184 203.880940 -51.015923 60 1
-28.872921 191.000530 91.183853 20 1
28.911875 470.384550 35.315456 0 0
-73.300880 199.736480 -120.665310 58 1
-141.339200 222.526230 -128.947630 57 1
9.245750 160.392760 -8.970156 0 0
156.975890 590.195430 85.549889 1 1
13.102316 354.590000 153.920880 0 0
-16.471273 115.063140 -76.287636 0 0
136.766780 286.083680 -40.538399 42 1
-87.021812 265.713130 -28.758734 0 0
110.378060 442.546540 1.642729 30 1
74.072762 521.672970 50.027901 0 0
66.553185 333.133790 18.197571 38 1
-50.302605 328.189970 -79.513878 0 0
-32.423706 301.814480 -87.486214 0 0
-57.351730 508.350490 -2.555224 0 0
-100.574870 218.460800 -4.641182 62 1
25.782684 272.774230 -45.434940 43 1
-136.421480 154.415630 -59.191349 60 1
-24.204681 130.787160 -6.651734 0 0
65.466888 232.509640 -189.254150 39 1
-85.753082 202.001600 -37.318760 60 1
-101.373920 270.433810 -118.993210 61 1
57.857536 459.275790 38.040379 0 0
-126.321350 189.594100 -47.017521 60 1
-11.833183 199.644650 -104.521070 0 0
79.998978 351.858400 153.719450 14 1
71.832283 274.666170 -175.545240 39 1
-89.383736 222.009520 31.195869 62 1
36.400345 196.887420 75.622665 0 0
-96.492493 232.339680 16.170883 62 1
-0.450823 600.654540 -15.163799 23 1
-82.232529 204.458150 -137.096120 59 1
-144.608080 132.726760 -246.352570 24 1
175.027940 580.797180 94.072289 1 1
-70.859665 539.113770 230.718400 45 1
-33.751884 166.602600 -57.557499 0 0
26.486742 422.715300 28.295414 0 0
-83.637840 175.814640 9.248159 62 1
13.610450 247.441730 -1.275727 0 0
-32.357147 499.627080 251.866230 56 1
-118.207830 197.051530 -31.067881 60 1
19.551859 92.054520 -30.070263 0 0
139.490450 473.488800 229.691280 6 1
-175.314700 191.413010 -117.267520 57 1
-153.918620 460.134340 28.094625 65 1
-87.832962 285.341430 -164.714870 0 0
-2.329970 334.915070 181.209920 0 0
38.699074 420.849640 210.421770 0 0
4.304100 222.315750 18.108068 0 0
-126.155090 128.030260 31.417370 27 1
-36.347553 142.649230 -60.761673 47 1
36.462086 208.163270 171.321490 19 1
-112.992240 131.372990 -4.784154 28 1
113.379360 236.525800 -75.829124 35 1
11.420151 367.052980 203.584790 0 0
-107.834510 519.218750 51.471603 3 1
100.857710 495.726010 273.596620 5 1
-6.924531 235.688400 24.774923 63 1
77.129944 469.994570 52.075085 0 0
148.550260 338.288150 183.792690 16 1
-4.494461 594.834470 -34.942749 23 1
-16.501110 517.431030 157.916720 9 1
-135.627880 116.000210 -23.066334 28 1
40.960938 104.917900 12.084537 0 0
27.091843 170.202650 -25.909367 0 0
-62.340191 179.117160 -70.983887 0 0
139.442670 283.493230 -58.220623 42 1
-93.894699 235.470730 -179.555660 61 1
-3.102768 72.567841 -7.962896 0 0
45.843475 169.866010 27.146030 0 0
-1.553312 545.428650 -29.867359 4 1
-37.234173 499.420900 207.139300 9 1
-97.977554 215.746350 -181.647800 55 1
36.079567 169.196440 -47.395069 0 0
-64.789467 194.917600 -102.083710 58 1
43.927879 129.787260 32.218830 0 0
17.035269 191.295360 -28.093243 0 0
110.459890 505.378170 265.041470 5 1
-21.783043 257.240630 25.938150 63 1
-107.483250 174.577180 -157.446910 59 1
134.984010 238.357620 -63.549538 35 1
13.284220 61.586372 14.826159 0 0
144.395050 338.832670 167.203540 16 1
45.901512 327.178070 68.766876 38 1
-1.953054 76.911087 -26.716061 0 0
-3.322905 515.866460 143.698750 13 1
162.194500 581.699710 93.857750 1 1
74.337280 294.385010 -29.529221 42 1
53.265228 185.624650 109.917240 21 1
-39.003788 165.242490 9.498584 0 0
59.404301 183.240810 186.512280 19 1
-3.484481 152.387370 -77.051178 46 1
-1.240276 190.512410 -98.420166 0 0
-130.515500 129.748060 7.619831 27 1
-56.453480 273.151860 -75.962234 0 0
-106.224390 253.976090 -115.598160 61 1
10.736754 260.102360 -111.125440 43 1
-73.276993 175.427570 -94.683662 58 1
125.195930 504.910520 253.133500 5 1
43.469460 282.813540 55.616379 32 1
50.762112 136.713530 22.867838 0 0
-95.097572 260.459930 -47.420727 0 0
61.049931 270.986110 -60.499214 43 1
78.293327 198.470180 110.074630 21 1
58.057961 203.853730 140.611040 19 1
-24.482567 183.902340 108.573680 20 1
-28.322725 227.247760 -54.019009 0 0
99.997971 450.786710 6.828783 30 1
-28.316938 543.245360 -41.687119 4 1
-15.960281 129.079160 99.802376 8 1
-99.910461 167.334410 -138.995470 53 1
-102.502370 530.008790 -90.217926 2 1
36.854488 207.908660 151.950180 19 1
-115.561200 194.356870 -179.627210 54 1
-7.787612 175.095080 -143.283890 0 0
100.645960 488.538150 219.895750 6 1
-36.856968 230.019440 -89.862389 0 0
-16.372580 252.877150 -19.590002 63 1
12.406371 419.215550 12.448010 0 0
-91.891861 272.827880 -139.335800 0 0
-19.408104 649.029420 25.719452 12 1
