64.921021 189.403180 -2.360470 27 1
-4.363870 48.610832 5.385424 0 0
65.821243 199.851470 15.261736 11 1
-6.560730 64.129715 20.192142 0 0
6.276324 106.751980 25.081869 0 0
14.474078 280.942320 80.238319 7 1
44.305138 229.038220 24.214844 13 1
39.750618 223.182660 12.377901 13 1
0.932791 52.070992 -0.447464 0 0
-10.741546 318.318180 96.817047 8 1
-39.382420 245.967300 25.337921 0 0
-15.629204 242.218230 -10.208658 20 1
47.571987 216.706330 -0.408629 13 1
-28.462976 252.827590 44.435658 0 0
0.318367 116.919880 20.994951 0 0
-2.419703 98.207474 17.944830 0 0
-13.513799 184.335690 24.684538 0 0
5.661020 337.812160 16.732767 22 1
-75.146500 285.777470 55.252037 17 1
-11.499228 2.734291 -1.360612 0 0
-8.978001 4.113104 2.464181 0 0
-54.491699 106.309680 67.125336 15 1
-11.625273 212.684940 40.340126 0 0
-22.780722 271.277160 40.568893 21 1
0.401097 67.117722 -7.035237 0 0
17.977879 280.820590 89.683350 7 1
-72.796646 266.128480 -2.376825 18 1
6.088907 278.484310 97.266846 6 1
-19.954660 173.526260 29.008944 0 0
-27.098440 263.303740 49.611694 21 1
-77.802788 259.649290 0.277140 18 1
-27.732864 256.580170 -2.990860 19 1
7.073698 71.805672 -8.273745 0 0
-52.783661 117.421600 53.509010 16 1
-1.128085 147.028850 23.002447 0 0
-39.665619 98.938988 54.351383 15 1
7.337582 324.104060 1.758939 22 1
-33.552036 263.993410 -14.332283 19 1
55.164845 200.320050 -23.654764 28 1
3.717766 313.664610 103.748990 8 1
33.264896 233.646130 81.365494 10 1
-26.686035 118.204120 29.688034 0 0
-16.662416 224.183650 39.011642 0 0
-47.495800 333.387700 40.087650 9 1
-69.132225 266.979640 68.309799 17 1
-49.351250 274.986110 39.963516 21 1
-74.112274 259.491970 -13.581619 18 1
-30.000790 277.375790 46.410439 0 0
19.621008 160.428410 2.537201 0 0
24.589050 218.289540 21.468058 13 1
-0.479518 326.735050 -35.221596 12 1
44.032104 309.169190 32.285011 4 1
1.610786 53.250877 -13.515954 0 0
-58.879887 108.982710 57.280441 15 1
-61.379765 277.745210 11.975694 18 1
6.902817 95.892288 1.248623 0 0
-43.184631 223.274220 36.156437 0 0
-71.953316 264.751370 -9.207161 18 1
-6.605617 77.435715 -0.812226 0 0
-12.201865 165.089800 32.409100 0 0
59.166477 196.559740 -28.177805 28 1
-15.088799 287.065090 103.264610 6 1
-76.820969 278.605070 61.605263 17 1
63.704605 199.742580 20.269156 11 1
-25.468239 222.534620 23.247530 0 0
-61.535625 108.077840 53.769363 15 1
-13.331936 323.945800 70.066383 8 1
-71.302841 271.989260 3.323715 18 1
-62.523693 293.372770 48.281452 17 1
1.071883 327.585910 -13.639311 12 1
-20.553064 321.710110 81.461945 8 1
-64.758369 271.933720 66.704391 17 1
71.100143 197.408540 -31.788498 26 1
-18.097322 225.358020 31.997158 0 0
-7.285138 215.182630 55.841114 0 0
-32.329437 174.867250 34.616779 0 0
28.540476 278.592410 120.454800 5 1
49.571068 225.426190 55.816883 13 1
5.181453 345.636440 31.372990 22 1
22.396914 282.567690 78.951302 7 1
-16.476936 100.110400 19.433414 0 0
35.494766 272.100710 125.352220 5 1
-80.749184 243.171170 -9.706079 18 1
22.818794 224.318700 25.032829 13 1
40.896469 278.945070 109.005040 5 1
58.299244 219.725950 56.749493 14 1
-45.231537 101.804120 53.740952 15 1
-13.793658 276.251650 25.352448 0 0
65.240189 206.731030 30.732424 11 1
1.278069 98.115845 25.686378 0 0
-8.997706 149.336010 35.728798 0 0
-10.325496 196.811630 39.565491 0 0
22.316687 281.495570 68.015404 7 1
39.361198 236.336240 129.053860 5 1
79.323746 197.381640 21.755852 11 1
0.210229 336.198640 7.055276 22 1
19.264389 333.078950 1.272178 1 1
-26.044397 252.102680 39.144489 0 0
-80.244247 248.121410 -5.370047 18 1
53.428726 297.101500 63.935513 2 1
-46.128925 116.759280 50.685532 16 1
-31.919611 322.173680 65.222260 8 1
45.676968 311.288760 37.299038 4 1
-48.159054 269.874330 44.856155 21 1
14.247978 162.454990 3.158014 0 0
-72.747902 258.493870 69.781425 17 1
22.118063 278.840970 86.825020 7 1
-1.108332 23.292292 1.088245 0 0
37.725937 167.719940 -65.163307 25 1
-38.942295 222.290950 41.538361 0 0
-22.632734 85.536324 46.344334 15 1
28.914076 273.471440 81.715820 7 1
4.618999 323.941010 -24.728220 12 1
56.955212 202.883480 23.673861 11 1
-32.809883 226.320830 25.256662 0 0
-45.928265 109.106800 55.969833 16 1
-5.028871 25.652779 -0.318351 0 0
-39.273342 266.527370 51.700085 21 1
53.529507 222.008130 49.901169 14 1
-44.238197 272.374510 37.601780 21 1
35.311565 179.037540 -71.666504 23 1
-26.303873 272.200500 43.443943 0 0
16.254234 149.370040 -34.106133 0 0
-51.929577 333.079500 44.640572 9 1
-0.282506 251.387920 34.392776 0 0
39.273045 335.150540 -3.904522 1 1
-4.035429 279.745060 103.836170 6 1
-12.526164 58.397915 21.863295 0 0
20.917120 310.866880 73.668785 3 1
42.488392 227.942580 42.871506 13 1
-32.008694 91.662018 48.732853 15 1
-21.428961 219.187240 23.347668 0 0
18.955561 284.461330 70.295212 7 1
16.334965 281.141390 75.511475 7 1
53.727974 158.042540 -53.858955 25 1
-3.075850 287.896330 36.835716 0 0
-1.616309 323.122250 -42.126961 12 1
-23.053425 86.931267 39.647141 15 1
-26.515842 168.950820 39.496643 0 0
-50.352341 331.308070 57.244171 9 1
-13.815646 243.623150 -23.101101 20 1
24.551056 214.686420 18.120926 13 1
31.983620 228.421840 39.074085 13 1
30.500349 183.270370 -76.262604 23 1
10.079299 229.321840 66.882240 0 0
-18.453951 276.646670 36.046219 0 0
36.235321 280.436490 112.204770 5 1
-16.635038 91.650429 27.559126 0 0
-37.760952 110.055220 53.038712 16 1
-4.553766 18.313976 2.622959 0 0
50.326611 220.816350 11.064895 13 1
26.948153 278.423460 86.005806 7 1
85.281464 176.373290 17.279337 11 1
-19.395664 234.797910 36.883778 0 0
5.625904 322.511260 -32.681744 12 1
-12.247363 197.709090 23.644278 0 0
-11.552744 82.559158 6.323240 0 0
-11.516698 247.087740 26.975393 0 0
-15.587486 150.357040 36.813831 0 0
69.833061 195.325040 12.512510 11 1
-19.601887 255.957720 -5.534920 19 1
53.218517 163.595200 -57.425831 25 1
-20.247332 168.826000 29.217268 0 0
18.476768 154.273210 -32.421783 0 0
57.897800 331.707460 -6.927640 1 1
-3.037620 87.573288 -10.608079 0 0
-20.203180 293.028750 22.290216 0 0
-11.077976 323.286380 86.303795 8 1
12.164455 180.634140 23.182936 0 0
8.925090 325.499270 -8.401817 12 1
-2.172907 53.067421 10.309258 0 0
-60.311329 112.072610 66.890396 15 1
-13.325946 194.269590 27.548628 0 0
-15.608145 160.353810 34.779484 0 0
-7.613172 124.379110 4.570404 0 0
-12.637478 170.034450 29.579180 0 0
-78.624046 256.094150 -1.715701 18 1
-41.057140 323.541230 51.113274 9 1
58.068069 299.165130 56.516632 2 1
-6.572499 45.348919 -0.832188 0 0
-57.054379 332.485660 49.645817 9 1
35.226791 275.645870 81.597725 7 1
-23.746767 231.413590 40.372437 0 0
64.513290 284.523680 58.311417 2 1
16.864672 155.975490 -0.388991 0 0
-75.986984 263.348880 4.839719 18 1
-13.132843 278.036100 34.637737 0 0
5.241292 53.398392 9.235704 0 0
65.659843 191.243470 -10.632161 27 1
-46.222569 328.973080 42.503258 9 1
-20.320629 268.745820 45.685158 21 1
6.427711 326.466220 -1.501646 12 1
-15.853662 284.737030 108.812040 6 1
27.188646 279.021970 78.881775 7 1
75.066429 196.881290 11.893361 11 1
7.039731 333.089420 4.284071 22 1
-52.297630 124.228410 46.471512 16 1
21.859308 313.644530 70.180473 3 1
6.591139 61.496391 -4.675601 0 0
-51.517330 100.416180 49.297047 15 1
1.083204 109.505490 12.604915 0 0
-55.748234 274.526950 31.447308 18 1
-12.506513 87.393341 19.893997 0 0
-32.264416 234.749510 26.358562 0 0
-37.598557 271.452030 47.623901 0 0
42.391045 228.397830 37.848103 13 1
49.241791 305.348390 62.678215 2 1
-27.656202 248.098650 33.454720 0 0
-26.520697 322.465700 76.097389 8 1
16.910536 325.292050 -8.313239 1 1
-84.953598 243.721970 -1.877645 18 1
-63.698509 330.523410 37.485989 9 1
35.415627 281.344510 104.768730 5 1
27.282684 232.995610 31.753529 0 0
4.549584 277.488010 85.562088 0 0
23.221355 158.185680 -43.924007 0 0
8.006580 344.314090 37.278648 22 1
50.684021 160.351260 -67.057014 25 1
41.510494 245.198460 131.383480 5 1
10.673347 92.961227 24.583313 0 0
61.658787 212.163990 54.155571 14 1
29.101301 164.209610 -61.396603 23 1
15.673878 76.296471 10.203456 0 0
-46.260616 225.634250 43.061226 0 0
-54.172237 295.688630 40.413940 17 1
-23.649319 271.785030 36.569469 21 1
48.639614 227.119890 39.843079 13 1
-0.954697 99.966362 -3.991896 0 0
41.683083 333.450870 -10.692383 1 1
39.186489 310.131740 40.716736 4 1
22.936655 308.212980 66.899780 3 1
4.118255 320.949490 -36.365864 12 1
38.550129 337.601590 -0.184611 1 1
32.294033 214.308990 21.467621 13 1
-16.445742 251.408430 5.960291 0 0
-4.235047 259.294920 28.401390 0 0
46.175529 164.855300 -69.081589 24 1
15.022636 64.141350 3.539435 0 0
84.596535 183.507400 16.155226 11 1
-13.934776 252.953060 40.084656 0 0
42.442635 227.500730 48.129745 13 1
-8.213891 133.649050 37.705990 0 0
-5.673885 252.425830 72.343468 0 0
-27.060493 244.910420 41.726234 0 0
-53.490036 276.632230 12.372973 18 1
37.674835 162.190050 -67.229744 25 1
6.530634 240.062850 77.272964 0 0
34.859058 163.530330 -62.510921 25 1
-67.743362 273.845000 -3.921523 18 1
-7.331792 158.207950 27.336554 0 0
-26.637623 165.009810 41.689426 0 0
-16.557243 327.006650 63.652931 8 1
41.546700 271.290710 66.998276 7 1
-1.733756 121.406270 12.639107 0 0
52.699944 214.313740 46.317581 14 1
-19.348106 246.374850 27.305820 0 0
33.876564 272.158420 64.452415 7 1
-14.909250 250.034410 33.643291 0 0
9.089025 94.551659 16.398148 0 0
-35.034668 97.180084 45.923912 15 1
23.632494 146.121640 -0.196850 0 0
19.478792 224.820360 27.751245 13 1
41.581154 222.832890 6.885460 13 1
-69.941788 267.521030 -6.987898 18 1
28.637197 165.146640 -52.108730 0 0
-21.701012 79.651352 19.922146 0 0
-1.454166 329.907840 -9.971004 12 1
-65.238281 293.024410 28.712238 17 1
-4.021139 106.579700 8.713313 0 0
-52.942635 266.596650 22.580633 0 0
-25.801142 260.009120 -12.173283 19 1
8.596633 69.862778 0.965646 0 0
53.679184 157.733430 -78.701210 24 1
8.412776 321.965420 -26.042236 12 1
-11.519805 89.373672 24.501240 0 0
74.088387 183.206620 0.807984 27 1
43.540668 228.658080 32.667976 13 1
-8.725896 76.901245 17.196827 0 0
-61.357990 332.909940 49.499264 9 1
-9.857238 178.951520 31.668240 0 0
-8.364746 208.533480 51.120827 0 0
28.624706 306.951780 52.813011 3 1
15.147798 286.787320 79.291847 7 1
32.845387 309.164090 58.226421 3 1
69.213478 187.329250 -4.913020 27 1
31.553854 185.977630 -71.347343 23 1
-29.642889 326.429870 71.462143 8 1
43.364559 306.117190 54.047173 2 1
-9.313112 325.712280 11.652102 0 0
3.918799 99.069260 11.468514 0 0
-15.515151 60.959282 -9.088862 0 0
-23.321428 133.694380 35.035816 0 0
-19.629705 64.365097 -13.525077 0 0
34.168255 181.409450 -68.376808 23 1
-0.013977 127.772910 12.380461 0 0
29.442326 330.835720 -1.827854 1 1
-54.831272 295.133330 48.231792 17 1
31.729624 276.321010 122.052090 5 1
-10.845657 99.611130 35.199970 0 0
-40.379478 99.719322 67.555138 15 1
-15.372602 207.420060 35.408459 0 0
73.651527 196.164700 -23.773397 26 1
60.156792 154.760640 -56.331589 25 1
0.303629 59.275955 6.245037 0 0
86.516525 181.022660 -25.196394 26 1
-65.024918 253.406270 67.141159 17 1
-10.761361 282.852810 107.263560 6 1
1.666617 67.648781 5.485780 0 0
-29.812439 261.579960 -19.849117 19 1
54.656902 331.610630 -1.753312 1 1
-36.726528 260.502290 -24.646852 19 1
46.171291 332.371950 -11.237964 1 1
6.177847 125.497480 23.855198 0 0
-20.002134 237.171890 2.963151 0 0
-79.119843 115.653220 58.747902 15 1
-0.511984 94.476234 24.098522 0 0
-8.240824 166.825070 28.472637 0 0
-63.028538 293.342220 44.180058 17 1
27.683857 229.914930 79.782990 10 1
43.890884 166.310210 -64.568169 25 1
8.849347 79.888527 11.523822 0 0
54.937981 194.713990 -17.543303 27 1
65.488533 201.697570 25.746050 11 1
-40.967403 258.190400 -24.039379 19 1
-45.307121 108.572050 62.697803 16 1
-47.889729 127.915230 43.856594 0 0
31.587391 276.976380 73.287079 7 1
0.773215 224.463130 58.280209 0 0
-82.367722 282.390260 55.958126 17 1
31.715809 311.966920 37.436890 4 1
-26.044720 92.946495 35.303730 0 0
-3.712601 29.956573 3.129598 0 0
-2.455699 259.163090 73.534454 0 0
-69.981018 281.587800 58.558197 17 1
40.474045 235.948760 82.953751 10 1
26.504856 154.683820 -4.874710 0 0
-27.637026 77.106239 17.759960 0 0
62.009651 198.079240 13.554249 11 1
39.404922 302.398900 56.025028 2 1
-26.418152 253.136060 8.121399 0 0
-80.284668 246.158310 -12.408349 18 1
-31.128242 231.897610 44.738186 0 0
67.981247 193.983990 -27.096283 26 1
31.036455 272.501220 77.211929 7 1
-65.287041 331.245540 45.890610 9 1
36.550980 220.146150 8.559104 13 1
-25.808004 251.335360 -1.460365 19 1
15.077209 223.053210 69.459969 0 0
5.764668 81.774506 -3.472342 0 0
-48.899731 111.578770 58.104816 16 1
12.434611 151.120590 -30.905458 0 0
-4.282589 109.297620 21.476427 0 0
-4.998460 130.215480 22.461794 0 0
-30.753382 319.051060 57.699104 8 1
-17.619810 180.527880 25.461020 0 0
-12.837516 205.119830 50.369938 0 0
-5.485255 117.627040 15.761819 0 0
34.317329 221.977280 34.648979 13 1
-10.795638 258.444120 39.170528 0 0
63.654530 288.055970 62.105595 2 1
13.945948 311.064150 80.228119 3 1
55.271870 213.205180 41.815586 14 1
11.083318 323.418580 -19.894402 12 1
-85.095741 247.868730 -0.192515 18 1
-12.289055 271.513090 121.980890 6 1
10.509483 137.093720 31.509651 0 0
-37.883049 243.641080 48.149311 0 0
45.414650 232.752300 11.288859 13 1
6.388989 143.054240 31.934187 0 0
3.174324 236.328110 73.622154 0 0
-12.839970 188.677410 27.821333 0 0
50.741665 329.519680 -9.587949 1 1
-31.351301 322.313290 76.146072 8 1
-30.805153 157.910110 39.575600 0 0
-7.244081 285.865260 100.783260 6 1
-11.517025 150.946110 29.713085 0 0
-67.923210 279.649870 65.021088 17 1
-27.999153 230.016390 42.197781 0 0
4.991620 50.424694 14.536114 0 0
74.650627 201.791320 24.227654 11 1
13.380539 326.230260 -14.208988 12 1
-16.256729 314.760280 15.653319 0 0
51.700706 221.932590 19.073568 13 1
6.766468 145.852160 24.349428 0 0
-7.298951 266.158630 23.324348 0 0
-19.551149 246.816450 8.939153 0 0
46.070423 230.025820 18.772047 13 1
34.648586 171.001750 -71.421097 24 1
10.462908 151.768390 26.751747 0 0
41.791874 227.311570 26.947803 13 1
69.677765 189.662260 -8.260956 27 1
-22.077839 267.214870 129.355180 6 1
-7.925886 102.327110 13.817334 0 0
-25.233843 323.482210 80.617142 8 1
-80.881973 238.943710 -10.539536 18 1
-31.833012 130.604260 40.837910 0 0
-46.658005 101.522820 64.350624 15 1
-66.001640 272.723850 9.733444 18 1
57.006233 190.940370 -21.113445 27 1
-66.162956 261.018490 68.026978 17 1
27.524271 274.961150 74.607834 7 1
1.165758 54.406750 3.934919 0 0
52.849602 205.706890 -27.274223 28 1
-7.772765 234.667630 55.741627 0 0
-33.375431 258.473180 -19.931442 19 1
25.893391 186.768830 -76.729088 23 1
-0.750579 93.238724 9.591963 0 0
-32.534431 240.630460 46.660160 0 0
-10.019140 325.062620 73.850479 8 1
-8.290621 81.111839 2.373392 0 0
-40.015461 327.902710 42.253662 9 1
17.508402 229.435670 49.409840 0 0
-13.772246 259.380770 21.229408 0 0
-0.520565 124.662450 18.141584 0 0
-10.914392 239.352810 19.420662 0 0
67.546036 197.490300 -29.816292 26 1
-75.134926 291.375520 39.319298 17 1
-38.718773 322.901920 58.932625 8 1
41.248409 226.426380 -0.288519 13 1
-3.518344 284.718020 99.604874 6 1
-59.815155 278.794490 -2.819361 18 1
15.903285 75.338440 -0.694255 0 0
-55.889385 104.397360 53.913990 15 1
42.079880 259.158390 124.089060 5 1
-58.694725 295.356960 45.608860 17 1
-64.156441 286.382660 27.158943 17 1
35.199375 274.893280 73.343437 7 1
-11.538044 242.560850 63.435246 0 0
5.881973 276.982120 89.485107 6 1
40.090828 255.222490 127.201320 5 1
41.543842 312.292630 32.291927 4 1
2.401964 268.913180 80.519432 0 0
-49.492607 108.158400 73.009117 15 1
55.405308 214.088940 53.552979 14 1
-32.523758 125.397770 43.700386 0 0
-16.312840 245.496150 34.163002 0 0
-5.904013 78.303764 10.281994 0 0
-24.918175 130.977890 32.301643 0 0
-22.086227 254.776920 46.014881 0 0
53.006927 228.396580 53.280159 13 1
-66.833076 270.765990 2.131613 18 1
2.923957 326.069820 -31.225561 12 1
58.400745 207.696980 32.142391 11 1
77.254913 191.819550 -16.535339 26 1
-27.559216 268.655090 29.827740 0 0
-38.714725 254.366710 47.714882 0 0
23.943541 305.012020 47.485558 0 0
52.874374 202.481780 20.340635 11 1
9.682880 115.363720 32.726887 0 0
-75.565010 262.867430 68.336342 17 1
-71.142876 270.332000 19.551456 18 1
-29.829086 324.133330 62.234718 8 1
41.873184 273.644320 108.843790 5 1
50.352383 158.465610 -61.267426 25 1
-9.351740 241.772570 -15.553960 20 1
-25.391348 145.143460 37.416908 0 0
27.471630 333.729060 -6.495241 1 1
-59.315105 283.954830 27.287500 17 1
-26.503265 236.950100 44.662384 0 0
-20.128716 220.047470 41.220875 0 0
5.901749 175.264430 25.801491 0 0
-6.114870 279.218660 111.070930 6 1
-3.426818 179.146160 24.294157 0 0
17.023392 148.102020 -4.312922 0 0
-14.209640 243.224460 21.698168 0 0
-12.208010 273.880130 38.194450 0 0
-33.965263 269.788760 33.642921 0 0
-5.700986 85.344498 1.768930 0 0
-19.399630 288.418400 24.189066 0 0
79.823586 182.010600 15.985703 11 1
38.977673 313.141820 36.947170 4 1
-39.449486 326.333680 45.866089 9 1
-33.672485 327.884370 42.532257 9 1
-16.223608 162.547590 29.075176 0 0
9.788290 243.878340 31.146288 0 0
66.529175 189.956270 -18.177258 27 1
62.428570 325.932070 -9.154831 1 1
-30.138163 323.062160 47.157997 9 1
-19.218971 270.952670 42.602974 0 0
-24.030453 89.920006 25.609495 0 0
33.714504 229.382420 85.847511 10 1
-12.962954 71.232826 -5.239575 0 0
60.920521 283.153900 62.645004 2 1
0.473564 329.014740 1.336475 22 1
-30.811649 262.498990 -3.261045 19 1
-32.854996 283.902400 44.025276 0 0
61.460636 209.066300 76.427719 14 1
-39.554382 257.428830 50.365257 0 0
-9.682412 54.492699 6.455174 0 0
44.990250 218.686630 2.698463 13 1
-6.736281 58.316986 8.900736 0 0
-35.430965 328.547940 60.584747 8 1
-3.449443 101.781590 3.174329 0 0
-17.922203 68.535294 -10.160764 0 0
49.459332 231.787200 49.891262 13 1
-16.633017 320.650730 86.801552 8 1
9.938005 228.614900 63.016514 0 0
24.935909 333.801570 5.540782 1 1
6.601606 230.958190 57.820560 0 0
58.252335 291.076320 66.583511 2 1
3.518135 335.253600 10.105892 22 1
19.041664 283.451050 81.152702 7 1
-32.003361 247.939150 39.887379 0 0
-18.386120 75.340942 38.606327 0 0
38.775963 259.572850 131.253510 5 1
-2.516874 155.228130 23.807571 0 0
38.243778 310.305050 47.320335 4 1
-16.957476 79.409126 28.917801 0 0
-14.454400 194.579380 37.088383 0 0
-32.010056 277.013640 33.956905 21 1
16.501141 229.314580 60.849091 0 0
69.874939 203.322970 24.436609 11 1
-79.814163 269.894960 59.257652 17 1
2.208410 290.824250 37.856518 0 0
-6.701898 318.863590 96.390350 8 1
-43.059700 214.205830 18.942047 0 0
-46.322220 328.114040 48.467949 9 1
-58.395138 290.754210 62.388912 17 1
41.142105 270.309450 80.517105 7 1
9.709056 336.637730 16.264099 22 1
-26.718082 255.921370 19.061314 0 0
-7.515233 270.051330 34.576336 0 0
60.802563 284.767360 69.049599 2 1
-30.993240 211.127520 16.430529 0 0
-11.012527 143.405290 35.696217 0 0
55.452728 217.162510 38.680164 14 1
-31.968946 226.189590 34.849457 0 0
2.064664 345.789670 17.758003 22 1
79.095612 195.135990 -32.184624 26 1
61.136372 216.772860 67.570923 14 1
23.636953 230.639280 73.327110 10 1
-25.692997 256.315580 49.987617 21 1
-63.928478 278.067500 63.359932 17 1
63.258778 193.116060 -25.341148 27 1
9.599773 235.151870 72.771255 0 0
-36.855797 97.328094 61.185555 15 1
13.825807 57.029060 7.334871 0 0
16.381401 313.344210 76.119545 3 1
-17.580299 325.706210 71.326485 8 1
50.230175 158.552410 -71.295349 24 1
17.358465 222.033940 21.305765 13 1
-31.938385 124.974070 39.812897 0 0
23.681471 162.785080 -46.598225 0 0
-16.628939 175.621200 28.244476 0 0
-1.653151 117.543690 12.134475 0 0
3.111298 104.445430 18.695057 0 0
-3.277925 159.268650 29.951290 0 0
-25.780777 231.737810 37.066650 0 0
-20.591490 321.930080 74.711235 8 1
-58.690422 269.952450 20.965055 18 1
-0.254718 85.280083 -7.305166 0 0
-41.238987 226.068820 47.793816 0 0
0.570097 103.698910 7.943413 0 0
1.754713 280.890590 95.321945 6 1
16.133146 168.105770 1.445401 0 0
23.986004 281.339110 105.749970 5 1
-41.845871 219.979290 38.088684 0 0
5.041787 64.182678 4.012860 0 0
-6.316362 0.579261 3.168198 0 0
16.869497 282.747740 85.941460 7 1
-32.264263 228.967760 47.326530 0 0
-12.855733 249.678680 38.048820 0 0
85.459633 193.057140 -31.538885 26 1
6.788578 343.574130 19.174734 22 1
18.411798 142.268950 0.518451 0 0
-9.023582 175.296330 26.747108 0 0
-31.292936 130.790630 31.506250 0 0
-81.840950 251.824520 -6.212094 18 1
-9.703187 239.917140 27.442007 0 0
12.055907 277.816130 94.228271 7 1
46.021103 162.445370 -76.231155 24 1
-5.722227 71.861076 -4.612445 0 0
-33.709690 229.960970 31.131334 0 0
52.207306 303.826320 55.354923 2 1
-11.138284 70.465416 13.161575 0 0
-76.841347 266.784480 0.640527 18 1
-46.742443 99.418861 56.395069 15 1
-4.731935 3.858938 -1.426840 0 0
38.125408 269.687740 120.670730 5 1
29.958029 187.245560 -76.389565 23 1
41.430256 162.178990 -65.975700 25 1
-23.563730 73.840714 37.008011 0 0
84.542961 185.920720 -29.445084 26 1
12.110436 323.424380 -0.447119 12 1
-4.018713 142.579860 23.491402 0 0
-6.700472 62.516212 -14.148010 0 0
-43.776577 276.562530 33.260078 21 1
51.884708 300.854030 52.883427 2 1
-35.435047 95.470200 54.790035 15 1
52.202358 212.374250 39.219036 14 1
-12.528135 328.983370 70.078064 8 1
3.963234 112.986070 21.711987 0 0
-8.441081 272.599880 27.269655 0 0
84.944038 185.600660 -23.800623 26 1
4.746042 72.691841 1.985824 0 0
-17.284842 218.056850 23.099558 0 0
-50.702835 107.990490 68.103828 15 1
-34.655838 274.842900 40.850143 0 0
45.031334 223.245650 37.302296 13 1
-60.511589 274.792180 2.307791 18 1
5.590765 139.372120 32.767044 0 0
1.631672 339.723660 7.718278 22 1
-22.829500 132.234970 39.263409 0 0
4.631521 272.754180 83.619682 0 0
-2.213786 286.168880 95.957359 6 1
15.067286 229.718370 73.108696 10 1
6.353363 133.149520 -16.263136 0 0
14.286901 70.603371 -6.653589 0 0
-1.057152 135.303040 12.609582 0 0
29.644009 181.635440 -70.433502 23 1
-19.431572 217.535350 38.380310 0 0
-26.024115 246.279570 -2.401516 0 0
-38.763260 221.975360 33.498238 0 0
80.767563 182.081650 2.438498 27 1
53.584625 301.720280 61.285934 2 1
-1.624228 64.346214 7.171906 0 0
43.469112 227.741910 14.388973 13 1
-42.208439 134.182190 39.182667 0 0
-29.240540 134.881900 37.128597 0 0
1.420868 123.408670 13.576499 0 0
-15.295325 238.511320 35.743744 0 0
-12.177541 322.088900 95.562836 8 1
12.372539 330.776700 6.151490 22 1
62.193802 198.486480 -29.676029 28 1
49.912380 225.836240 47.832214 13 1
-61.084229 291.632840 31.445827 17 1
-59.385746 335.680270 43.501411 9 1
-10.330374 60.597767 8.577340 0 0
-22.324953 158.653000 30.752726 0 0
7.511323 122.743360 -7.864172 0 0
50.730839 201.932040 -23.117065 28 1
69.078621 189.925160 0.705592 27 1
36.984787 171.279860 -66.554543 25 1
18.212275 331.589510 5.730749 1 1
4.374802 84.428436 -9.437001 0 0
-0.604579 139.202290 23.272463 0 0
85.522491 189.054000 17.388866 11 1
-82.117699 277.525970 59.341450 17 1
-10.985608 81.774689 22.133820 0 0
-13.807033 242.626880 5.133090 0 0
-8.803496 127.371890 2.439775 0 0
80.296227 190.140200 -27.973976 26 1
49.502201 256.762420 72.325706 7 1
-62.666824 290.733950 35.165779 17 1
-63.612309 272.931550 19.340630 18 1
77.705605 184.773800 14.199059 11 1
33.632587 282.312130 110.039700 5 1
-16.694757 236.258770 32.343208 0 0
0.113333 220.673810 59.136070 0 0
-6.981677 242.145680 60.986385 0 0
42.409611 227.765880 6.827969 13 1
13.634116 327.544340 -10.330939 12 1
-10.571873 204.792910 40.494373 0 0
59.784706 158.155750 -60.211330 25 1
-39.452927 104.725300 61.232910 15 1
-7.757006 329.954160 5.211487 0 0
-67.497406 245.065800 72.012413 17 1
-20.386250 252.721080 -8.947560 19 1
72.116188 188.342100 -2.629683 27 1
60.517185 208.635890 58.924850 14 1
-49.469986 107.259900 63.178211 15 1
-34.774113 93.667984 43.894394 15 1
-12.969378 321.071230 91.708199 8 1
-76.096840 251.791780 -12.322155 18 1
45.800213 168.975010 -59.212444 25 1
19.383350 282.562930 112.610330 5 1
-58.893730 293.649170 38.275146 17 1
-45.614563 248.224730 21.676128 0 0
-20.684187 172.272050 44.601177 0 0
-43.589161 226.698040 40.524883 0 0
-14.856156 325.363250 76.402153 8 1
-11.155797 276.077510 115.919430 6 1
-21.507051 283.808380 28.047857 0 0
30.748112 274.402280 84.976288 7 1
-23.856594 160.730530 40.897675 0 0
-42.375648 114.602200 48.519146 16 1
0.103752 177.149980 23.772499 0 0
-0.716096 333.541600 -19.844210 12 1
7.402000 126.397370 20.043468 0 0
23.542561 281.256440 121.225580 5 1
21.259697 275.330840 89.573204 7 1
-60.262684 279.356570 5.094833 18 1
-11.345081 213.698840 45.457764 0 0
-24.028542 255.976470 -2.296032 19 1
-14.571486 283.427430 26.330946 0 0
-23.011415 256.784360 40.469368 0 0
-3.056776 78.985626 39.200489 0 0
38.571423 214.186740 20.330435 13 1
-50.620617 101.736430 59.588413 15 1
42.230087 308.610020 27.666483 4 1
0.965737 150.627700 23.680021 0 0
1.688112 108.462720 25.581913 0 0
74.584068 198.224080 -28.182266 26 1
10.540299 134.963500 -5.183106 0 0
-7.539542 324.394870 80.988564 8 1
33.333401 276.387850 66.220245 7 1
24.035755 327.456120 -0.394719 1 1
46.110336 269.281220 111.659120 5 1
-28.752247 220.169830 15.455167 0 0
35.418941 276.115840 112.698430 5 1
-34.867687 239.871380 25.186245 0 0
-45.483879 103.244550 70.592972 15 1
23.120211 284.565950 115.823180 5 1
63.340714 189.763810 -22.763029 27 1
-18.622156 231.226940 37.949600 0 0
4.433303 58.874069 6.180665 0 0
-2.102016 140.142180 18.167501 0 0
59.291634 215.669340 56.026619 14 1
17.698954 322.401340 0.399811 1 1
9.748274 282.639340 80.839767 7 1
-30.425760 134.577210 41.168793 0 0
-3.936734 125.637130 8.107393 0 0
1.775076 275.632350 115.493500 6 1
80.405190 198.904510 -27.539227 26 1
-29.959080 170.056630 40.717323 0 0
3.797815 89.382645 25.076605 0 0
5.281727 102.488660 -1.083954 0 0
62.864441 190.964870 -5.147125 27 1
-4.228663 219.698820 54.479675 0 0
35.889374 225.750050 27.165848 13 1
11.958773 83.721970 6.919191 0 0
-22.869009 110.679960 22.847788 0 0
5.431175 93.676262 22.299038 0 0
1.833548 340.526610 14.921842 22 1
-4.629016 318.912750 101.246520 8 1
-31.688688 193.113200 26.021151 0 0
-43.239689 225.279790 52.858894 0 0
-65.234543 290.413850 52.167564 17 1
21.685637 284.618620 109.700450 5 1
63.806126 193.893750 -16.097879 27 1
-0.020225 279.174290 105.734870 6 1
-25.195084 259.669070 -18.308727 19 1
-18.301197 280.789430 29.632223 0 0
-9.904973 286.091950 97.260925 6 1
6.870958 125.069050 -12.271415 0 0
10.122160 341.992370 20.452204 22 1
-24.248592 269.956420 122.917630 6 1
-53.030193 276.212430 28.630171 18 1
-6.779221 251.726200 67.482765 0 0
11.322388 73.660049 -0.118431 0 0
-4.155466 25.076729 3.346689 0 0
-55.377537 270.044860 27.002384 18 1
-32.465355 295.033480 53.035519 0 0
38.900749 273.148560 68.958672 7 1
-23.775913 172.957470 38.947868 0 0
-7.819374 325.427860 77.364525 8 1
-78.752701 248.418470 -9.703971 18 1
57.009563 212.942260 64.383820 14 1
-12.572027 59.540356 17.806753 0 0
-27.622849 184.227720 44.244339 0 0
-0.765981 132.241440 20.807817 0 0
-24.399929 154.819640 32.722588 0 0
12.965374 284.641970 100.446740 5 1
-1.501994 85.039070 -14.103694 0 0
1.286573 150.220980 30.699692 0 0
-2.059934 94.932137 20.086380 0 0
43.334934 263.554780 82.337265 7 1
69.397346 200.237960 16.640358 11 1
-59.014484 272.010350 26.970284 18 1
-34.796555 231.905030 25.423735 0 0
16.213463 233.602580 42.217625 0 0
-34.936405 133.216320 31.644659 0 0
12.926660 64.030693 -7.424700 0 0
52.369274 207.993990 -31.060457 28 1
16.658253 66.585571 -8.110376 0 0
-31.176266 308.826660 53.325401 0 0
-2.954756 57.287449 -9.927414 0 0
35.824833 276.326630 119.084780 5 1
-71.053261 250.355610 70.471283 17 1
-17.763033 318.513670 93.038971 8 1
-16.046692 261.066100 46.188824 21 1
59.749920 204.296170 30.614120 11 1
-31.592609 264.639710 29.946230 0 0
7.180303 326.271610 -15.411686 12 1
-7.349924 236.400960 -28.170658 20 1
-11.094667 232.865300 55.902092 0 0
-60.187099 273.879060 14.361142 18 1
23.139912 311.165890 64.405144 3 1
0.144263 287.148960 38.630062 0 0
-41.024879 333.480040 40.301117 9 1
-12.665734 252.799620 32.433338 0 0
-3.507984 79.184090 -3.425045 0 0
-55.803898 273.851720 38.014194 18 1
-73.868683 294.946170 40.791306 17 1
-30.884441 313.531340 54.564903 0 0
-20.248129 242.008730 -4.268217 20 1
-83.749573 258.085690 1.193211 18 1
77.931717 191.451250 17.581329 11 1
-19.904867 257.698850 19.790731 0 0
-4.376659 71.167206 18.713245 0 0
40.269657 217.179500 12.237411 13 1
-69.685547 281.587310 62.303352 17 1
35.987686 278.156980 108.837300 5 1
26.040998 313.186490 57.456203 3 1
-62.363354 290.068050 56.131203 17 1
61.150124 206.915730 72.742279 14 1
39.605152 180.052550 -13.695358 0 0
-31.810352 260.057950 -8.221064 19 1
-10.926859 280.340970 36.871239 0 0
9.879269 336.079010 9.930286 22 1
-18.649225 145.635300 33.816914 0 0
-16.079552 218.519490 43.151257 0 0
-47.666054 117.551800 47.332764 16 1
11.776305 285.498110 83.037880 7 1
17.467281 331.028810 -5.306043 1 1
-55.142826 331.401430 46.543842 9 1
-10.044331 62.155998 16.431093 0 0
-21.684319 168.677520 35.008331 0 0
-29.679710 119.421680 26.568192 0 0
0.162356 52.910172 7.383424 0 0
-8.368185 137.604060 38.941051 0 0
-15.919039 218.735920 34.057476 0 0
44.978558 264.817170 65.817719 7 1
-78.423355 288.123110 48.210430 17 1
42.125237 305.237340 60.873631 2 1
-24.851965 321.748140 63.887161 8 1
-10.135975 228.300810 49.153931 0 0
-24.301247 230.382550 10.655471 0 0
-24.639904 245.077790 4.250160 0 0
-25.650169 256.552060 33.929367 0 0
-0.764113 273.057830 121.768760 6 1
8.578356 330.207460 1.724098 12 1
37.077293 232.068270 86.436348 10 1
-35.621700 325.402530 50.028950 9 1
2.742975 116.480800 15.928325 0 0
-16.206036 326.700380 59.454788 8 1
-11.820505 187.974950 24.238230 0 0
-20.279657 104.332240 21.405172 0 0
-60.344707 282.914310 63.509434 17 1
-81.950462 253.456910 3.028908 18 1
-13.980053 240.511720 -4.093519 20 1
-31.873884 244.664440 22.745106 0 0
37.918575 165.649200 -77.346642 24 1
36.003613 216.337190 15.342184 13 1
31.225353 312.572690 50.308743 4 1
11.622696 124.152570 25.159546 0 0
-16.722855 146.656750 38.217968 0 0
-12.531610 95.002937 15.914176 0 0
41.614361 279.936800 105.449160 5 1
43.586315 229.412230 2.049680 13 1
-34.303120 238.023900 44.433624 0 0
-29.362806 241.202330 44.779362 0 0
11.924326 229.462010 33.615303 13 1
40.986149 275.182770 112.944520 5 1
-9.831988 76.553085 11.934306 0 0
13.744107 62.256664 -3.203581 0 0
32.843544 215.164790 27.575445 13 1
54.436489 298.267400 67.368256 2 1
-16.286201 157.190630 32.148880 0 0
-26.126984 90.268593 28.672768 0 0
-8.399185 182.476500 26.224821 0 0
-22.900513 258.773800 47.429760 21 1
-36.478729 276.099300 37.061661 21 1
61.392570 330.657010 -1.999205 1 1
32.134567 272.982730 69.560921 7 1
-43.729797 219.775450 34.461773 0 0
9.583258 340.017790 23.603840 22 1
5.520847 117.630930 27.080042 0 0
38.037109 303.559750 60.349579 2 1
-82.042381 263.766300 4.065949 18 1
68.413322 199.371770 22.003401 11 1
67.595421 196.263000 15.393998 11 1
-17.007092 207.349930 40.036892 0 0
-30.474377 298.964900 51.453049 0 0
-8.832461 238.930650 -23.452419 20 1
-1.149629 330.532930 -4.554194 12 1
-31.400106 323.238160 53.444695 9 1
33.593838 303.695430 56.751255 4 1
-3.847698 32.045578 0.055302 0 0
-24.483812 275.175170 45.330883 0 0
1.720460 329.676730 -20.320971 12 1
-26.879599 245.357160 36.235371 0 0
41.848946 252.116990 126.157620 5 1
50.293308 301.558010 66.266121 2 1
-19.444153 322.890110 89.011078 8 1
13.674750 326.751560 -1.034286 1 1
50.798279 215.248520 14.312824 13 1
10.973660 120.817580 31.003473 0 0
0.304250 286.950290 89.719452 6 1
-60.215038 332.380250 41.882133 9 1
17.745274 282.472080 105.216420 5 1
31.850847 230.206650 81.465240 10 1
-27.036913 128.076350 33.237148 0 0
-11.963024 246.900540 0.147854 20 1
34.810165 271.495150 71.905708 7 1
-11.249191 104.374920 41.922874 0 0
45.656914 247.890530 127.016030 5 1
-5.990744 213.201600 52.083103 0 0
-13.976410 324.173000 64.228859 8 1
57.187317 295.822050 58.119267 2 1
27.251289 218.068040 25.741653 13 1
53.591824 213.366390 19.794523 13 1
27.005106 334.762880 0.309493 1 1
-11.909953 241.219510 -11.111242 20 1
-11.251523 193.143830 34.498512 0 0
-58.512245 290.401340 42.445423 17 1
18.869675 137.946700 -0.099727 0 0
-41.499725 263.939330 -16.548145 19 1
73.225227 190.257450 -20.844608 26 1
-44.070702 218.105800 24.322498 0 0
-43.024593 113.220110 53.202343 16 1
3.666311 154.396150 30.779768 0 0
-52.938900 121.291920 49.084263 16 1
-0.739005 93.679001 -4.312000 0 0
36.168156 269.747160 80.113541 7 1
50.335335 206.349010 22.319304 11 1
51.010323 212.643710 31.307957 13 1
83.927902 190.470290 -24.435766 26 1
70.076836 191.314300 -22.700050 26 1
-28.434851 88.280258 47.083820 15 1
42.897751 235.992520 126.092770 5 1
0.867112 63.251534 -8.070336 0 0
-8.730436 320.654660 93.869637 8 1
-16.766918 242.419340 -16.039085 20 1
19.871778 153.218050 0.126300 0 0
-47.733398 331.850920 54.694744 9 1
-30.702757 177.766200 36.229839 0 0
41.953384 260.703890 76.397041 7 1
-23.343260 252.238600 5.258642 0 0
-22.318419 84.113678 26.576797 0 0
-22.830156 325.034030 58.885540 8 1
49.245506 304.052280 51.879307 2 1
41.461250 164.868670 -60.274612 25 1
-66.965805 274.642970 2.697311 18 1
50.509705 254.055760 66.277527 7 1
-1.267524 178.282390 27.563099 0 0
-8.190041 61.090874 -8.064780 0 0
-53.708035 334.832520 52.549225 9 1
-40.957203 329.237490 47.569492 9 1
-58.417160 276.666960 23.285917 18 1
-11.443957 234.276280 -32.322807 20 1
86.488953 188.197250 -25.913357 26 1
-73.048172 271.911620 12.298923 18 1
29.076782 284.455020 106.684180 5 1
-3.306770 69.186607 11.703687 0 0
-23.502399 89.308823 46.645531 15 1
16.565651 227.162670 69.719849 10 1
-3.303648 3.634763 1.993719 0 0
24.758854 329.893950 -7.081223 1 1
20.450909 286.028440 73.581009 7 1
-32.053059 322.931150 68.824135 8 1
-71.968506 110.924910 54.767403 15 1
-0.642192 91.037949 0.131848 0 0
-18.983442 131.589890 37.455917 0 0
-6.658582 134.946110 21.860645 0 0
-13.895445 97.691925 30.566130 0 0
-34.408981 100.600020 68.160576 15 1
56.025131 223.432220 33.784927 14 1
62.352242 212.529330 69.873100 14 1
-43.808464 261.651670 -25.260159 19 1
5.175707 250.304550 31.439072 0 0
-36.999809 227.956630 30.640013 0 0
59.977085 202.124950 19.785116 11 1
81.801674 189.164280 14.076481 11 1
10.481372 70.355232 -9.123007 0 0
-34.848446 261.081150 52.091591 21 1
-18.962902 264.157960 23.360891 0 0
49.355667 260.205930 66.164383 7 1
-84.217911 252.270140 -1.699002 18 1
-7.830911 97.674019 17.425034 0 0
56.763187 156.079350 -57.206871 25 1
-62.614094 260.467130 67.255951 17 1
1.832826 57.009445 -10.398586 0 0
35.373539 312.501250 37.399189 4 1
69.114716 275.681120 60.506920 2 1
-77.173508 114.304860 55.879829 15 1
46.001099 203.166120 29.914495 11 1
-75.443634 276.038640 63.834675 17 1
-7.701765 9.217047 -0.700119 0 0
13.953251 281.909910 92.508156 7 1
-7.760233 42.369713 3.118129 0 0
51.591682 299.870030 56.488796 2 1
41.885910 272.133580 115.161190 5 1
74.890007 195.189330 -30.897026 26 1
-13.009829 100.077180 17.539200 0 0
3.430434 118.222050 22.430435 0 0
-15.845285 247.612550 28.327005 0 0
-33.955334 194.706040 23.226637 0 0
7.815957 149.422550 27.896191 0 0
-57.246857 119.753280 49.081459 16 1
-76.663284 272.997960 60.018131 17 1
69.107773 184.418290 2.152314 27 1
55.177643 302.223020 53.836544 2 1
-16.860397 141.309780 30.158085 0 0
-14.767152 239.796330 -0.284536 20 1
-35.714573 331.445950 41.919983 9 1
-4.671959 255.545820 74.709717 0 0
-29.803860 92.357101 52.142513 15 1
-5.904834 130.439120 9.382957 0 0
-0.134247 76.239288 5.643589 0 0
5.895757 95.846436 25.851246 0 0
-68.698555 111.360440 59.940216 15 1
-0.800626 52.269688 -7.552834 0 0
59.878727 207.475920 79.312988 14 1
45.652863 212.192930 35.718311 14 1
-19.940353 108.624900 27.727262 0 0
-8.455059 275.455350 30.935402 0 0
29.814037 307.477420 59.478844 3 1
78.250618 194.905640 -22.782539 26 1
-46.208885 105.447790 57.303936 15 1
-15.063459 320.570860 97.950096 8 1
46.715351 227.591810 21.415083 13 1
-19.391718 272.724580 120.724420 6 1
-8.305915 56.500893 21.045185 0 0
48.435513 159.996260 -58.424099 25 1
-56.390717 279.011320 11.345859 18 1
-9.132858 14.086169 1.140906 0 0
-11.641186 278.342960 112.401440 6 1
-11.633077 284.189790 30.859005 0 0
-22.379169 258.074710 -8.629486 19 1
-52.555923 274.507200 45.768452 21 1
12.784466 142.181590 32.003193 0 0
11.332990 284.314270 90.792236 7 1
36.142109 334.359890 1.673469 1 1
-75.987946 257.744720 -10.966832 18 1
-12.410064 246.977110 5.785240 0 0
29.405552 228.308990 35.965656 13 1
-27.586281 320.837460 59.195324 8 1
-10.960335 65.880142 7.909922 0 0
39.857445 331.431980 -4.844357 1 1
-74.537987 290.095460 42.844620 17 1
41.814995 242.139860 129.376390 5 1
-8.977162 30.804087 3.640281 0 0
-28.039259 160.740890 35.532803 0 0
-63.135803 273.318420 7.572069 18 1
49.475143 204.278950 26.874817 11 1
-41.782722 275.529510 37.997791 21 1
48.503464 219.815510 4.017045 13 1
32.826057 331.576320 -2.937456 1 1
-11.891717 137.260880 39.770691 0 0
-4.350214 162.803070 25.727228 0 0
43.906208 230.574800 40.804638 13 1
-9.955023 107.403880 17.377245 0 0
-0.795293 254.974550 33.347439 0 0
-11.494417 200.387010 25.979504 0 0
39.088779 310.509190 29.862619 4 1
52.945145 250.822040 69.181290 7 1
-28.333115 240.254560 22.364883 0 0
-28.684591 154.932890 36.076015 0 0
35.597313 164.856750 -65.906586 25 1
7.114966 108.356450 -9.879367 0 0
36.563137 332.077700 -1.407702 1 1
-31.815474 225.839000 43.098400 0 0
62.783691 197.076480 10.154397 11 1
-60.168598 276.767460 27.343653 18 1
-23.160297 273.000550 120.545100 6 1
18.771360 238.979490 35.715611 0 0
49.453232 255.872830 119.964650 5 1
-32.333729 302.970490 55.545956 0 0
-12.650863 283.910680 101.961460 6 1
-71.148911 253.734990 67.350708 17 1
50.486828 299.320400 63.423580 2 1
14.767605 136.562960 -5.123573 0 0
-2.799784 48.478584 -2.561559 0 0
80.674217 195.550050 -25.536911 26 1
16.068682 231.892410 56.454903 0 0
28.623676 312.232060 46.619473 4 1
-2.082881 136.048490 21.280336 0 0
-16.936882 271.355350 24.274836 0 0
53.397480 187.772230 -15.859146 0 0
25.441957 281.056950 75.665344 7 1
-58.663185 275.711520 18.287569 18 1
-0.555977 277.834660 110.709920 6 1
-55.693573 116.739780 55.543816 16 1
-6.986166 81.276100 38.978752 0 0
-16.351913 85.167633 30.400095 0 0
-5.515349 142.331380 20.173559 0 0
-8.107568 230.782140 53.843685 0 0
-33.408516 330.266300 63.034229 8 1
-11.768500 54.525902 28.165300 0 0
14.577891 323.035130 -6.269044 1 1
52.056080 215.206210 59.278755 14 1
13.048318 279.369510 99.435959 7 1
3.728027 91.119873 4.899759 0 0
6.307198 119.490880 -5.116745 0 0
44.060284 224.777250 44.765667 13 1
0.347775 143.415210 29.227772 0 0
-12.102134 218.159120 45.137394 0 0
-26.299759 259.586400 -8.485691 19 1
49.066036 199.783690 32.043552 11 1
6.891150 78.330452 -3.383157 0 0
59.293865 198.114960 -22.026087 27 1
-7.137310 280.308560 101.468690 6 1
50.674534 229.360790 41.798416 13 1
-15.067986 268.952120 21.856792 0 0
-37.358917 219.789520 23.832348 0 0
2.528438 332.447540 -2.422234 12 1
-76.357651 272.245820 65.023514 17 1
44.852306 211.902190 28.433693 13 1
5.661382 233.061630 65.622276 0 0
32.559509 335.023350 -4.849593 1 1
33.754539 271.062440 84.465431 7 1
23.259588 230.008650 79.810173 10 1
-14.415660 67.537689 -0.984699 0 0
-5.623623 328.254000 1.436900 0 0
-14.319379 242.807830 -26.572823 20 1
-1.546112 131.611860 9.235735 0 0
42.707867 169.793850 -66.444550 25 1
-20.909702 99.903877 10.155794 0 0
61.428680 291.013580 57.929054 2 1
0.581210 315.431730 103.778090 8 1
-81.386436 258.116970 5.331100 18 1
-17.928627 252.851000 -6.285681 19 1
-56.197292 110.267160 64.229134 15 1
29.792065 281.268460 118.366420 5 1
-30.758808 275.672030 29.373766 21 1
-33.368103 96.870499 49.106155 15 1
-2.834642 127.607220 5.275213 0 0
-13.425838 197.936830 37.872128 0 0
-13.029606 93.540588 24.533855 0 0
1.658838 241.717350 82.979286 0 0
-61.113060 275.747710 -1.414371 18 1
43.881073 229.488110 11.168395 13 1
-9.672822 105.712490 38.792194 0 0
-40.566700 264.559910 -19.974649 19 1
77.668991 183.425640 1.037042 27 1
42.268867 164.070600 -81.906479 24 1
48.270832 224.384170 12.945964 13 1
37.672325 167.431760 -72.391701 24 1
27.621243 281.002040 108.260030 5 1
-23.700918 321.409030 58.728294 8 1
-14.012883 221.712520 50.683048 0 0
4.299674 56.101158 3.494467 0 0
-35.835213 325.642640 62.652969 8 1
-10.813652 125.477080 -2.342560 0 0
-5.918168 148.589900 33.771564 0 0
3.838509 122.324530 21.482853 0 0
13.491402 80.771805 1.753480 0 0
-41.845531 96.536102 52.615013 15 1
-30.457741 122.977030 27.221972 0 0
3.184343 100.554000 21.027054 0 0
-15.962079 231.109770 35.446434 0 0
-10.592944 224.489040 50.262814 0 0
-34.762081 97.825935 39.975925 0 0
-5.765068 256.084660 28.933084 0 0
81.101387 189.232530 -22.350586 26 1
-7.707386 274.580110 121.125780 6 1
-17.739956 126.569820 41.555153 0 0
-12.860992 239.025680 22.846821 0 0
-15.486250 99.092224 25.739489 0 0
32.933407 217.379330 30.421526 13 1
50.089706 185.092670 -15.302742 0 0
40.900097 212.423860 32.955223 13 1
-85.942085 240.261490 -6.137731 18 1
55.720562 205.833180 -34.177437 28 1
-12.369583 323.854920 11.768284 0 0
-19.255505 325.488040 66.961075 8 1
-24.975979 253.928940 16.374649 0 0
-49.949780 274.090390 34.803356 21 1
66.057808 193.733630 -21.501389 27 1
-42.396618 106.125390 73.053459 15 1
6.694835 276.060460 94.709602 6 1
-34.102119 257.576970 -25.927731 19 1
-39.220642 263.176820 52.945210 21 1
2.426474 79.177933 1.303779 0 0
-75.777161 278.602480 58.188129 17 1
9.192667 76.445595 -0.803443 0 0
-27.974419 88.361839 51.252792 15 1
-61.546749 282.386230 24.980570 17 1
81.035744 191.043110 20.431812 11 1
1.819227 85.131859 -12.374158 0 0
-33.887123 249.605960 47.964184 0 0
-10.909838 172.713990 32.866810 0 0
32.819630 218.180450 13.841166 13 1
-21.207006 235.083770 33.677761 0 0
88.930603 186.501010 -32.957520 26 1
13.988536 58.988556 3.873905 0 0
42.640827 216.391340 40.640877 14 1
20.632536 220.261690 20.525707 13 1
-21.758827 235.181470 8.733700 0 0
-73.540733 271.947510 61.383289 17 1
8.859080 232.681060 70.006287 0 0
3.471066 180.647020 24.887104 0 0
-15.906645 225.933010 34.896465 0 0
-9.872787 237.872390 58.900127 0 0
-28.324955 229.132540 26.166454 0 0
50.774204 162.942600 -64.482315 25 1
-13.838017 261.860900 42.815308 0 0
60.251068 214.759310 51.974136 14 1
-46.085407 251.726840 27.667295 0 0
-4.059368 329.536650 -17.056351 12 1
56.052837 202.512790 30.936331 11 1
-12.917336 240.311970 -22.131765 20 1
26.603752 283.463170 101.056870 5 1
23.117531 141.383940 2.253129 0 0
-7.414237 19.419867 -0.693346 0 0
2.263268 320.422490 -41.425026 12 1
39.188065 278.237670 112.383210 5 1
-4.813781 276.278350 114.408220 6 1
-2.727704 40.057079 -1.781975 0 0
-76.137299 259.703400 -5.814789 18 1
16.089046 222.554490 24.588646 13 1
13.853786 225.379520 24.511684 13 1
-7.537858 251.919430 35.389214 0 0
-68.544510 291.166260 32.658218 17 1
-15.604172 74.374420 32.225979 0 0
58.313389 202.949940 -31.320837 28 1
2.266109 103.233490 15.140769 0 0
55.117805 213.802570 57.402493 14 1
-43.683060 107.356490 65.963097 15 1
-1.389254 56.343914 7.313398 0 0
-30.927870 321.499600 50.341618 9 1
-1.366520 19.948351 -0.113385 0 0
51.343250 159.243520 -76.496864 24 1
72.158707 196.838210 21.000195 11 1
-36.367096 97.542770 52.064068 15 1
-8.010211 7.381525 3.451067 0 0
21.081345 311.726960 67.240356 3 1
44.453735 166.068410 -76.953247 24 1
-1.915552 43.832329 2.174376 0 0
-35.928600 93.307098 51.153622 15 1
-47.837299 98.610878 49.301857 15 1
-43.476013 99.964531 64.181625 15 1
-40.740826 259.718110 -20.846483 19 1
-15.958598 213.920990 40.582794 0 0
44.181007 207.772350 30.898979 13 1
-18.419800 253.340900 -1.499232 19 1
-21.997536 77.825165 34.481113 0 0
-39.781071 330.301670 39.344337 9 1
-49.892685 256.035340 24.501307 0 0
-42.664639 99.951363 47.658432 15 1
4.470373 336.775240 13.453049 22 1
-15.141203 69.850777 -8.216138 0 0
48.733124 228.875690 52.214561 13 1
54.756119 158.615450 -63.602962 25 1
9.071993 277.356480 87.989258 7 1
3.939081 74.430992 -5.873614 0 0
31.490040 181.086400 -65.797356 23 1
-38.600628 321.899810 55.537048 9 1
-21.815252 257.111480 34.538609 0 0
0.343309 332.431030 -13.698221 12 1
-15.298374 147.142650 34.818401 0 0
-28.063747 225.253600 39.637424 0 0
31.861153 303.804750 53.538303 4 1
-5.171201 289.157780 94.406090 6 1
-28.939075 275.461820 38.512558 0 0
-65.066200 278.488950 66.753365 17 1
-24.704788 266.247470 127.193340 6 1
3.851182 148.032060 31.984478 0 0
-9.697613 284.399930 104.222600 6 1
48.923985 335.873930 -0.786143 1 1
-13.762643 324.961640 80.626022 8 1
34.384628 177.337810 -61.482010 23 1
-16.441774 62.736996 -5.900692 0 0
3.636388 113.247420 -4.813721 0 0
-4.589689 257.735720 32.325222 0 0
-25.389708 257.155330 12.341888 0 0
-3.948675 286.953460 89.283424 6 1
-76.282372 265.929080 -2.901922 18 1
36.135094 170.351610 -10.761660 0 0
-4.661792 88.676468 -2.643314 0 0
38.407360 268.989230 72.660027 7 1
-3.821910 86.140221 7.788700 0 0
-13.872300 268.091430 128.519070 6 1
46.574223 304.596410 65.642181 2 1
-20.129129 270.130310 126.494100 6 1
-46.791367 262.412080 -20.688038 19 1
0.005323 335.039090 -2.846095 12 1
56.030636 220.104060 51.502689 14 1
4.590346 90.875954 28.165941 0 0
-21.884903 256.990720 14.332649 0 0
-51.864651 101.351490 55.130245 15 1
-22.502903 223.808010 17.928820 0 0
20.190752 224.067110 20.822182 13 1
51.257343 218.493800 57.677788 14 1
-22.937250 256.164700 23.758087 0 0
-75.726631 256.532750 66.213577 17 1
1.251153 144.424940 23.077831 0 0
31.843304 337.425750 4.326399 1 1
37.434956 234.161120 83.632683 10 1
78.725189 195.120510 18.186630 11 1
50.286575 222.212010 32.563026 13 1
33.332214 309.866330 43.491428 4 1
-10.457143 112.350510 14.331220 0 0
-39.326267 98.753311 48.282051 15 1
-22.919710 322.777650 88.498993 8 1
58.567116 193.387830 -13.510063 27 1
19.872089 158.672880 -42.354721 0 0
-13.064123 80.201775 32.970268 0 0
-68.317345 286.095120 59.113876 17 1
1.767512 324.626980 -36.963940 12 1
-17.127489 252.439150 9.868033 0 0
-9.117324 74.989845 -1.021668 0 0
-22.978785 120.596280 27.534349 0 0
-26.605469 81.194336 21.300333 0 0
-9.696848 89.082413 27.897758 0 0
-77.945694 290.101650 41.379673 17 1
-16.328016 321.976100 94.853317 8 1
-23.424234 250.941100 13.984754 0 0
3.077043 130.136230 14.467751 0 0
20.731241 281.966490 107.445020 5 1
-69.895813 265.087310 64.785202 17 1
43.701080 245.027500 126.439570 5 1
38.683361 175.818620 -68.840851 25 1
1.096982 115.429280 12.713531 0 0
-51.351555 271.676910 21.347462 0 0
76.228539 184.387530 4.168335 27 1
2.347129 108.763500 -3.788112 0 0
45.995178 303.501980 53.078594 2 1
-45.112812 220.809630 29.655102 0 0
-17.483315 204.046190 41.203949 0 0
-32.656467 245.231920 42.286667 0 0
-47.227646 275.368230 21.127211 0 0
12.229713 308.732570 77.522926 3 1
53.589447 221.998180 27.657991 13 1
24.987465 279.768070 66.505165 7 1
-42.718845 325.853330 49.073875 9 1
-44.139393 109.803570 53.040768 16 1
-28.274975 144.139180 35.701988 0 0
-26.025780 87.794296 31.154255 0 0
-13.819607 187.821370 33.657326 0 0
62.582817 192.702510 -9.627845 27 1
60.890862 293.215150 64.644760 2 1
-32.972980 91.353165 53.412388 15 1
-54.590675 273.144560 34.810734 18 1
28.587444 312.394010 53.228874 4 1
42.576725 168.682100 -62.157932 25 1
20.322403 279.717470 75.908752 7 1
46.607368 227.053650 4.359278 13 1
-44.542133 331.910950 43.377575 9 1
21.297268 281.486360 115.369470 5 1
-43.675049 261.246190 -18.083712 19 1
-47.263126 256.673830 28.353926 0 0
13.045576 234.066530 67.087746 0 0
26.121466 222.633120 23.330324 13 1
-24.947168 247.558240 7.063470 0 0
28.464502 279.466130 70.970055 7 1
-17.875998 206.526440 16.558502 0 0
42.773212 159.768050 -69.929688 24 1
44.824131 168.478620 -83.398033 24 1
-38.356659 100.798130 51.524349 15 1
33.061554 175.623250 -71.256813 23 1
-47.765392 100.564990 45.254528 15 1
36.693451 221.562970 11.916267 13 1
10.804606 128.295790 -6.132583 0 0
0.555706 334.667690 0.598366 12 1
32.534157 282.058410 102.935050 5 1
-45.598999 273.989410 43.813194 0 0
-71.152184 260.868350 66.284279 17 1
6.909814 105.114810 28.335423 0 0
3.970064 119.235700 -10.449228 0 0
62.828720 153.547500 -58.413330 25 1
-11.528631 250.862370 28.191978 0 0
-30.672382 257.519620 -22.472019 19 1
-72.547745 268.548310 -9.198170 18 1
-3.314328 51.620625 7.350281 0 0
