36.101952 297.861360 4.410694 17 1
-45.354630 207.621220 89.563232 35 1
-9.248422 339.548190 -18.266148 55 1
-40.891865 346.862880 48.451408 18 1
-48.283375 237.726640 9.873005 0 0
11.343845 257.346560 -1.853297 57 1
-17.674549 153.453950 0.351241 0 0
-21.744600 284.754150 19.317352 0 0
-79.471222 201.046340 -105.757920 8 1
25.060131 356.617550 -10.781774 11 1
64.728767 248.813320 37.135395 2 1
3.162417 192.595890 34.557117 0 0
4.353836 256.599370 -53.716465 5 1
-16.505363 275.994260 16.442608 0 0
-1.668124 255.255680 -4.371628 57 1
15.021643 161.123430 54.885399 39 1
-72.775986 184.588100 -54.566410 21 1
-41.789104 193.387990 35.314629 0 0
-42.252750 191.862210 25.545500 0 0
14.281458 320.189000 -8.860236 17 1
-36.255630 212.081380 46.366116 61 1
-50.004807 167.798360 -29.384827 49 1
-40.578625 217.554820 41.526062 0 0
30.360012 250.321490 -37.761528 4 1
-64.913742 180.271070 64.678337 25 1
35.634563 299.884430 -17.925186 17 1
-41.635448 218.723570 -9.181267 48 1
44.745060 252.302840 -63.904842 3 1
42.031933 185.919750 -18.330599 0 0
-46.300331 347.201050 35.774475 24 1
-1.556838 190.907490 22.115717 0 0
-29.058069 218.824890 66.039360 40 1
-27.084616 372.307460 -15.954708 10 1
-5.872047 372.152100 -21.155657 10 1
5.263626 153.947400 -22.363094 0 0
-20.598326 117.893090 -5.710355 0 0
19.829140 173.716190 -61.347706 53 1
-95.271744 270.593750 -52.203014 13 1
-15.835373 98.992126 4.892844 0 0
22.625957 208.963200 15.314172 0 0
28.435823 169.004460 15.003794 0 0
10.954903 299.747710 -5.685591 47 1
-63.184803 120.181960 55.624310 28 1
-77.700409 156.590410 -54.238636 41 1
-21.890877 185.037050 6.800281 0 0
-25.530827 202.695790 -86.800148 20 1
-25.407303 309.241300 14.788873 54 1
-59.435230 108.570960 50.947334 28 1
-69.656738 148.938750 10.032392 50 1
-4.914828 63.391388 1.839492 0 0
-54.364094 209.968610 -19.176619 48 1
17.999472 363.453490 -5.009863 11 1
-18.405001 320.782410 12.182568 0 0
34.784096 171.084580 -36.170399 52 1
-33.863308 200.183940 72.766884 36 1
-9.390013 7.536843 1.022603 0 0
32.196884 124.872450 -3.013334 0 0
-12.862941 203.087420 6.440765 0 0
6.110080 295.790160 -18.749969 47 1
-10.225627 189.612170 54.577084 37 1
-27.208971 170.294190 -37.888165 0 0
-9.282846 233.990010 9.255797 57 1
-8.881846 157.879360 -27.712706 0 0
8.181983 291.673890 25.897209 54 1
-16.277222 192.545850 15.248505 0 0
-75.604225 115.694690 56.334747 27 1
-27.158987 216.390640 -21.992970 60 1
-49.322292 176.282780 23.454832 0 0
0.585501 122.494620 -24.177757 0 0
-58.243835 209.235780 -9.269742 48 1
-27.629774 346.044680 -6.859725 55 1
20.008249 168.760440 51.344067 39 1
-73.484444 271.571810 28.114204 42 1
66.697441 170.507830 -3.539085 51 1
42.198452 308.079350 -19.516809 17 1
34.830868 304.840580 -2.581631 17 1
25.433270 172.019590 -73.353592 7 1
103.341000 248.082260 33.794079 2 1
-40.697670 213.437100 -24.074142 48 1
14.094339 175.495390 33.341190 0 0
-13.426127 347.814210 1.157042 55 1
-35.088665 366.848050 28.529051 18 1
-10.324524 310.528590 57.389126 46 1
-7.036503 162.360630 -20.791283 0 0
-51.931427 166.775250 125.780940 31 1
18.234037 172.446090 8.827993 64 1
-8.696967 364.241520 41.027058 18 1
96.514221 256.808990 19.725540 2 1
33.124748 178.842500 -45.497742 52 1
37.492760 316.374850 -20.348579 17 1
-15.965641 256.642910 23.232603 0 0
20.084204 220.868450 8.687493 1 1
-18.949123 254.554310 -4.547813 58 1
6.631274 164.145830 88.427994 38 1
3.152268 200.705750 5.446137 0 0
21.886503 151.852830 96.554695 38 1
18.531807 122.771290 -7.330172 0 0
-6.178417 156.712100 33.292439 63 1
3.451001 225.581800 19.090210 0 0
-10.922586 342.803740 26.343399 0 0
-82.301476 141.032910 4.699685 50 1
-3.869055 295.086000 0.732614 0 0
52.010002 217.202800 0.311198 12 1
8.497133 183.040600 59.344772 39 1
17.942532 135.115310 -11.626044 0 0
-51.170795 208.784700 -30.218815 48 1
-5.873241 81.731239 9.660120 0 0
-11.529831 310.085110 -20.036602 47 1
12.432260 287.522280 40.386585 54 1
58.648804 145.325880 -10.138845 29 1
88.867996 246.400250 29.268347 2 1
28.299376 160.502110 -45.651939 53 1
-7.672336 195.117450 103.909130 36 1
-31.743845 188.392610 72.990524 37 1
-4.090788 312.297700 36.181137 54 1
-2.318158 340.027010 -4.283276 55 1
51.503868 239.762080 -32.522949 4 1
-9.133843 338.516750 35.276665 56 1
16.633986 290.727510 -27.897379 47 1
-8.497627 73.070778 -19.822788 0 0
30.004032 249.635030 -47.251595 4 1
-17.994465 195.029590 71.662544 37 1
-35.582836 163.499800 -22.483023 0 0
3.878782 165.756770 72.346230 38 1
-66.474571 193.195160 56.396538 0 0
-43.239857 269.992000 -33.353924 43 1
-52.985027 202.816450 81.134872 35 1
4.624921 299.019530 -28.065817 47 1
3.748671 201.877270 39.572296 62 1
6.087339 173.077680 30.813156 63 1
41.726971 138.901580 -25.328772 29 1
-44.611332 154.200270 17.184378 0 0
-11.087637 166.636800 -60.091015 14 1
-10.690705 211.387950 11.520014 0 0
-5.736432 209.192750 -45.500538 60 1
7.792843 82.733398 -16.178028 0 0
-32.725731 219.051470 16.426186 0 0
6.637628 360.510890 30.720152 19 1
4.546003 303.876830 4.266452 54 1
-30.896555 357.579930 51.705063 18 1
-19.507803 175.669860 -34.240589 0 0
45.180958 139.966690 0.442363 30 1
-60.668110 275.036250 -1.625936 43 1
-10.111318 73.819649 2.793402 0 0
25.818592 175.057590 -17.493454 0 0
-32.451065 215.112440 8.951426 0 0
-45.572086 204.367810 -64.513824 22 1
-35.254997 221.657090 -71.760063 20 1
-41.463837 171.262100 -38.984081 49 1
-44.516491 140.969210 13.003717 0 0
-22.868576 274.906430 -22.521824 43 1
-84.664131 195.918470 -110.419040 8 1
-9.943637 137.221760 -3.472541 0 0
-63.960335 187.054260 -54.854748 21 1
-2.391851 250.395750 -58.385757 5 1
-14.492900 127.458020 28.513699 0 0
12.512126 162.221100 65.950325 38 1
-53.934601 151.466810 -45.438164 49 1
-46.243465 321.823030 30.084503 44 1
-50.555759 149.042880 -15.828290 50 1
-69.694923 176.032410 72.829880 25 1
-12.869003 297.616520 9.789279 54 1
68.777351 260.283570 26.919264 2 1
-15.303133 191.002440 83.551582 36 1
-7.683006 84.512726 -0.630477 0 0
-9.086082 292.663730 75.867828 46 1
-31.712521 272.244080 -22.507765 43 1
24.026129 170.661480 -5.382349 0 0
-55.017601 272.356080 -16.336788 43 1
11.415913 148.040220 -21.966623 0 0
-6.288970 62.951752 -8.009917 0 0
-14.650146 308.070650 25.965355 54 1
-22.651533 156.694170 -41.961536 49 1
5.966904 328.843990 41.365555 56 1
-9.060721 157.901170 -9.290605 0 0
-58.964420 195.726010 96.349533 35 1
44.181335 149.015150 -7.482305 29 1
-60.339596 166.031460 70.636108 25 1
61.686737 184.638750 -7.338914 51 1
-39.287575 344.909820 10.863939 0 0
-5.043841 167.832640 46.772457 0 0
5.364652 197.109860 -33.141060 60 1
-48.139328 224.348800 94.456596 32 1
-9.394126 144.152130 10.206988 0 0
-10.759053 160.117390 1.982768 0 0
-1.953547 166.325420 59.699913 39 1
-33.720318 343.878570 43.974155 24 1
-29.908430 255.860350 -23.424006 58 1
11.951093 154.192870 96.796898 38 1
-20.031452 304.502620 2.567380 54 1
-106.821610 165.643740 -34.037647 41 1
-71.029900 201.849210 -114.406110 8 1
-43.920380 307.564540 42.270267 44 1
1.568956 160.897060 -22.211187 0 0
-7.220752 317.724820 12.294098 54 1
76.904892 257.099210 30.184130 2 1
27.514408 180.513500 10.570192 64 1
-5.692713 302.380520 -34.181465 47 1
-12.757990 180.595140 16.567528 0 0
-27.357986 164.450730 -3.342256 0 0
-36.393486 209.619870 -76.943573 22 1
8.401351 364.433260 23.967596 19 1
4.422847 180.684510 -2.057074 64 1
108.107050 243.462250 29.130474 2 1
-50.626740 313.320710 22.767498 44 1
-45.786430 209.059130 -41.812389 48 1
-4.503598 78.992493 -7.289126 0 0
-54.754631 144.008220 3.924086 50 1
-111.281180 149.334140 -54.100735 41 1
-53.415237 154.199230 -0.734912 50 1
-59.245846 204.833010 107.311680 32 1
-74.683060 273.084080 -13.271126 42 1
59.192707 191.822460 -18.465824 51 1
-75.788315 274.762080 3.361481 42 1
-18.664501 164.680070 -19.167084 0 0
10.102451 300.422180 38.479328 54 1
18.527767 175.585920 -79.059959 7 1
-42.532619 210.440000 -34.868305 48 1
-17.924112 266.508910 -10.936934 0 0
80.818130 247.043470 33.385162 2 1
-36.158001 322.810640 55.424843 15 1
-58.934219 97.188400 64.052490 28 1
-35.073315 280.467010 -2.497198 43 1
-2.800552 308.207980 -2.292388 54 1
-10.236250 79.119087 -14.102962 0 0
30.102020 194.224850 16.785894 64 1
-7.025287 49.781803 1.921594 0 0
-76.654678 157.841450 -23.047274 50 1
3.146840 311.919830 24.705416 54 1
-12.027169 75.295807 20.021708 0 0
12.989712 74.538948 -5.659969 0 0
-70.267075 278.814940 10.318201 42 1
-51.935314 110.798450 29.699574 0 0
-21.451534 220.000750 -51.556721 20 1
-90.448547 154.152420 -60.539612 41 1
-94.297752 266.732150 34.779518 42 1
-71.261360 184.648540 63.036446 25 1
-12.260010 149.072880 -20.779005 0 0
54.499847 177.805710 -23.189482 51 1
-9.963564 123.756530 3.776083 0 0
33.909832 224.954380 0.309077 12 1
20.038177 366.365480 17.135004 19 1
-13.774960 117.861930 51.941795 59 1
-56.674263 117.156340 42.402622 28 1
-2.107693 157.333740 16.147867 0 0
-30.702230 151.689090 -35.956799 49 1
-49.944996 158.276930 8.265169 0 0
-6.248291 199.046370 -10.956641 0 0
-15.794523 270.264010 29.412411 0 0
-81.873833 177.445190 -63.103210 21 1
-76.890045 136.508290 7.799221 50 1
15.095197 252.458770 -39.692966 5 1
-89.305931 94.523682 60.128807 27 1
7.123652 203.665270 55.078724 62 1
-63.405491 169.007520 77.606575 25 1
12.335733 292.750180 17.076338 54 1
23.617527 214.553500 5.811779 1 1
-38.879536 166.531430 -51.998901 49 1
51.857834 139.423610 -13.893793 29 1
17.311474 197.775220 22.837553 64 1
27.058710 161.234730 -58.281487 53 1
17.357933 158.461790 -2.183010 0 0
-76.039970 193.881120 -25.678028 48 1
-51.385342 315.512150 30.812719 44 1
-9.480666 217.156740 -64.399048 20 1
2.587211 44.690208 -5.317816 0 0
83.946251 264.169070 25.839256 2 1
-4.828786 374.674840 -6.713777 10 1
-76.411423 170.891430 64.441010 25 1
-52.964661 154.964750 -36.477280 49 1
-4.827579 215.313600 -50.407562 60 1
30.312710 358.193570 25.070681 19 1
-26.279799 73.901932 -0.203113 0 0
-14.341613 154.913440 15.051555 0 0
-78.008583 144.122940 89.264076 26 1
-37.949383 314.043700 32.403507 44 1
13.857371 292.691130 -19.370300 47 1
-47.005463 339.755160 41.639126 24 1
-72.808708 288.907260 36.896935 44 1
-48.037949 215.183120 35.546219 0 0
-50.639015 184.466170 34.894173 0 0
-28.065102 69.559059 8.371853 0 0
-5.730223 198.292680 18.085379 0 0
-69.083420 194.217380 -93.616074 8 1
-25.333475 191.124100 86.557602 36 1
-5.675397 187.539320 72.514969 37 1
-31.408325 222.839390 51.767464 61 1
-38.336788 347.868560 20.445650 24 1
-8.241539 330.204010 26.541178 0 0
-77.278320 270.166810 -2.587347 42 1
-33.187248 161.436040 -15.372169 0 0
-17.012903 304.518370 -32.598465 47 1
22.016064 288.696720 27.645504 54 1
-10.827364 318.466740 3.772400 54 1
-74.706764 125.687490 95.737640 26 1
-46.457088 185.069980 27.341784 0 0
-16.250546 314.238340 -26.611235 47 1
-39.653519 67.791466 5.016115 0 0
-25.298214 208.348860 -72.664948 22 1
-35.019672 116.780460 6.798475 0 0
-43.050140 158.682910 -55.225563 49 1
-40.959473 147.981090 5.737246 0 0
-55.734997 173.446840 65.055916 25 1
-60.456348 201.411670 86.314919 35 1
-44.015266 191.382710 111.755660 31 1
-10.514064 205.356120 44.961433 62 1
-17.779722 289.782170 37.570469 0 0
20.527721 244.802950 -48.757061 0 0
-34.812397 105.578570 6.002118 0 0
-9.163455 172.432020 1.247960 0 0
-24.085941 108.569080 55.967968 59 1
-15.043872 287.792180 16.840797 0 0
-59.981010 225.717000 98.878281 32 1
-40.402676 282.413730 8.889879 43 1
8.544826 177.817120 -56.276245 14 1
1.479219 173.855480 -66.173370 14 1
64.901779 152.667070 -54.196362 6 1
-92.399712 97.461456 52.261574 27 1
-2.504483 366.577610 35.027390 19 1
12.650322 199.825290 2.351090 64 1
-3.508612 299.769740 -18.721840 47 1
-23.894892 293.369900 29.748875 0 0
-1.150720 172.240980 -0.427649 0 0
-80.137329 214.603130 75.474396 33 1
5.572268 374.641420 -13.246074 11 1
-46.057468 167.844540 62.851643 25 1
-20.654240 264.342590 10.368285 0 0
23.193556 193.521500 32.994888 34 1
-54.694412 315.373290 64.096642 15 1
-18.582735 149.464600 7.437541 0 0
-48.595570 325.219360 60.757561 15 1
-13.045479 61.070175 15.807705 0 0
-50.684929 226.708500 63.398468 33 1
-27.598173 247.126420 23.205008 57 1
-39.359680 358.059270 1.264766 0 0
-22.223295 319.428010 18.734207 0 0
-80.481995 283.895170 -36.790211 13 1
-19.204094 113.489120 45.689835 59 1
-7.933869 298.552640 32.087334 54 1
-50.163914 267.977870 -20.258230 43 1
-20.544989 178.429000 80.603241 37 1
-108.860850 154.701280 -44.673450 41 1
-91.205116 163.060030 -40.103851 41 1
-58.412048 255.194840 2.433362 0 0
-23.592096 322.966370 50.324276 46 1
-58.112896 199.947710 -86.024040 8 1
17.057777 320.643070 80.663116 16 1
-27.484522 322.081910 42.763168 46 1
-41.039143 315.981410 43.861038 44 1
5.961365 148.909960 5.169596 0 0
30.831102 224.414020 -8.015149 12 1
-6.815473 95.193306 -1.579686 0 0
-37.548805 318.014560 76.230598 15 1
19.422741 102.380550 -9.155717 0 0
-57.880096 196.977810 -60.143032 21 1
-67.256386 159.436830 -19.468214 50 1
-20.284492 127.332790 19.020288 0 0
-7.925934 193.286610 -20.773140 0 0
14.361131 209.017240 39.440254 62 1
-48.641632 218.189300 72.313751 40 1
-62.295959 213.397420 104.978920 32 1
-0.485246 249.819580 -65.682007 5 1
2.076030 229.567340 25.834707 57 1
-56.632938 274.590210 8.425793 42 1
33.380424 254.613850 -64.497231 3 1
-39.018375 354.585540 -5.402963 9 1
16.722586 174.316820 18.774298 64 1
-5.518031 172.591890 -31.767822 0 0
-34.788616 217.842900 72.087997 40 1
24.849356 168.256810 -56.370132 53 1
-18.809143 190.979110 -13.636788 0 0
29.066481 155.600270 -2.744525 0 0
-15.311101 230.416400 19.728516 57 1
20.041105 164.472690 -46.421928 53 1
75.123711 147.281280 -49.444653 6 1
81.841835 263.438480 14.240696 2 1
-37.724632 310.757050 88.097893 15 1
-3.286548 368.128880 -15.426648 10 1
50.620281 242.717590 -45.089027 4 1
15.183777 215.524150 3.685638 1 1
-73.650230 194.408190 -66.395309 21 1
-27.007660 216.325900 -32.797253 60 1
-33.259270 81.458672 2.809218 0 0
-51.265808 250.980060 11.267136 0 0
17.636362 174.884350 54.970947 39 1
-75.653664 150.495530 5.796819 50 1
14.677140 225.542280 1.026625 1 1
-42.367783 319.922270 69.689674 15 1
74.597542 249.933850 29.271639 2 1
-38.267365 203.575360 37.488361 0 0
-10.708138 118.165810 -24.877556 0 0
-47.141270 91.426933 59.070385 28 1
-11.772696 327.656770 -24.903318 55 1
6.712642 335.442380 67.498154 16 1
-63.294930 298.363890 37.670937 44 1
-66.387825 188.956250 88.395988 35 1
6.942467 178.883090 10.820799 0 0
-27.931229 143.375500 -7.538835 0 0
-4.326458 291.440220 19.472155 0 0
-30.500807 346.499300 37.822971 24 1
-10.325452 105.999360 17.078642 0 0
24.783550 182.920390 -7.847668 64 1
23.944944 228.585770 -18.655920 23 1
1.235305 185.544630 -33.804653 0 0
27.528030 222.222440 16.514427 0 0
28.884747 203.081390 23.656214 34 1
-7.599299 305.441930 11.813741 54 1
-24.190342 92.642014 -1.689903 0 0
-88.181046 104.859710 49.305172 27 1
-84.303009 203.324160 -112.233250 8 1
-7.427196 17.992027 2.747562 0 0
-25.299088 312.769930 7.379696 54 1
-81.246956 159.408260 -33.719578 41 1
-42.964241 360.365390 -11.741336 9 1
-36.590759 153.636760 -45.898338 49 1
-16.751879 304.195830 66.423798 46 1
-16.598064 203.352550 -14.293697 0 0
-3.256923 201.616120 -25.247883 0 0
-36.646156 152.195270 28.167990 0 0
-54.393585 181.181880 121.017170 31 1
30.377363 188.699580 -2.642694 64 1
14.767644 296.745390 31.994596 54 1
-84.748840 166.135250 63.473938 25 1
-28.563824 247.610340 4.687863 57 1
-16.304325 234.213130 4.587984 57 1
-22.867413 305.919310 57.078239 46 1
-70.548622 138.752670 10.784674 50 1
26.788944 163.566640 52.078293 39 1
-12.358438 104.619140 -10.189484 0 0
-11.931631 300.726810 -28.871986 47 1
-54.662552 156.728100 -15.275575 50 1
-6.233180 181.078920 77.181763 37 1
-23.449015 137.870120 0.755051 0 0
31.578785 158.031690 6.900541 0 0
-66.346939 269.496090 -1.062658 42 1
-33.575066 72.774712 4.688876 0 0
-8.413414 191.136840 28.190273 0 0
-90.790695 282.379030 -33.545700 13 1
-25.908119 284.684300 13.223775 0 0
1.567900 317.161130 53.431988 45 1
34.997944 309.524540 -10.993737 17 1
-61.321754 267.404570 -13.207827 43 1
-40.094105 163.862700 23.591101 0 0
-89.526543 149.734160 56.131317 25 1
-39.607204 222.791900 -15.050163 48 1
-6.220446 240.852920 10.666467 57 1
5.486989 193.675420 24.454063 0 0
-2.959499 296.296450 71.174812 46 1
-62.343719 223.306630 68.879539 33 1
-12.375792 374.759280 -9.325094 10 1
46.884560 298.445160 -7.094443 17 1
-41.503792 161.625290 -17.569067 50 1
36.610497 170.344670 6.428278 0 0
7.047061 247.940190 10.806855 57 1
4.341884 92.044373 -8.583201 0 0
-46.561924 146.602970 -2.429544 50 1
-51.969868 339.206790 36.027573 24 1
-22.482956 278.279110 3.839515 43 1
51.241741 286.876460 -3.601185 17 1
-78.556412 159.456590 -3.780850 50 1
-63.925545 209.713260 -22.203794 48 1
-63.847401 274.296780 -21.505716 43 1
-61.002983 108.505250 64.367210 28 1
0.693880 211.162030 -30.776297 60 1
1.257182 207.846150 43.650505 62 1
-14.614841 46.057961 3.012071 0 0
-11.851757 343.226070 -12.542789 55 1
-3.913862 307.392550 -22.085382 47 1
-31.127373 205.687260 -57.867641 22 1
-6.819855 336.355130 60.978725 46 1
-8.587165 268.205470 -13.356454 0 0
40.313934 182.731930 -33.078884 52 1
-9.438095 32.162392 -0.259938 0 0
79.139389 253.861040 20.863100 2 1
16.236618 228.603000 -10.780107 23 1
-8.892897 216.371030 -32.259243 60 1
41.372341 179.052470 -41.463783 52 1
-51.465115 200.419010 95.335899 35 1
-13.664414 248.155690 3.094810 57 1
-40.198261 192.180310 67.843163 37 1
-2.679543 317.209810 26.079660 54 1
-40.864853 91.641312 9.004032 0 0
-59.363949 274.942320 32.943329 42 1
-14.341842 187.285060 25.973986 63 1
-84.202568 121.380490 84.321442 26 1
45.923805 168.989560 -35.249599 52 1
-38.524563 184.344970 121.492730 31 1
-51.006908 310.694370 38.811863 44 1
-25.651104 259.540370 15.798517 0 0
-58.583035 206.464740 114.665370 32 1
-22.295107 127.379810 39.021103 59 1
26.980915 177.329190 -85.302315 7 1
-11.124951 266.713010 13.054245 0 0
8.432704 240.657300 10.553468 57 1
-3.634288 113.689060 4.436643 0 0
-57.435951 189.063810 46.981445 0 0
-13.356881 365.628170 29.728123 18 1
-41.469727 203.805150 98.168457 35 1
-22.993433 145.758350 12.822881 0 0
-62.525200 191.419100 -61.198605 21 1
19.363770 161.594380 61.681866 39 1
-8.902469 95.855583 -9.049028 0 0
-25.533863 181.462170 52.413036 37 1
-5.688679 295.754880 -37.080132 47 1
-13.065486 165.795550 -23.606419 0 0
7.249865 302.141270 -15.401631 47 1
-16.974501 200.695280 -86.132530 20 1
-48.400406 219.079820 -12.785588 48 1
-6.112733 173.288510 -56.681332 14 1
9.473446 169.036390 -67.879066 14 1
-9.624306 157.404950 39.605042 0 0
-5.775684 76.677383 16.625927 0 0
6.929636 248.623790 -66.924019 5 1
-77.733177 162.869870 -28.225351 41 1
-34.298824 217.227830 -35.477142 48 1
-42.701347 275.592710 -10.583546 43 1
21.978725 142.121340 -11.780233 0 0
32.824642 169.380980 -86.418587 7 1
-8.780234 297.593540 18.449839 54 1
-48.600628 307.852170 52.915955 44 1
-19.965361 368.576510 23.296450 18 1
-18.095392 323.999020 5.737393 0 0
90.445930 264.392910 21.542236 2 1
-23.139446 262.278900 -15.535840 58 1
-37.926327 215.576890 54.018219 61 1
4.566458 216.866330 -36.215714 60 1
9.466757 182.721190 44.826401 39 1
0.667021 59.656265 4.472885 0 0
-105.183620 276.414030 -33.511154 13 1
-12.770020 175.866810 -31.717690 0 0
2.439095 217.112010 -26.583803 60 1
-15.656917 299.176820 -43.018047 47 1
33.597187 187.285920 3.735402 64 1
11.126819 281.515930 -49.336849 47 1
76.559288 260.917110 18.399786 2 1
-11.812678 297.260280 70.382645 46 1
11.303521 363.253270 -17.058506 11 1
-44.325966 352.855990 21.737360 24 1
-62.445362 145.777950 15.164069 50 1
44.888515 143.550480 -13.356594 29 1
-97.235077 276.870820 -28.353415 13 1
-8.978214 221.008900 -51.983276 20 1
-46.105133 135.696990 -17.344376 0 0
35.793121 177.886550 -9.810530 0 0
14.219893 164.266480 -41.649422 53 1
-72.151741 163.505950 78.257446 25 1
-3.138071 149.904680 17.834538 0 0
-78.277733 276.726650 17.137577 42 1
-15.230122 130.044040 -10.903111 0 0
-46.532631 332.479610 41.452740 24 1
-29.294073 209.898070 92.394150 36 1
20.996916 179.416530 65.359489 38 1
-22.708267 184.417920 64.721863 37 1
-17.890903 335.102940 35.832291 0 0
-81.102516 112.433650 68.834503 27 1
-55.638657 302.987790 47.212326 44 1
6.804974 193.543210 -6.338929 64 1
-37.273151 194.856340 29.707497 0 0
-82.164284 184.370410 -70.576759 21 1
24.654604 170.782900 -37.703186 52 1
-88.694397 270.507320 20.639576 42 1
35.288723 192.521930 27.427410 34 1
-99.577614 156.428420 -50.467575 41 1
-19.044323 199.602690 93.616844 36 1
-89.086189 160.192840 64.427406 25 1
-54.525066 107.996420 68.813179 28 1
-56.022209 108.501710 57.251316 28 1
-59.187553 160.263520 -32.918415 49 1
-4.198359 196.003340 57.634384 62 1
-84.140160 68.946175 65.789558 27 1
-79.550659 194.129060 -103.733950 8 1
-56.743813 315.656950 19.941296 44 1
-56.484745 212.727800 -27.567322 48 1
-18.861340 370.952700 -27.400776 10 1
1.852239 95.820564 -21.511385 0 0
-62.837788 159.148760 3.577523 50 1
-7.574527 197.699300 9.660074 0 0
-73.811073 186.951950 -24.794413 48 1
-11.740208 117.035100 10.794169 0 0
-33.784565 347.554720 3.378400 0 0
-16.242920 171.789870 1.451592 0 0
-38.069839 180.859360 53.171593 37 1
19.739351 168.810170 -80.968300 7 1
-81.424133 148.802260 -5.278429 50 1
16.621799 182.014470 50.996746 39 1
70.926826 127.006700 -11.538385 29 1
2.851984 305.577000 -11.009694 47 1
-24.645649 112.847980 -11.516059 0 0
-63.230946 198.203030 -73.412445 21 1
-45.513348 153.166030 61.276508 25 1
53.821648 184.848620 -22.795603 51 1
-44.465260 360.339020 40.131912 18 1
-18.908646 342.174840 -11.613563 55 1
48.292892 177.683150 -37.738007 52 1
5.521962 176.560580 73.857780 38 1
30.908642 253.873180 -53.026669 4 1
-5.573417 106.677410 11.041221 0 0
102.007610 252.584760 22.417603 2 1
-64.633232 195.277180 -31.929235 48 1
21.904352 170.022860 64.110825 39 1
72.392792 167.651640 -44.643913 6 1
12.069727 165.753130 -53.048470 53 1
-13.060650 217.243180 -5.927829 0 0
-45.640354 185.944900 117.337510 31 1
30.011686 165.693130 -12.749880 0 0
-24.616690 101.827840 58.209705 59 1
-41.829311 202.502080 47.234409 0 0
-9.860638 190.399140 0.343340 0 0
-94.446548 277.674290 -21.778969 13 1
27.552980 308.996920 8.720725 17 1
75.694046 172.244890 -37.231262 6 1
-67.743736 150.606840 -11.754369 50 1
-15.122373 366.330410 36.994823 18 1
-81.507507 158.181640 -47.070740 41 1
-6.547675 284.513490 17.945429 0 0
25.447479 174.438690 -65.566734 7 1
-12.265738 318.956240 27.670675 54 1
-86.561394 273.112090 31.422789 42 1
62.896400 172.723330 -13.040703 51 1
-19.852655 122.795730 31.718004 0 0
-10.537568 279.265690 -2.556860 0 0
2.330619 322.315550 -6.228916 17 1
-46.615055 170.047970 -44.222198 49 1
-111.657910 271.673250 -24.932512 13 1
57.653721 139.124400 -19.449343 29 1
4.359407 185.845020 26.352917 0 0
28.122967 170.803210 -97.258766 7 1
-20.192877 334.199770 43.299774 46 1
-62.292282 294.480800 49.906658 44 1
-52.357761 220.068710 77.985146 33 1
-31.919954 365.041140 -17.208244 10 1
-10.522748 127.933580 -5.209915 0 0
-5.251006 253.858610 14.165910 57 1
-1.057606 304.217440 -27.998270 47 1
-29.560205 203.933410 -66.503922 22 1
-9.257036 258.467900 7.072619 57 1
-32.759525 151.685210 21.367819 0 0
-44.072445 271.963710 -20.789772 43 1
-100.873060 153.716690 -56.878170 41 1
-34.382275 350.638460 25.528820 24 1
-44.526321 188.232890 -56.538380 0 0
-10.607226 40.036987 -5.379655 0 0
35.146194 260.841430 -72.559227 3 1
-15.840413 233.791020 13.613511 57 1
-30.747238 92.136223 6.042665 0 0
-3.681578 193.645970 32.945683 0 0
80.652672 140.316150 -48.849731 6 1
0.250147 93.443451 -14.084164 0 0
-48.201920 152.489350 -26.325729 49 1
-21.881174 194.779250 -18.734182 0 0
-51.263603 354.880980 -17.651741 9 1
-50.980453 359.965420 -1.478397 9 1
-41.251019 223.283550 95.044579 32 1
-11.055984 290.929630 21.762730 0 0
-51.761898 228.720120 88.672218 32 1
-64.005699 162.889080 -25.260477 49 1
-16.612280 169.195480 -63.552422 14 1
-87.514206 268.945680 13.490880 42 1
-47.118923 276.034480 2.592857 43 1
-51.965164 311.967860 69.543236 15 1
-104.327790 264.848790 -44.649006 13 1
-44.575806 305.890140 90.017319 15 1
-48.214634 244.115630 13.057916 0 0
-21.429031 198.571880 77.205635 36 1
2.293062 298.505220 0.410658 0 0
42.249264 244.873210 -44.681351 4 1
-86.540436 206.636950 70.887856 33 1
23.942966 164.513020 12.003729 0 0
-30.273432 204.212650 99.786568 36 1
0.937644 194.922610 0.146088 0 0
0.571175 185.683780 35.993069 0 0
-43.135895 95.260384 14.571506 0 0
-30.835518 155.496550 -9.204344 0 0
23.755007 182.920760 15.909887 64 1
-76.887444 156.562350 -13.452132 50 1
-65.220978 206.326050 -14.509799 48 1
-76.181244 98.864365 65.636276 27 1
-20.060848 246.678050 23.034874 57 1
-90.802048 75.710892 61.650078 27 1
-26.654028 184.148900 70.889069 37 1
-67.503845 159.242020 -1.986760 50 1
-18.697575 59.222416 0.272737 0 0
-49.023197 176.940370 32.288712 0 0
76.777802 153.366150 -46.408936 6 1
-19.014116 217.546170 -32.312500 60 1
-118.242220 159.514770 -35.484821 41 1
-5.624165 179.112730 -12.319588 0 0
-15.739855 184.440340 -23.757942 0 0
-69.177704 115.452750 59.240517 28 1
8.119121 321.478060 32.861580 56 1
66.828186 157.953400 -49.728901 6 1
-3.614058 4.178834 2.875402 0 0
-17.839146 324.304350 46.621059 46 1
-1.009657 207.929370 -38.938652 60 1
-53.168713 97.941666 60.169167 28 1
0.814835 348.231570 -9.475175 55 1
-7.048764 328.696660 53.008553 46 1
26.117807 195.094860 -0.935990 64 1
-34.884747 191.506120 114.422780 31 1
-62.642330 152.835530 -20.073797 50 1
-36.683464 350.079900 32.073215 24 1
-22.648083 311.611820 47.230579 46 1
-59.129192 352.538510 -20.263226 9 1
-3.090042 332.371190 70.641609 16 1
-42.640537 312.049840 53.051804 44 1
-55.330566 303.388980 82.701057 15 1
-24.958704 52.831589 3.702834 0 0
54.773254 248.958540 -71.181084 3 1
20.755177 161.724320 19.762720 0 0
-19.196693 107.549770 5.520105 0 0
-76.834656 158.077580 72.749779 26 1
-22.529043 154.729970 -4.536080 0 0
-33.317993 123.562820 32.319637 0 0
-17.821270 366.983370 -18.247162 10 1
-25.628313 371.456450 31.000164 18 1
-1.209763 366.529750 22.627037 19 1
-91.716751 165.014390 -28.256874 41 1
0.383694 71.970451 2.317065 0 0
-58.084328 350.260860 -7.901964 9 1
-32.881630 190.958110 33.313782 0 0
-54.068993 192.980120 112.508060 32 1
-67.679184 197.480770 -82.959908 8 1
-50.493637 104.260960 57.213600 28 1
-44.695168 308.368040 79.173653 15 1
-55.434559 210.590580 -38.395329 48 1
10.563591 209.620790 50.452576 62 1
-49.948330 210.385650 45.480331 0 0
-22.899017 185.563960 90.075981 36 1
-70.298935 219.823180 67.533852 33 1
-6.097306 356.166660 29.403555 0 0
17.827963 161.585270 13.190469 0 0
-98.148369 266.375150 26.399343 42 1
0.998991 247.048570 -0.153529 57 1
18.605755 361.503940 22.338570 19 1
10.694137 300.941440 18.844759 54 1
34.397778 165.561630 2.009948 0 0
-63.256062 208.858520 -111.760150 8 1
-4.933266 180.215410 58.910168 37 1
76.754845 252.009960 35.861195 2 1
10.132515 323.571350 42.845261 56 1
-23.207195 159.166670 -21.764359 0 0
-73.312035 155.850450 -0.595245 50 1
-48.996975 171.700880 18.350573 0 0
-48.963757 198.139040 89.362015 35 1
15.382782 88.946739 -9.824143 0 0
9.602245 373.382600 -7.174903 11 1
-36.610531 267.899630 -32.822609 43 1
-33.443111 42.212738 -5.050223 0 0
36.023289 238.513820 27.792862 0 0
-0.739467 111.562190 -21.618254 0 0
9.741974 97.215240 -13.769669 0 0
-41.838627 134.910950 8.407315 0 0
-69.898247 200.780320 -99.869247 8 1
-18.990229 138.980500 25.686628 0 0
39.128613 135.935550 -2.613784 0 0
-27.465076 265.380830 -31.852489 43 1
-44.535625 316.459200 75.632927 15 1
-47.161736 160.073170 14.253251 0 0
-32.620583 224.756960 -54.841793 20 1
-50.103821 217.400700 101.836060 32 1
54.962292 178.373960 -35.565102 6 1
4.016113 293.089810 -31.421419 47 1
-33.083866 208.418810 11.593766 0 0
1.182914 222.392880 24.933325 0 0
66.576302 178.158600 -37.314339 6 1
56.301266 254.235980 -84.366348 3 1
20.739618 360.043640 28.835524 19 1
6.260551 295.684880 12.333802 54 1
33.211899 165.243590 -45.483490 53 1
4.339044 170.830690 9.952039 0 0
-59.222347 200.430080 -93.583092 8 1
13.589266 318.621490 -17.134743 17 1
-23.615948 118.681030 46.702450 59 1
-1.332510 173.517140 37.960716 63 1
-26.751026 144.139300 -0.697904 0 0
-29.146507 133.724960 20.913218 0 0
23.479708 172.348070 -92.161293 7 1
54.222408 131.441130 2.657157 30 1
-6.122104 318.319850 33.267773 54 1
58.626480 122.395910 1.815714 30 1
8.580451 331.094120 77.268097 16 1
27.320391 115.098440 -2.541648 0 0
-14.929071 218.083820 -49.955040 20 1
-18.013014 184.146180 59.582363 37 1
-74.270035 109.223050 54.697422 27 1
16.118134 180.537610 5.542224 64 1
-86.375938 153.932660 61.413292 25 1
9.124838 228.932920 20.967281 0 0
-2.326609 246.066180 15.469974 57 1
-53.309719 216.200930 -16.666859 48 1
-58.848763 261.185730 6.199316 0 0
-43.472424 160.347890 7.469154 0 0
3.457539 322.296050 7.513999 17 1
-72.158447 170.403720 69.719559 25 1
-59.283951 163.414930 -48.535645 49 1
-24.949095 297.710080 8.751765 54 1
35.468807 155.754000 -5.833818 0 0
-10.936624 295.248840 -47.121853 47 1
-37.242645 169.784740 -27.110447 0 0
-90.049889 276.578490 -43.537552 13 1
9.496011 156.698180 -17.772423 0 0
-23.608324 349.275330 29.799421 24 1
15.331800 200.700760 13.234879 64 1
-43.232178 144.517170 20.139389 0 0
-22.994261 364.404080 41.427620 18 1
-19.108658 252.604540 18.803797 57 1
16.606619 317.565370 37.675541 56 1
-9.331824 202.330370 50.896107 62 1
37.951180 242.449550 21.486784 0 0
22.895010 249.122760 -43.979568 4 1
-41.144863 321.257420 25.677486 44 1
-65.506767 215.884060 79.478333 33 1
14.770885 168.603620 78.678398 38 1
-25.141998 207.420560 83.734245 36 1
-23.611343 201.164200 101.407550 36 1
-35.635918 364.788330 43.174568 18 1
9.789599 313.917850 83.717392 16 1
7.148417 207.892700 -24.966427 60 1
2.707675 173.611630 -59.401234 14 1
-0.641225 300.548400 -6.395200 47 1
-21.897840 155.384050 5.253356 0 0
23.202208 150.612840 55.876305 39 1
-34.523075 207.863390 74.795677 36 1
-48.133232 160.770950 -60.010986 49 1
29.249571 158.369030 -52.093098 53 1
-7.246300 151.819840 -11.732494 0 0
-47.992119 162.964630 58.252537 25 1
80.215981 266.242860 20.339907 2 1
36.549461 173.016590 21.667044 0 0
43.290237 189.864520 -32.857376 52 1
-7.149545 168.520920 11.000441 0 0
51.174374 220.098130 6.689982 12 1
-43.510376 220.281890 35.673916 0 0
-37.263988 175.363270 49.180721 0 0
33.173565 170.712810 -74.340004 7 1
3.724667 167.840270 34.356663 63 1
-5.723474 163.105700 38.605755 63 1
-19.870977 191.166500 8.724169 0 0
-84.739571 279.036220 -31.818092 13 1
-62.341419 357.528230 -7.905283 9 1
-13.551758 261.830750 -6.794399 58 1
-82.359177 147.713790 5.510631 50 1
25.238829 321.818050 -16.800743 17 1
2.868582 157.509870 -15.866929 0 0
-2.871335 296.036830 77.893082 46 1
17.796619 168.919830 2.466348 0 0
-21.226025 123.769170 9.505090 0 0
30.079956 170.769420 27.679394 0 0
-16.485220 113.562570 56.341724 59 1
-3.961131 101.235760 0.240780 0 0
-15.292279 293.242280 29.575586 54 1
-24.995050 251.666720 0.402076 57 1
-41.814037 204.171980 79.404945 36 1
10.690238 250.498020 -61.683231 5 1
15.471874 135.153810 -2.822162 0 0
-20.650873 213.738010 48.541050 61 1
-33.736954 220.118000 -79.748344 20 1
4.955506 333.623720 35.951248 56 1
-54.376144 273.729190 -3.707455 43 1
-76.103600 114.279050 87.448616 26 1
55.089039 121.927540 11.631208 30 1
-7.035303 27.988628 -4.980260 0 0
-8.025061 209.083970 49.990513 61 1
43.326763 293.485780 -4.134883 17 1
4.248866 176.368650 80.783142 38 1
24.431887 177.114270 -3.427323 64 1
-28.795630 202.622510 79.699303 36 1
-75.659271 192.851350 -93.381432 8 1
26.204618 307.902590 -0.092097 17 1
-40.711994 239.457430 13.388978 57 1
-77.492111 272.073120 22.166883 42 1
9.718986 248.960860 1.264063 57 1
20.188276 163.010150 74.560768 38 1
-20.907293 218.038510 -23.754377 60 1
-40.167477 128.289350 -8.921678 0 0
8.900951 226.870040 -43.048336 0 0
21.575274 158.808690 82.539795 38 1
-69.065056 179.179240 -55.867065 21 1
-38.802311 204.276430 88.521217 35 1
114.416520 249.356690 26.056847 2 1
-0.251699 294.601350 14.157395 54 1
23.914307 153.020710 -6.133656 0 0
-28.103127 216.957080 53.659523 61 1
-2.208942 42.378983 -0.220037 0 0
-10.087042 72.539276 -12.768188 0 0
-20.817940 202.249740 -91.924278 20 1
23.226730 166.473100 -86.161484 7 1
-14.737857 111.527730 -2.375317 0 0
13.018571 198.495040 -24.463320 60 1
15.861694 356.434420 -19.448122 11 1
-50.347546 208.106920 84.229988 35 1
-35.125118 323.683930 41.628376 46 1
-68.238319 200.105700 -15.519323 48 1
-76.730919 279.169860 -9.435459 42 1
-30.079212 272.830840 -11.110797 43 1
-34.354832 312.138430 80.044533 15 1
72.447021 140.316830 -49.701874 6 1
-8.502051 229.972270 19.450918 57 1
-59.438629 222.682400 92.936455 32 1
-30.445766 362.013550 40.063709 18 1
-11.514627 179.017440 -9.028173 0 0
-15.685443 109.812870 18.094086 0 0
-24.517269 316.984770 74.417343 15 1
-7.894916 188.620210 34.575428 63 1
-55.833019 305.485690 29.559507 44 1
-46.896381 345.349120 29.083252 24 1
-98.170715 163.978090 -41.051693 41 1
-11.681887 129.134740 8.047658 0 0
-56.668499 200.770390 -78.690956 22 1
-10.662161 256.185730 19.258890 0 0
-40.125141 204.428860 -68.313126 22 1
16.783600 207.190690 12.700999 0 0
-71.324463 290.661900 44.988922 44 1
-14.475024 196.715990 104.838870 36 1
41.056255 191.943590 17.605766 34 1
-21.472004 267.387390 -28.646940 43 1
-6.386782 128.610570 -15.212818 0 0
-58.808270 204.864040 -40.559666 48 1
-34.881638 355.243040 46.451107 18 1
-28.764679 370.915160 37.720974 18 1
-93.145660 144.721980 51.355316 25 1
-24.588661 218.878200 -45.094101 20 1
-43.829464 309.208530 35.777988 44 1
23.134670 208.565190 8.660557 0 0
13.351247 153.252010 -13.587873 0 0
38.287525 292.011410 6.617043 17 1
58.371845 138.664990 -8.125878 29 1
14.557622 295.364440 11.412312 54 1
-13.333269 87.616470 2.153172 0 0
8.104059 314.515410 28.225595 54 1
17.636723 156.981990 94.903610 38 1
-82.921715 131.382920 85.243050 26 1
-23.397247 331.913600 4.805420 0 0
10.168638 253.252370 -53.674927 5 1
85.820938 253.001220 21.187269 2 1
-84.308510 170.787780 53.875881 25 1
-16.797825 244.197720 17.570902 57 1
-78.621674 137.628010 93.109436 26 1
108.584780 252.771210 19.724493 2 1
-76.384308 205.440920 -112.987710 8 1
-7.135494 56.457352 14.729555 0 0
-87.532684 141.447750 84.001534 26 1
49.927876 146.964630 -4.981353 30 1
12.038963 116.051990 -3.212107 0 0
-3.434910 113.920940 11.131829 0 0
25.254282 253.630230 -49.647728 4 1
-30.855392 205.813370 -75.401894 22 1
-54.582932 204.243610 -97.219360 8 1
39.970181 259.474950 -79.226593 3 1
3.083877 157.253310 -7.084697 0 0
14.808711 108.113360 -9.428914 0 0
3.897180 325.578400 35.965809 56 1
-51.506691 201.425480 113.360780 32 1
-9.519559 195.575180 82.590263 36 1
-1.314361 230.226410 18.128819 57 1
-61.857571 147.994520 -7.613050 50 1
-13.424946 206.453060 -83.332970 20 1
-12.696179 306.253880 -37.252975 47 1
-87.515656 161.859280 -34.756992 41 1
-39.630093 153.032380 -35.686066 49 1
-45.227348 211.219380 -28.788935 48 1
-2.753304 67.908127 -29.823551 0 0
-74.805016 187.603200 91.227928 35 1
-33.904545 117.815640 -11.546041 0 0
22.199152 291.817290 21.871920 54 1
-0.911620 237.431120 17.204962 57 1
16.837948 205.505870 34.251541 62 1
5.748374 198.618480 15.363704 0 0
24.990364 198.241410 5.416386 64 1
-2.575654 207.524320 -71.099510 20 1
3.975608 180.832720 55.107273 39 1
-8.112244 114.057140 -32.428211 0 0
34.353752 302.019870 9.374135 17 1
-28.531815 263.018890 -23.795935 43 1
-11.310722 54.426495 -5.824284 0 0
32.589016 355.920380 -13.081514 11 1
-3.759148 20.559576 -2.060383 0 0
-58.383942 229.489000 85.585983 32 1
20.556753 315.883970 12.324486 17 1
-19.922352 181.683260 1.345635 0 0
22.474375 150.548110 48.947922 39 1
24.446800 171.994780 21.942307 0 0
19.255386 177.951000 27.410923 64 1
-44.312794 180.468890 22.845539 0 0
-81.496101 111.645010 47.760117 27 1
3.336545 310.550690 59.891151 45 1
22.333204 361.113280 -16.856239 11 1
-35.231434 209.724590 -84.019440 22 1
48.916733 137.007490 -27.669676 29 1
-24.663448 324.004390 63.302174 15 1
-38.698818 319.955260 60.738628 15 1
-29.036678 276.201870 3.043512 43 1
9.374313 206.699330 -31.006342 60 1
36.642467 202.277220 19.833042 34 1
5.571633 303.939700 14.952389 54 1
-23.470766 342.786930 36.191284 24 1
10.822137 171.433230 88.906776 38 1
-0.226496 61.808239 -5.259834 0 0
31.515560 186.485570 -42.072224 52 1
-74.799622 85.000168 70.452354 27 1
-29.826096 109.843510 4.833096 0 0
11.206546 317.636260 10.954223 17 1
-17.839785 147.231320 -33.274113 0 0
-29.899292 62.707020 9.020980 0 0
-1.236163 362.582310 29.724062 19 1
-65.223343 164.827120 -51.632534 49 1
-12.803368 214.624160 -40.060623 60 1
13.600518 285.900450 -39.034515 47 1
-18.387619 176.900180 -26.769915 0 0
-30.472006 202.047450 -90.997894 20 1
12.906193 164.711140 59.945187 39 1
-22.696791 220.322530 -65.001686 20 1
-55.049782 171.965040 58.755478 25 1
1.301963 198.666930 -37.981285 60 1
-14.418975 91.434647 -9.769168 0 0
-53.623878 167.879210 -51.900921 49 1
-0.131470 150.268710 -21.567869 0 0
-30.662767 254.202500 5.399206 57 1
-3.537196 351.717130 -6.072521 0 0
-49.408390 155.217510 -41.913361 49 1
-8.419120 223.471630 10.316092 0 0
-65.092400 203.294560 -105.008890 8 1
-2.522695 156.152620 41.571812 0 0
-10.192600 135.498090 6.590083 0 0
-18.101784 174.911040 -6.792854 0 0
46.275074 253.649050 -87.523178 3 1
-17.452650 126.315940 -2.852009 0 0
-1.912626 306.084690 6.777860 54 1
-7.087729 368.923710 29.119560 18 1
-9.240583 131.882600 -25.842211 0 0
61.665558 173.405790 -6.430748 51 1
0.639297 327.817500 77.033592 16 1
-44.914516 202.164520 41.485741 0 0
73.980598 247.756870 43.450569 2 1
-0.467230 317.082280 -2.905605 17 1
-27.984365 217.974580 72.370834 40 1
-70.124016 284.369960 45.937786 44 1
-57.035057 149.333190 8.310092 50 1
-89.285622 161.982480 56.761806 25 1
26.943316 172.425640 55.290821 39 1
-72.364853 353.799990 -7.383128 9 1
12.311211 164.989620 91.413712 38 1
-8.599801 339.929630 -7.924150 55 1
-60.663456 191.361800 91.512154 35 1
41.937771 249.359270 29.637218 0 0
-29.769190 146.107930 5.795425 0 0
-73.308487 284.022830 -29.409342 13 1
13.711848 182.602480 25.792122 0 0
-4.647110 288.674100 1.017325 0 0
12.318103 186.327910 39.736893 0 0
-12.753653 283.976960 10.407860 0 0
-50.421040 197.926650 -62.743950 0 0
-28.758663 199.199980 47.149902 0 0
-11.804666 61.396557 9.474701 0 0
-30.412371 317.142060 69.032448 15 1
6.646388 186.443880 33.932625 0 0
18.934778 186.085400 -7.379529 64 1
-100.718250 167.332610 -30.503860 41 1
-55.169296 349.524690 -13.912776 9 1
-17.609425 145.196350 -10.452411 0 0
32.425766 166.502460 -94.485023 7 1
-25.832119 156.159900 -36.373325 49 1
-67.345123 173.720540 65.639526 25 1
49.255459 143.958370 3.519957 30 1
8.624887 69.854340 -4.621404 0 0
7.522172 321.355770 -16.796001 17 1
-51.694515 273.799740 -9.712037 43 1
-8.293117 363.673860 33.206585 18 1
-33.756218 233.094380 26.016968 57 1
-38.304680 215.651060 -80.618446 20 1
-4.932352 168.979780 25.340620 63 1
-8.410096 228.383640 4.910244 0 0
-69.596848 277.754300 17.447191 42 1
-36.422703 201.338040 93.993019 35 1
-22.607616 345.405460 -16.868393 55 1
-40.210400 227.144090 64.516434 40 1
-23.547052 258.879090 -10.085971 58 1
50.868843 131.600910 8.411737 30 1
-23.363205 195.785520 48.175110 0 0
-37.751263 142.464080 16.589560 0 0
-60.734230 268.310550 -28.124996 43 1
-32.704342 172.645100 -40.395065 0 0
-41.140915 264.119420 -35.370770 43 1
-42.186375 344.152860 41.785175 24 1
-9.567216 125.973560 13.686556 0 0
87.551125 249.575790 39.360134 2 1
-6.973119 221.764590 -9.958708 60 1
-69.222916 163.024980 -40.389648 49 1
33.591785 231.659530 -1.772003 12 1
-24.885368 123.890730 22.747644 0 0
-10.772872 195.828410 14.914288 0 0
31.494560 193.158420 8.226280 64 1
65.250137 134.691740 -18.761799 29 1
-70.377785 159.230680 -13.366920 50 1
-19.109621 330.517670 48.989029 46 1
-11.926835 201.481120 83.271469 36 1
15.801781 150.907410 64.967255 39 1
-38.994587 317.310490 37.932484 44 1
12.183197 357.059880 32.697388 19 1
28.684111 178.811290 30.951035 34 1
9.120520 304.199310 26.873430 54 1
3.899658 149.748870 12.324449 0 0
-21.166334 87.378967 -3.743695 0 0
-27.714449 175.987750 -23.218622 0 0
2.851666 170.690980 83.398666 38 1
-27.486382 43.605003 1.606298 0 0
-22.601604 104.665640 -3.522804 0 0
-29.091682 219.891680 -74.229355 20 1
-0.288491 202.008150 17.509951 0 0
2.632631 287.920650 -45.178879 47 1
-53.216949 161.331760 -47.643208 49 1
-9.930461 197.386990 90.684258 36 1
25.505840 177.957690 -70.912384 7 1
-26.875660 247.067140 11.049570 57 1
-80.733910 202.027270 -119.948810 8 1
-48.974701 154.162370 -5.528464 50 1
-15.187230 276.495480 10.201239 0 0
17.365534 191.929580 -3.488131 64 1
-38.717281 178.196780 34.091381 0 0
-0.518543 372.726990 -11.357265 10 1
-4.760178 214.763870 7.325852 0 0
-48.857388 98.100685 14.887161 0 0
49.352547 179.111450 -30.810316 52 1
101.605070 244.021610 39.871395 2 1
83.002686 258.170470 28.159439 2 1
-41.615170 276.252470 -3.099689 43 1
-7.652625 118.071400 1.988783 0 0
-4.879454 301.263550 -12.020628 47 1
-9.614410 326.048340 32.959644 0 0
11.788389 201.596560 38.628090 62 1
-29.131971 208.355670 -32.459290 60 1
-55.406246 358.137450 -8.314689 9 1
-18.886156 165.505310 -3.322176 0 0
-32.714046 156.333440 -24.118061 0 0
17.931707 160.591860 87.467880 38 1
5.105166 206.099370 -39.506130 60 1
-58.178936 277.445250 21.293650 42 1
-47.539318 146.390980 9.007651 0 0
7.703371 124.962860 -1.276564 0 0
-84.113091 97.348106 55.754772 27 1
-74.489609 196.230030 -19.406519 48 1
-35.501831 199.554870 105.251880 31 1
-36.605282 349.442350 14.521161 0 0
53.459816 252.029270 29.109901 0 0
-62.100021 276.237090 27.341425 42 1
-33.531910 198.042420 41.862656 0 0
-89.213333 156.787920 -54.821617 41 1
-45.156235 314.759610 67.226784 15 1
-33.974503 207.523820 3.048905 0 0
21.191679 156.764390 49.939507 39 1
-6.472284 147.718890 -23.039679 0 0
23.908316 153.762700 -54.223915 53 1
0.232689 185.757570 42.491508 0 0
28.096355 178.146300 4.705409 64 1
-89.462677 151.506820 66.824615 25 1
-23.302465 214.430920 -78.589409 20 1
-41.686794 219.872190 -23.362404 48 1
12.878732 211.523930 -24.558929 60 1
-40.781662 161.765470 66.319016 25 1
-38.979294 153.671550 13.034874 0 0
-88.453598 108.839790 58.834103 27 1
89.503693 256.489780 31.151150 2 1
5.453040 318.258910 -10.999784 17 1
29.116854 305.165470 -8.374785 17 1
-2.699242 48.080795 -8.096317 0 0
-6.221340 198.447240 45.044991 62 1
-2.248907 195.539200 -23.760763 0 0
-22.375643 203.485790 12.882162 0 0
-61.323616 208.465070 -30.014305 48 1
49.515305 289.792720 3.852346 17 1
-51.564552 163.842880 -66.089989 49 1
-8.769042 207.228710 87.059227 36 1
-12.031963 314.705140 52.889389 46 1
111.809100 241.277240 33.777809 2 1
-31.629620 312.338710 37.272373 44 1
-56.944538 208.514220 50.857380 0 0
1.443948 206.262300 56.082291 62 1
-79.076828 114.721410 61.530937 27 1
4.813365 215.838060 -15.622508 60 1
-82.547035 147.602810 75.491547 26 1
-31.251701 325.456480 52.438076 15 1
-28.735569 197.340550 70.350449 37 1
-59.876369 168.515460 64.844032 25 1
-49.435234 190.067460 24.150585 0 0
-31.542099 256.762760 -16.983042 58 1
-19.566978 160.880140 -14.204783 0 0
21.086950 252.498610 -54.344269 5 1
-11.911885 192.239760 75.471443 37 1
29.993244 232.578860 22.709469 0 0
-31.456507 218.894650 -29.133608 48 1
18.378714 173.597530 -4.931235 64 1
5.623757 366.839970 -17.313995 11 1
-17.884949 186.620740 20.653252 63 1
-51.715412 209.300720 106.089940 32 1
-3.318226 220.946670 -16.531694 60 1
-13.252344 208.672060 -74.047188 20 1
-35.785728 148.525150 1.886173 0 0
-44.796329 232.481400 10.055661 0 0
-9.042477 308.807160 63.312634 46 1
-2.521431 101.408940 8.211852 0 0
45.947426 295.137050 -14.522616 17 1
-4.284439 73.352821 -4.059983 0 0
-47.049873 304.236790 46.726776 44 1
-21.008627 259.567780 -0.450051 57 1
11.291801 177.588930 18.044754 0 0
-79.865997 166.637470 68.071953 25 1
-10.703697 85.269730 -17.675959 0 0
-47.755978 163.897000 -24.987917 49 1
-41.690514 159.150270 -63.910038 49 1
3.081332 159.202970 0.094213 0 0
-11.880281 68.451271 -0.389660 0 0
-57.720070 303.278500 40.679672 44 1
16.503292 171.284740 -66.089485 7 1
15.982356 366.787230 -9.956885 11 1
23.451279 160.203250 -10.764954 0 0
-13.405518 260.972290 11.938776 0 0
-67.810417 293.242920 33.958687 44 1
-21.991085 312.831910 19.379723 54 1
-109.374800 160.104710 -35.675255 41 1
19.606964 212.447140 40.368073 62 1
-12.089260 206.502110 79.497643 36 1
-15.880242 213.029720 78.837799 36 1
-12.142655 365.491000 23.509617 18 1
5.063423 289.915530 -39.067936 47 1
-77.738647 119.313100 91.451630 26 1
11.765738 81.487366 -11.128497 0 0
-27.269871 196.577220 110.725640 31 1
-81.475578 152.439590 79.842941 26 1
-36.602432 219.206920 66.226357 40 1
11.665126 215.367100 8.863501 0 0
57.858288 185.427640 -12.340591 51 1
36.895409 146.233920 -16.953293 29 1
-32.434704 208.642530 -63.543716 22 1
-8.995053 167.987690 -66.857780 14 1
49.825314 144.304980 -17.242069 29 1
-79.271019 281.088500 -22.536858 13 1
-20.702339 190.381670 57.148632 37 1
-65.941078 106.008750 71.081184 28 1
-40.465042 200.413860 32.402515 0 0
15.015690 285.351780 51.695053 54 1
-10.302317 108.008640 -5.350284 0 0
36.072605 175.870270 -40.515690 52 1
3.750688 191.214600 -31.821913 60 1
-78.817719 77.466438 70.285820 27 1
-1.881747 77.361847 6.729059 0 0
9.825395 233.515590 15.678896 57 1
24.109621 310.777590 -8.222008 17 1
14.510936 296.128450 45.020798 54 1
1.400930 301.696140 32.368801 54 1
-11.122566 199.896240 98.929649 36 1
-28.373926 295.138920 16.066896 54 1
-37.668240 61.907356 4.202091 0 0
56.500664 178.441970 -17.191740 51 1
31.088726 304.524050 -14.734510 17 1
3.665064 257.783940 2.338573 57 1
-22.182325 195.550090 89.947784 36 1
1.588226 310.179630 18.401585 54 1
-3.781590 175.510420 78.522003 38 1
-27.228745 80.298576 1.048234 0 0
-27.431335 232.620930 17.296549 57 1
40.662811 245.232960 -36.771313 4 1
-31.577290 315.475680 49.188442 46 1
7.986843 103.856220 -13.014216 0 0
-8.912995 169.450620 35.408073 63 1
-33.165104 243.816860 10.166368 57 1
-64.083626 302.701870 30.580923 44 1
18.149025 168.247070 71.745140 38 1
-31.518785 209.153310 83.837677 36 1
-59.200027 160.288150 -8.623939 50 1
-11.741724 94.140945 7.494709 0 0
-81.848709 279.655180 -42.961510 13 1
0.226419 75.224976 15.881877 0 0
-49.021156 153.929320 22.853832 0 0
-16.833443 87.455910 -16.613276 0 0
-94.530907 154.970660 55.905464 25 1
10.146972 162.042210 83.750595 38 1
-30.122238 320.408600 63.712818 15 1
15.367616 192.865280 26.283571 0 0
36.514778 226.778520 -7.077455 12 1
-2.973687 277.458860 -0.680974 0 0
-50.247921 213.560380 -4.607639 48 1
-77.075264 274.834080 -18.734087 13 1
-6.232473 342.902860 30.409836 0 0
40.912613 252.348590 -70.697105 3 1
1.130737 170.506670 69.412399 38 1
-2.439151 169.998080 -69.058113 14 1
-4.096173 191.855900 -1.796096 0 0
63.677464 253.683000 23.711025 2 1
90.346169 257.385620 20.089136 2 1
60.472385 132.312650 3.118768 30 1
28.084324 353.558840 -16.842924 11 1
-18.308525 158.339020 -36.757294 0 0
-55.805229 192.365720 100.491180 35 1
26.137569 154.732560 -47.275188 53 1
-116.433930 149.900970 -43.788677 41 1
-63.558163 120.150280 48.899002 28 1
-55.615120 309.788730 74.047676 15 1
-46.203655 318.323300 23.129444 44 1
-116.005710 147.527620 -49.643387 41 1
13.210722 299.787480 6.275146 54 1
-78.280579 271.329350 41.245110 42 1
-5.836197 329.615600 -26.028027 55 1
37.751637 195.496660 21.446056 34 1
-100.575290 275.902010 -20.485910 13 1
7.830151 315.683840 35.391323 56 1
-32.337276 348.195500 -3.069257 0 0
-24.194231 163.798260 -42.068581 0 0
1.113255 255.346150 9.014856 57 1
32.263126 260.520170 -63.056118 3 1
-38.566349 139.485310 1.460635 0 0
36.057568 162.189130 7.825557 0 0
18.736897 315.644070 4.678923 17 1
-55.205124 216.081850 -7.868162 48 1
-21.896896 290.910800 18.824804 0 0
-22.285185 141.154330 -8.867094 0 0
4.968964 200.304690 33.290344 62 1
-8.175919 206.886930 7.764537 0 0
-25.083939 130.638570 -2.883511 0 0
-8.268425 236.956130 -1.163175 57 1
14.050783 156.323970 67.433662 38 1
-47.447083 100.048650 21.485281 0 0
-2.616852 307.351350 -8.403483 47 1
