-42.745815 43.218853 -76.067459 45 1
-73.902046 166.865050 -58.451847 2 1
-63.060417 161.622890 -16.415783 20 1
24.146446 245.046390 -18.755812 37 1
56.505135 127.733810 26.033346 7 1
-23.314215 23.915342 -109.655390 34 1
-86.716530 229.133290 -7.339105 28 1
42.945629 121.029010 -27.896891 8 1
-33.939014 163.669190 -42.499763 21 1
13.964809 235.749100 20.479626 39 1
52.043114 97.355843 12.591829 9 1
1.139959 76.437828 -39.145782 4 1
-59.609833 165.548050 -10.243881 20 1
-26.689707 135.089860 -12.996400 44 1
-59.696117 236.825100 26.944012 27 1
-74.319794 236.132200 1.336460 28 1
-68.507530 121.179710 -25.968460 26 1
-36.390751 242.255200 4.324755 39 1
-26.970575 113.670490 -4.105927 44 1
26.858255 240.993070 3.175519 39 1
-41.549133 43.249306 -65.931000 45 1
56.827988 179.344020 83.639122 15 1
33.374523 184.837170 58.461376 19 1
42.040337 175.092010 23.308922 18 1
-7.236185 129.559170 -21.339937 43 1
41.316936 37.222126 -55.412380 47 1
50.517578 131.628780 -2.987367 7 1
-17.596878 228.533190 10.790945 0 0
50.606331 124.894650 31.222025 7 1
32.000080 137.562330 -28.245394 10 1
23.635765 241.721510 40.320839 17 1
-7.128326 123.171970 8.142706 0 0
20.395437 227.725590 19.510771 39 1
-92.982933 219.195650 11.023627 22 1
-2.646609 242.014880 42.162506 17 1
31.833845 135.584790 -37.455784 10 1
2.407994 207.265470 -49.114960 36 1
45.721592 128.209090 -22.549347 8 1
15.443572 233.614880 -28.096642 38 1
-93.885551 149.100300 -64.930183 2 1
-68.376297 215.155610 44.864433 27 1
53.121952 177.099330 30.803951 18 1
37.546356 100.583930 17.672468 13 1
-50.281399 166.648470 -31.367781 20 1
12.231946 139.495210 -3.350417 29 1
-14.352678 220.833480 -20.305477 36 1
-3.945382 23.037607 -1.070040 0 0
47.395229 220.251540 -33.227699 38 1
-76.690620 213.942470 47.831566 27 1
34.761185 129.548130 3.842821 7 1
31.076159 244.207310 12.726153 39 1
57.778080 96.785271 15.951359 9 1
8.135482 226.308470 2.180462 39 1
15.160388 71.700974 -51.195053 3 1
-58.104145 237.332080 38.432304 27 1
32.114662 222.393070 3.703206 39 1
-77.771469 114.012160 -25.951729 49 1
61.227444 190.218770 61.278969 15 1
-12.612282 51.490356 -75.103127 46 1
3.821264 241.895650 48.698757 17 1
89.334641 117.019280 -15.333320 6 1
-72.574028 119.114260 -6.384068 30 1
-50.228458 136.087710 -34.487251 25 1
63.032528 92.996811 13.308371 9 1
-8.855968 49.183060 -4.711605 0 0
33.464691 47.915943 -44.479347 47 1
-8.478914 49.518383 -83.633156 46 1
-19.130312 52.963905 -79.358879 46 1
9.021240 226.724410 -24.189497 38 1
18.956331 171.563260 40.104958 0 0
-20.378155 195.654140 9.409438 0 0
-72.208969 214.850720 56.734890 27 1
-78.486725 167.177340 -49.803524 2 1
18.370350 120.290610 -8.847698 29 1
-17.501118 33.954029 -103.772450 34 1
1.726544 236.284730 25.803396 39 1
4.297575 44.096531 -88.940514 46 1
87.671173 115.589420 -25.960911 6 1
-35.622559 140.549940 -26.100874 44 1
-42.273449 25.070772 -99.331573 34 1
30.985788 122.457980 -32.165897 8 1
28.898087 228.840790 -9.356536 38 1
15.908764 237.329010 48.865280 17 1
42.344681 231.563450 -31.285967 38 1
-45.410515 135.198590 0.241072 33 1
-69.322311 224.580550 28.233974 27 1
-11.959041 239.911130 47.972984 17 1
-106.065430 202.354870 24.429132 22 1
-120.025880 199.185610 6.409203 22 1
-5.798978 64.530144 -8.572062 0 0
28.972242 189.553250 44.349438 18 1
-1.637580 206.490040 -40.543129 36 1
-48.051563 153.038860 -51.555500 21 1
22.024279 250.717860 19.271635 37 1
-33.324627 101.812100 0.689706 0 0
-0.999973 191.705230 7.641501 0 0
-4.448212 242.030670 21.640577 39 1
-18.218777 50.384758 -70.550949 0 0
-75.915703 111.403730 -0.023556 30 1
38.354904 108.604800 -45.939121 8 1
-13.678870 129.883040 -29.423750 0 0
41.650116 105.261990 -1.765890 14 1
79.513893 127.570150 -0.388417 6 1
37.797489 131.407010 -17.832430 8 1
-35.776669 235.843600 3.314912 39 1
-32.115360 35.211899 -97.749100 34 1
-38.302052 110.763740 2.522103 0 0
21.734716 166.554550 80.130775 19 1
43.787716 113.332750 -39.317047 8 1
-67.128181 157.270710 -37.323757 20 1
51.300842 257.041750 28.958271 16 1
4.823718 61.147339 -6.929528 0 0
-67.234200 238.695850 18.916142 27 1
-39.709740 159.345980 -45.682842 21 1
-60.249424 169.930100 -57.274643 2 1
-67.106369 164.132170 -5.014600 20 1
49.624172 110.924240 -41.823311 8 1
23.108305 188.934100 51.250801 19 1
46.247925 128.324750 21.660673 7 1
-80.105301 224.409420 30.061926 27 1
-107.417690 210.977810 2.153741 22 1
36.039341 235.913250 2.358023 39 1
-14.838816 107.859860 -8.523600 0 0
-8.311952 82.617287 5.911188 1 1
4.045996 132.535340 -21.772083 0 0
-24.258261 166.342390 -47.717869 21 1
-92.585625 106.050540 -36.082939 49 1
-16.027821 242.059110 27.485062 39 1
-19.314135 163.768570 -50.896297 21 1
11.587314 97.670441 -7.044012 0 0
-17.701361 118.520980 -5.146449 0 0
31.662731 129.324010 -24.099356 8 1
-56.396778 241.669310 -1.238766 28 1
-6.349925 102.459870 -19.772236 0 0
24.553398 51.199215 -43.105301 48 1
-68.836250 215.349500 51.383366 27 1
6.815184 55.101650 -72.981552 46 1
7.197823 104.333360 -2.939377 40 1
-92.273750 113.188810 -16.065174 49 1
-58.084145 117.534360 -14.333499 0 0
23.948818 227.045790 -46.265377 38 1
2.395360 203.434300 9.779071 0 0
27.023272 179.137830 44.573013 0 0
-2.109076 84.946823 -4.379719 0 0
-23.638050 241.914150 26.355621 39 1
-50.734196 223.968490 19.147572 0 0
1.263177 240.354510 -13.539065 39 1
-12.143399 177.355900 -5.378274 0 0
-78.624504 148.730470 -20.288950 20 1
4.842632 219.015240 -25.413792 36 1
-19.829861 127.769370 -21.816536 43 1
48.959568 130.219680 -13.164701 7 1
-107.861710 202.595110 13.643266 22 1
-85.636612 219.342700 -14.809096 28 1
2.242988 247.878490 6.141787 39 1
-76.199371 238.228910 9.728478 28 1
8.633375 72.256821 -10.137239 0 0
57.813816 162.064010 18.604845 18 1
-34.993382 107.262700 33.938354 12 1
4.065741 212.823550 12.616064 0 0
-31.020645 159.755280 -52.885906 21 1
-92.335617 226.481250 15.201838 22 1
12.020659 224.477620 14.380033 39 1
-31.691633 99.592178 25.959351 0 0
-30.604013 116.574870 -13.625560 0 0
-62.319637 232.943590 40.832886 27 1
22.814535 240.653690 -30.756472 37 1
10.119801 142.974590 -8.448420 29 1
-9.877309 216.253520 -29.558584 36 1
40.867477 128.452530 2.499261 7 1
33.062893 115.817220 -39.411129 8 1
55.322147 169.873250 22.556839 18 1
-62.873955 222.134430 53.858215 27 1
72.684509 190.497040 58.974354 15 1
27.419016 179.102840 70.369064 19 1
-21.200045 245.480470 15.469728 39 1
53.682331 163.520900 14.096242 18 1
30.374081 186.533170 52.055256 19 1
0.392709 57.075996 -68.854523 46 1
-12.474557 120.338490 -2.362495 0 0
16.351484 160.070630 77.007568 19 1
73.816116 123.850850 -17.115736 6 1
-63.686646 228.098330 -12.242147 28 1
-68.017410 157.155150 -22.196211 20 1
43.935593 129.889480 12.340032 7 1
-68.699196 119.705830 -19.916929 26 1
5.288299 179.355910 61.144630 19 1
-39.260693 136.024600 -30.810335 25 1
40.468670 43.657612 -33.673264 23 1
-79.971588 211.418850 43.357971 27 1
-4.881304 45.479214 -88.088264 46 1
8.054263 252.445830 8.959467 37 1
-79.156754 110.983710 -6.036798 30 1
17.287668 248.292370 -3.847033 37 1
-26.091927 102.573070 35.841908 32 1
-43.774853 135.067490 -5.743193 33 1
66.347275 241.787160 51.914200 16 1
39.339886 183.446410 47.842705 19 1
17.607735 136.640590 -14.069031 29 1
2.578403 228.526400 57.490093 17 1
-10.652484 152.817470 4.343608 0 0
-6.305882 246.728640 10.451635 39 1
-115.698670 204.093320 7.226631 22 1
-29.954157 240.471450 15.482363 39 1
-52.979675 165.787720 -38.872654 21 1
-27.326015 52.967224 -75.729118 45 1
5.416955 236.960240 51.757629 17 1
78.723267 119.959180 -23.275421 6 1
-17.778942 218.764420 -24.829580 0 0
13.778104 226.785660 -0.411949 39 1
-43.456547 34.165695 -91.559059 34 1
13.250965 239.618820 42.874977 17 1
-84.127548 118.586970 -33.648293 49 1
-29.682524 128.459670 -29.216393 43 1
-13.981882 60.426327 -25.466766 0 0
7.530670 244.095290 -7.345022 39 1
-13.115630 227.550020 -24.979137 39 1
-76.765343 220.695240 -24.165449 28 1
21.744732 179.003140 62.257046 19 1
-73.115318 219.614780 30.611115 27 1
4.489980 247.881410 13.748508 39 1
-117.984690 188.460330 22.009390 22 1
14.226768 54.939735 -74.511902 46 1
24.260921 231.494420 15.500566 39 1
5.258468 222.200360 16.213623 0 0
-19.200523 131.127230 -5.688672 44 1
-65.315666 234.365070 7.234725 28 1
-5.942701 259.729860 1.012974 37 1
-21.631800 205.909610 -45.071678 36 1
-35.674137 83.933289 0.435008 0 0
-30.841089 136.941710 -16.942909 44 1
34.994671 185.472030 32.488541 18 1
-64.412865 240.626070 8.317602 28 1
-1.987790 41.861256 -6.371421 0 0
44.379585 119.660680 -38.768208 10 1
-36.983253 128.666140 -9.904633 44 1
-1.557589 137.715180 18.500078 0 0
-73.456474 104.939670 -3.445352 30 1
-6.990436 90.787750 1.336845 0 0
37.696957 179.642900 66.576256 19 1
13.317813 133.987670 -5.310868 29 1
-74.929665 170.638550 -46.534557 2 1
-15.214053 244.970550 2.222259 39 1
11.789088 234.213730 52.456284 17 1
-73.493340 153.610690 -28.889400 20 1
33.901287 128.399720 9.602824 7 1
-28.013472 130.226910 3.371589 44 1
-72.341003 236.384250 15.086880 28 1
12.460266 163.209270 35.652210 0 0
-4.186989 236.527890 26.165113 39 1
-44.035660 99.529877 -7.940940 0 0
5.009300 229.966020 24.457256 39 1
-34.074642 55.489326 -60.082497 45 1
-15.149147 153.276630 -55.471947 21 1
15.791762 36.525108 -49.911110 48 1
-27.072990 115.397070 1.557392 44 1
-9.750118 128.362270 -7.376159 44 1
-81.014778 142.095120 -13.919396 20 1
-63.545582 166.135130 -21.024368 20 1
34.579609 104.996180 11.773705 13 1
13.528811 169.157560 72.795174 19 1
30.044559 40.328781 -52.526825 47 1
40.665672 231.336000 -3.010248 39 1
-85.829773 155.221370 -70.381729 2 1
19.993053 47.498356 -42.592457 48 1
-59.846069 127.632450 -2.406785 33 1
-15.360256 146.800190 -62.335842 21 1
50.437450 187.812450 61.336742 15 1
4.540267 240.114430 4.596083 39 1
-68.598488 234.376170 30.668306 27 1
-37.554344 173.083310 -34.368767 21 1
-70.584274 133.079800 -21.146206 24 1
-16.446375 165.066150 3.162462 0 0
-66.208557 235.164230 -7.609145 28 1
-69.950829 219.270290 -17.681099 28 1
-1.579816 77.327263 2.194150 1 1
-42.876884 48.981068 -55.396481 45 1
-92.306870 157.763380 -56.184284 2 1
-65.588760 119.327960 -14.081617 30 1
-80.546417 231.141240 15.848694 28 1
-97.956596 140.861110 -68.898041 2 1
-11.420915 241.620160 -13.166824 39 1
-17.714991 228.179500 4.215240 39 1
70.503372 86.955605 12.508716 9 1
16.425209 226.805180 9.064730 39 1
68.530815 181.832610 75.099403 15 1
66.983910 250.792010 23.076788 16 1
-29.763954 91.657982 19.784370 0 0
-6.993872 111.384470 -21.836037 0 0
29.892342 248.097240 -3.957613 37 1
68.237076 130.628800 -9.446943 6 1
-99.719070 99.280914 -27.956783 49 1
-78.151871 214.160450 -11.493418 28 1
-82.449234 162.222200 -61.423542 2 1
-37.775360 135.178010 -15.144175 44 1
24.902760 234.724140 43.631508 17 1
-20.875681 235.313580 19.745850 39 1
55.135471 130.460450 -6.583363 7 1
-59.580654 230.853590 -8.885120 28 1
-15.506359 200.987470 -53.166264 36 1
32.653240 260.739560 29.002312 16 1
-68.274590 122.417140 -8.629488 30 1
-27.268667 171.184220 -37.871578 21 1
-69.445152 158.259160 -6.878410 20 1
-59.687115 122.039600 -25.244341 26 1
-20.266743 13.336596 -112.725790 34 1
16.778908 227.629260 -26.970951 38 1
-57.735813 236.648090 -13.948674 28 1
24.430502 173.012240 72.556938 19 1
43.067589 218.153820 -42.422775 38 1
20.775700 130.162510 -11.704403 29 1
49.006927 99.600410 -0.298227 14 1
-47.369335 166.965820 -36.431332 21 1
-0.938879 111.592120 -20.175850 0 0
57.243305 252.617550 28.530174 16 1
-7.151635 85.370903 -14.286313 0 0
-87.523354 223.134340 17.863228 22 1
77.656670 167.921070 87.421150 15 1
-71.416435 114.493440 9.209145 30 1
-28.281164 121.471650 -6.056611 44 1
87.790337 121.326250 -3.151021 6 1
41.482121 125.470690 -43.274410 10 1
48.961010 123.611240 15.993032 7 1
41.576839 117.006580 -31.868711 8 1
-48.445732 102.325570 40.398170 12 1
-77.029671 161.780690 -68.270668 2 1
45.854065 125.982570 28.078026 7 1
41.447922 210.368120 -47.244183 38 1
-40.743694 102.142780 12.440381 31 1
-14.419418 122.811810 8.185125 0 0
-11.796865 102.957530 -2.118595 0 0
1.176379 219.361860 60.555363 17 1
18.168056 250.846390 7.806489 37 1
-83.982742 215.846570 37.049484 27 1
-56.303551 109.062520 -36.595249 26 1
-26.690224 77.098831 -1.278244 0 0
-19.928568 58.340660 0.665302 0 0
-104.412730 204.671340 18.836807 22 1
-77.954185 229.266110 34.380383 27 1
0.465456 243.505050 14.744296 39 1
33.212605 241.635470 -13.367095 37 1
-52.476990 167.239210 -21.151596 20 1
-109.800580 204.883070 4.002938 22 1
43.246723 40.012447 -28.572334 23 1
14.466545 82.144707 -25.123020 5 1
-52.751270 123.800820 -0.842422 33 1
-24.162254 150.826310 -56.176308 21 1
39.462074 228.035480 6.482600 39 1
16.373781 253.985180 21.733513 17 1
53.372433 121.111950 -33.024742 8 1
-48.559380 35.610718 -69.654488 45 1
11.006040 231.548340 -34.357521 38 1
37.517426 235.332640 8.538501 39 1
42.897453 129.151540 -3.238907 7 1
-3.785013 252.884860 22.906858 39 1
0.956259 144.194400 23.122585 0 0
-3.581724 1.468687 -1.267920 0 0
-34.124084 107.157300 -1.252451 0 0
-24.163057 46.118889 -79.500824 34 1
82.991638 174.668270 77.216629 15 1
33.302567 217.781850 -45.655575 38 1
23.653978 242.487870 16.629845 39 1
-55.694931 167.195010 -28.057144 20 1
-14.683825 48.302181 -0.264297 0 0
-3.466116 251.397110 34.941608 17 1
12.924976 227.090480 -8.459234 39 1
46.419998 126.309690 3.964468 7 1
-86.958267 150.690050 -76.696220 2 1
-74.980637 158.022130 -20.459709 20 1
26.308823 141.804790 -26.478476 10 1
72.186089 187.803180 65.799469 15 1
19.878326 244.124770 -6.772410 37 1
-7.173258 67.730125 1.116570 0 0
18.563297 245.559840 31.324884 17 1
28.927402 241.196950 -26.403355 37 1
4.143309 198.896790 -48.232471 36 1
41.375153 221.800030 -24.459923 38 1
23.849098 185.843770 20.966278 18 1
-16.849304 132.223310 -14.600822 43 1
28.616549 94.378494 19.870844 13 1
9.986370 140.101680 -37.900578 11 1
-79.904915 157.255450 -71.220993 2 1
8.130012 102.430270 3.046931 40 1
-63.546795 223.041000 38.254665 27 1
64.363083 185.043590 69.104538 15 1
-14.549713 127.248340 -24.266512 43 1
-38.775822 214.177640 18.066435 0 0
47.262260 107.089100 -46.238354 8 1
13.593600 245.760090 3.340002 37 1
41.374741 124.116330 -32.381256 8 1
-53.391155 115.858950 -31.166164 26 1
-64.268028 166.155330 -64.192619 2 1
16.128824 90.028839 -7.358459 0 0
-114.337910 196.601750 13.378403 22 1
-12.438432 241.615310 11.144307 39 1
38.707935 112.903530 -41.775063 8 1
-69.121712 225.911850 -19.570562 28 1
-56.753841 162.533280 -23.661144 20 1
-73.353218 117.115110 -28.902330 26 1
-43.496651 127.792820 -37.625740 25 1
38.408424 216.912690 -49.324722 38 1
-7.962800 34.484295 -5.076381 0 0
-6.489609 194.092210 -58.170898 36 1
-70.438438 162.427020 -12.839766 20 1
-78.660027 211.726320 -16.650110 28 1
11.207835 227.523700 55.052799 17 1
-67.715210 229.494230 -0.997344 28 1
-6.028757 54.085224 -5.738599 0 0
-73.689850 227.082410 -14.929986 28 1
-31.200806 102.873390 33.421658 32 1
42.319279 233.893920 -13.382861 39 1
-59.251881 233.588610 -2.142269 28 1
-72.656044 228.259720 38.463673 27 1
30.395662 45.357918 -38.440548 47 1
-53.052654 131.155610 -5.321209 33 1
-41.042141 102.982420 47.303276 12 1
-5.305416 235.843170 -20.842148 39 1
33.820358 227.677030 -18.966370 38 1
18.540600 239.913440 -26.631660 37 1
10.172187 218.782960 62.207371 17 1
-20.527021 218.047420 -34.825623 36 1
-12.333470 112.738120 5.706272 0 0
-20.414625 115.501040 -11.129436 0 0
-41.071560 129.734570 -19.798992 44 1
-20.108097 223.691270 -16.611872 39 1
-66.386185 231.552490 22.044533 27 1
12.081808 45.328800 -49.239437 48 1
-8.476775 228.399990 -28.574024 39 1
-56.623863 122.593810 -10.260374 30 1
-0.659797 76.079079 -33.537468 4 1
-14.245683 172.463210 -3.594787 0 0
2.713071 192.247970 -56.245495 36 1
7.267921 159.885800 72.682961 19 1
-12.225113 206.425740 -47.803436 36 1
15.245677 48.960442 -25.540106 0 0
-35.905434 48.246788 -75.823402 45 1
-76.839134 121.949630 -23.937292 24 1
-83.584969 117.574090 -21.296991 49 1
-60.788986 136.519880 -27.256628 24 1
7.725452 176.214360 65.400307 19 1
-11.778774 130.935470 -16.594526 43 1
-67.768372 170.239990 -48.529968 2 1
-64.708069 226.365230 32.535099 27 1
1.709725 232.822310 53.104153 17 1
-92.186111 104.660510 -30.653345 49 1
74.511360 178.833300 82.729446 15 1
-27.247389 43.235397 -91.257355 34 1
-101.117370 219.100250 3.182175 22 1
-75.216736 232.071240 -7.130104 28 1
34.952095 240.741990 -19.594084 38 1
-29.655622 108.899110 19.855459 35 1
-26.087009 235.845200 6.308573 39 1
75.309090 126.627020 -12.465359 6 1
-35.256702 47.947556 -67.787338 45 1
83.542061 123.905800 -7.921869 6 1
8.899612 237.897090 -23.052017 38 1
-83.656952 147.796260 -18.035826 20 1
-7.442798 14.793238 -3.986346 0 0
-37.700054 103.459420 42.815441 12 1
26.216738 169.501070 81.676491 19 1
-22.409378 31.468950 -102.911570 34 1
41.379456 258.468990 35.806747 16 1
-45.065418 105.752360 32.110462 12 1
21.920462 161.213880 78.577423 19 1
61.950062 95.294487 6.242765 9 1
-43.725922 40.979919 -70.654594 45 1
0.462551 244.362900 38.193207 17 1
43.923130 96.431030 -16.405191 14 1
28.268187 48.527519 -46.355824 47 1
-3.088781 244.924840 -9.586293 39 1
47.987583 130.034010 7.799559 7 1
-1.684445 83.194229 -28.596411 4 1
-62.455151 120.456560 -3.401509 30 1
1.120591 140.705150 -37.471455 11 1
-38.633907 166.459850 -36.615669 21 1
-7.800855 204.494220 -44.786270 36 1
5.510915 240.827770 16.264273 39 1
-0.578491 220.633830 -24.619249 36 1
-23.218025 102.480580 25.936708 32 1
39.067703 127.119660 12.905637 7 1
34.328079 124.941160 -26.349852 8 1
-79.333237 223.120330 -0.177258 28 1
-13.259555 177.878490 5.479939 0 0
-25.923035 202.749740 11.804098 0 0
41.874702 99.845184 -2.883371 14 1
-12.460784 181.891490 -1.952278 0 0
70.778709 174.717930 89.320908 15 1
-3.185609 254.118520 -5.483238 37 1
-36.065662 39.470722 -91.332779 34 1
-44.763058 102.217870 22.937117 31 1
3.721185 143.501110 -29.486155 11 1
26.242081 242.614090 10.576651 39 1
72.496071 128.401920 -2.469718 6 1
-24.313627 247.383590 27.462339 39 1
-30.902784 28.638140 -103.804300 34 1
10.014224 233.175520 -29.018312 38 1
-66.339661 117.369640 1.685023 30 1
83.536949 118.871000 -15.603147 6 1
-82.850166 235.157910 0.510381 28 1
-5.653880 245.066470 26.088837 39 1
-8.342735 10.141375 0.129197 0 0
-30.660759 208.225510 13.803059 0 0
-77.557861 211.559280 38.317474 27 1
34.909473 132.788500 -41.274940 10 1
50.951572 123.674170 -22.968304 8 1
29.827135 226.115770 -43.864124 38 1
-9.209796 60.048565 -68.007759 46 1
-67.326797 161.984890 -25.339325 20 1
-3.982215 236.688310 52.877331 17 1
-21.843315 46.646648 5.760596 0 0
-89.859741 161.547610 -51.422215 2 1
-81.494576 235.671140 10.245955 28 1
42.262550 261.167820 25.685841 16 1
32.925804 52.252171 -33.008831 23 1
-75.917915 220.881640 42.561085 27 1
-54.796150 140.587340 -25.787954 24 1
-1.686265 52.320553 -78.609642 46 1
-66.254265 218.001080 -25.496410 28 1
36.583256 180.804600 29.114201 18 1
42.527298 213.126590 -40.279121 38 1
-27.938286 52.707787 -69.679611 45 1
-93.317230 219.806630 20.542149 22 1
27.299417 233.108140 -28.670229 38 1
-11.346456 247.532140 26.809347 39 1
-49.995647 132.182630 0.328431 33 1
39.297546 128.031600 19.859579 7 1
-70.902351 225.859860 -8.620313 28 1
-12.013585 219.162340 5.392203 0 0
65.093102 175.360720 89.317787 15 1
-12.779394 229.113560 17.068501 39 1
-57.830441 170.922130 -16.216850 20 1
-70.021156 112.498780 -1.009053 30 1
-61.491413 164.885860 -26.366961 20 1
5.141232 226.257400 9.409632 39 1
-14.589659 101.446580 28.167000 32 1
-22.029572 107.119930 22.581501 32 1
-13.855484 58.778366 -70.810898 46 1
33.621964 229.292830 14.650098 39 1
-77.803711 156.268140 -76.737366 2 1
46.207996 125.530500 -27.349327 8 1
-31.731356 46.666309 -84.773643 34 1
-24.304081 35.409306 -98.355469 34 1
15.579299 250.009700 27.978504 17 1
-22.838448 121.029530 -14.083394 0 0
62.160477 124.283340 17.228756 7 1
-1.248055 244.484380 48.391071 17 1
21.455399 50.642410 -34.174976 0 0
-76.636246 231.875470 5.820073 28 1
-16.510605 99.437004 37.261864 32 1
44.219364 180.886340 30.099735 18 1
38.416924 262.303340 15.110417 16 1
11.004292 129.091950 -1.613655 29 1
-12.010701 223.961880 -10.165899 39 1
-5.902071 77.657326 -10.623485 0 0
6.847940 248.685910 -21.776958 37 1
-30.992100 50.415836 7.824838 0 0
-11.360847 128.351820 5.456280 0 0
-26.264425 113.048150 -10.469223 0 0
0.657371 102.769450 6.266554 40 1
-15.548903 210.341230 -39.338104 36 1
39.377102 102.924200 -8.454755 14 1
41.628136 227.353960 -35.411415 38 1
-9.895080 219.879380 10.980905 0 0
6.375730 99.879723 -6.050630 41 1
-23.381081 67.069153 -1.938738 0 0
15.349218 230.536990 -40.986717 38 1
-31.352535 243.664150 20.122751 39 1
17.890882 242.799930 -13.773993 37 1
-64.906097 166.622090 -10.857613 20 1
-80.002357 233.653590 26.965229 27 1
-9.945344 241.923360 17.563555 39 1
41.447285 129.532520 -10.712592 8 1
43.257015 162.626390 10.989094 18 1
27.756599 240.897110 36.813759 17 1
-7.552488 137.103700 -40.715549 11 1
-56.027119 160.996460 -36.864948 20 1
5.497768 209.430400 -38.477455 36 1
-4.379132 53.863811 -73.693207 46 1
44.683453 214.382800 -33.455044 38 1
38.337463 95.024872 14.706978 13 1
6.566988 132.433180 -42.861477 11 1
31.741705 217.341750 -54.879494 38 1
-66.144684 237.589130 -2.328735 28 1
-29.313858 121.549140 -11.642560 44 1
59.293705 99.388016 -0.683890 9 1
45.566124 228.495990 -27.349527 38 1
-112.457020 196.026500 21.170519 22 1
-103.107110 219.181560 12.397157 22 1
46.096649 183.658450 69.120110 15 1
-83.859383 166.530690 -47.713207 2 1
-78.812927 207.991490 51.671635 27 1
32.514458 179.452870 68.572289 19 1
-24.935823 213.384030 -39.857754 36 1
41.698551 125.862630 -19.796865 8 1
10.800623 80.117538 -45.550133 3 1
-6.379539 75.038589 3.552126 1 1
-64.090919 137.589400 -31.469673 24 1
1.220138 51.634388 -6.990068 0 0
94.653458 111.413110 -15.910908 6 1
16.915190 42.975613 -49.773003 48 1
-104.601540 213.003070 27.193192 22 1
-22.783772 119.422780 -8.078276 0 0
28.736511 96.786514 15.006921 13 1
20.995132 231.718980 -31.237543 38 1
38.876900 238.190730 -22.276920 38 1
37.988888 170.064970 15.097368 18 1
-49.432041 97.739845 43.489635 12 1
-5.463577 18.356588 1.225179 0 0
-51.449299 124.208950 -25.107973 26 1
-28.358912 235.890460 -3.839220 39 1
54.587677 125.844860 -1.029984 7 1
33.078201 182.446210 49.678555 19 1
22.726322 178.093140 73.059410 19 1
14.632723 143.141010 -23.002869 29 1
-65.290398 218.278290 48.353592 27 1
1.754889 231.822400 -28.931484 39 1
22.657946 224.433650 -41.736137 38 1
-2.459635 240.316830 -0.701629 39 1
11.431954 50.400288 -47.516590 48 1
8.785557 44.091454 -54.106636 48 1
-9.523507 169.867630 10.019248 0 0
24.247370 260.289370 26.394089 16 1
-18.249342 230.733000 21.749222 39 1
-81.903427 225.272890 35.463665 27 1
61.961185 251.930400 36.859734 16 1
21.817421 245.879120 0.608077 37 1
-67.595337 115.698610 -25.479279 26 1
-8.691533 165.023740 3.424327 0 0
-66.637428 105.278870 -35.943443 26 1
-24.668015 126.577230 -29.300817 43 1
0.485156 122.639790 -21.227053 0 0
27.614777 174.516890 79.288208 19 1
-50.347813 136.731350 -14.016702 44 1
-98.618721 107.229720 -23.663031 49 1
34.920036 34.228153 -56.947060 47 1
13.708076 227.287200 -36.656948 38 1
-24.276852 124.342850 4.482952 44 1
54.633728 115.542100 -40.250660 8 1
-66.200142 130.474850 -23.738110 24 1
18.963078 124.523080 -5.571926 29 1
1.853775 129.007840 -50.173698 11 1
6.471488 227.928360 -28.719204 38 1
-14.166681 42.865749 0.717934 0 0
31.148655 229.511700 -34.455822 38 1
-117.592850 193.382140 9.931471 22 1
29.092037 223.659320 -6.032911 39 1
-17.636230 110.073430 -4.527008 0 0
45.478752 102.194950 10.842803 9 1
13.011579 183.003330 60.730339 19 1
-120.879150 190.873250 15.019413 22 1
-65.920639 124.806030 -13.132675 30 1
-67.575142 158.383500 -15.903763 20 1
28.127735 223.929350 -50.031273 38 1
-100.146810 211.971300 19.504120 22 1
-10.716865 68.448410 -8.951269 0 0
-52.060623 161.803210 -33.068817 21 1
-17.083714 126.958050 4.905823 0 0
66.708153 93.586067 2.915342 9 1
-50.983543 127.360950 3.162596 33 1
3.258469 226.351880 -0.197056 39 1
-63.652946 236.305590 30.570593 27 1
-30.975332 125.639470 -20.728874 0 0
-6.203130 79.240845 12.298770 1 1
5.302349 81.876503 -32.368809 4 1
-16.026258 116.580610 6.465837 0 0
-14.286286 233.210310 26.747360 39 1
-8.713548 121.853240 3.186970 0 0
-38.347488 165.475200 -44.822659 21 1
-81.487434 230.722200 -7.163459 28 1
-5.383506 137.928860 -34.928310 11 1
70.501152 242.040800 30.856897 16 1
31.188862 237.684800 1.195094 39 1
-51.284561 139.114430 -8.018637 33 1
14.639559 246.257780 36.412739 17 1
-76.147522 209.758900 56.837166 27 1
-96.033432 218.468840 25.161041 22 1
-48.201660 42.668739 -55.309242 45 1
0.784111 250.274980 1.186859 37 1
25.426113 48.909542 -37.774483 48 1
5.542597 142.909350 -24.557760 29 1
-16.763964 135.269820 5.520564 0 0
23.533688 37.130375 -56.867199 47 1
-32.107975 154.967640 -56.242592 21 1
-71.045578 235.889250 21.280203 27 1
-43.184372 163.977220 -35.223457 21 1
-5.915053 62.916512 -3.544887 0 0
38.486027 101.828830 0.695714 14 1
-2.530233 214.368000 -31.789324 36 1
-61.391628 161.959700 -33.257504 20 1
-16.226921 147.044430 5.485556 0 0
26.916889 225.946660 -26.964874 38 1
-59.394279 106.379460 -39.929817 26 1
17.462532 174.576720 67.792992 19 1
-28.147320 142.854310 -65.577728 21 1
-32.049747 91.543053 -1.242430 0 0
-6.513409 41.461441 0.120595 0 0
-49.201653 138.480100 -28.211567 25 1
-73.813004 120.882420 -19.500202 26 1
50.728516 169.972430 19.648930 18 1
43.619568 167.899090 14.414981 18 1
-57.619629 235.188050 16.373850 28 1
25.211800 190.261630 40.418346 18 1
-54.834789 119.899460 -25.640636 26 1
5.129006 60.018219 -12.135253 0 0
-10.403023 210.730180 -37.974045 36 1
-15.718796 53.947124 -41.442745 0 0
14.889025 219.109020 57.746399 17 1
-70.421349 112.721660 -29.376879 26 1
-74.117188 212.629350 -27.761869 28 1
-59.398731 169.087920 -48.534557 2 1
-7.026834 237.668470 48.397179 17 1
29.236980 245.450260 -13.223217 37 1
37.130753 217.387680 -40.097176 38 1
24.581545 237.887920 -7.060734 39 1
-97.824753 218.045260 31.519297 22 1
21.896479 35.177780 -49.998524 48 1
-71.805649 212.067860 47.402527 27 1
-37.654663 92.872635 -4.858992 0 0
-61.189869 230.726640 31.466698 27 1
25.253948 246.439740 28.133310 17 1
-57.053608 232.134900 37.600056 27 1
-95.873039 223.391110 17.542160 22 1
7.197574 248.739590 21.455763 17 1
80.140663 180.753650 75.497749 15 1
7.044507 141.445360 -18.557915 29 1
-28.533632 246.060580 8.125230 39 1
40.073349 51.922173 -25.304113 23 1
-50.454872 162.486540 -42.637348 21 1
-74.623940 151.244190 -13.816442 20 1
-4.733036 250.281710 14.569006 39 1
-110.087200 202.022550 8.692978 22 1
20.932753 229.624420 -41.392857 38 1
-16.979610 225.255580 -6.431692 39 1
38.662395 39.876610 -37.255543 23 1
-7.723159 243.456130 41.485928 17 1
-13.605171 98.353821 -0.456895 0 0
21.373684 180.744350 67.230087 19 1
24.466640 101.162830 15.044475 13 1
5.587351 238.621890 21.139048 39 1
-69.293724 156.150790 -30.636465 20 1
-84.434799 227.091430 12.068629 22 1
-37.525223 148.652660 -60.241299 21 1
24.914316 41.332428 -45.347187 47 1
86.408035 166.914670 80.783401 15 1
9.153271 81.209564 -28.883408 0 0
-78.787292 118.084980 -31.076382 24 1
-17.202461 49.928188 -84.918816 46 1
-57.549385 239.699370 -8.493673 28 1
44.177532 182.387560 36.024933 18 1
-45.301746 157.999540 -30.111561 0 0
-71.042976 119.776950 -33.823532 24 1
-0.337853 196.888600 -50.147850 36 1
-28.251120 102.122250 21.371574 32 1
-99.317711 224.778870 8.490946 22 1
69.333076 89.413658 4.784996 9 1
-28.042248 146.932860 -58.796413 21 1
35.734421 219.071620 13.141836 39 1
-77.154564 224.387190 -6.522792 28 1
13.869036 122.859600 -3.887674 29 1
-24.844099 119.338750 -18.827682 0 0
46.548801 115.469830 -35.037552 8 1
-15.477312 194.485960 12.946832 0 0
-3.649022 221.559720 -12.384994 39 1
38.133179 132.494170 -28.415257 10 1
-45.171932 160.650560 -40.801651 21 1
-2.976310 214.976810 -19.979231 0 0
-5.152647 45.805191 -2.335555 0 0
-7.563917 197.768980 -7.419305 0 0
-15.052555 245.325200 23.607534 39 1
39.109310 106.526070 8.687467 13 1
58.916634 128.678670 -12.723001 6 1
65.324089 89.899704 16.744312 9 1
-14.406998 122.023800 -7.556251 43 1
-31.211885 168.020340 -39.029236 21 1
-3.340460 8.056407 -0.205178 0 0
-10.404956 160.890840 8.489617 0 0
-75.802544 115.369090 -4.901357 30 1
15.681335 81.080544 -10.953515 0 0
-16.356758 206.571640 -44.049892 36 1
16.551483 226.970570 -32.373402 38 1
52.788525 104.964870 -48.205036 8 1
-75.971863 233.046100 30.177347 27 1
54.066055 98.432800 7.728511 9 1
58.692966 252.722080 22.433464 16 1
-33.546955 247.296650 10.398916 39 1
-15.269558 46.236626 -91.341537 34 1
53.725407 128.090300 21.652597 7 1
19.578268 248.036680 -14.221307 37 1
39.835506 125.314160 -27.485571 8 1
-0.592958 250.651810 -10.366611 37 1
-15.031792 31.391867 -107.743290 34 1
-17.135204 155.402850 3.568638 0 0
-59.916325 238.554370 1.246226 28 1
-107.142450 220.224520 3.679905 22 1
-15.397542 210.524250 10.595660 0 0
-18.892965 240.593770 -5.121366 39 1
21.367605 143.697600 -26.591591 10 1
28.475933 180.846440 60.382805 19 1
41.461830 99.741295 14.411935 13 1
-70.968040 160.666310 -76.054321 2 1
97.922470 111.491870 -10.891975 6 1
-24.173378 108.224490 12.497885 35 1
-52.623253 35.468563 -61.565079 45 1
66.496742 180.725190 83.740166 15 1
-16.797056 55.094410 -51.499783 0 0
31.446358 220.397670 -41.657856 38 1
29.720236 185.708710 26.435831 18 1
35.376423 217.358020 4.544673 39 1
-9.327065 226.963820 11.319926 0 0
-72.358772 162.937060 -66.491951 2 1
-21.448526 127.700870 10.343644 0 0
-77.752197 236.354370 20.505407 27 1
46.468628 172.828690 20.016039 18 1
29.800028 262.001860 33.086334 16 1
-8.722056 128.597440 -12.373915 43 1
-62.227036 229.501360 -2.854728 28 1
-80.036217 211.332380 -25.921986 28 1
65.668365 248.808040 35.223419 16 1
75.537643 124.008590 -22.001968 6 1
-74.958656 119.641080 -14.595922 30 1
9.985421 248.281450 35.228325 17 1
30.494501 184.581680 34.717377 18 1
-38.496769 247.210250 6.982468 39 1
18.659037 244.420430 -23.435530 37 1
-91.745766 142.329900 -78.110619 2 1
-83.214668 227.596370 -10.799709 28 1
51.678658 102.940520 3.641139 9 1
-18.054014 25.375814 -110.393160 34 1
37.597359 226.189330 -38.335083 38 1
4.515001 251.128430 -10.996770 37 1
-45.316559 141.380100 -21.029650 44 1
23.609472 228.194370 -8.487870 39 1
-8.094378 248.447020 35.647434 17 1
-24.550516 128.762440 -0.139621 44 1
46.848412 126.738240 -1.123132 7 1
-40.218681 47.933781 -59.786499 45 1
-97.878929 104.002550 -28.402298 49 1
39.390728 122.506970 -9.991075 0 0
17.699862 228.112870 -47.944397 38 1
16.102959 50.814327 -43.496624 48 1
-22.525343 54.628998 -75.940651 45 1
59.749825 168.537380 27.461332 18 1
3.427817 248.533360 38.280273 17 1
23.321594 141.211230 -34.898834 10 1
-107.945470 207.732960 23.059874 22 1
-30.066776 129.771710 -24.323902 43 1
-8.970777 188.536560 -8.670542 0 0
-94.560135 222.563830 7.429649 22 1
-9.927386 86.755096 2.448146 0 0
-103.841330 92.370796 -40.922180 49 1
40.398567 102.902060 5.381196 14 1
23.240211 249.496310 9.357111 37 1
17.202988 186.399690 56.637970 19 1
-89.401634 156.529160 -60.141460 2 1
-20.438032 145.266570 -64.380699 21 1
-63.110390 118.587690 -29.603027 26 1
-33.536793 141.341260 -21.059349 44 1
-32.646717 112.278250 10.971151 35 1
-39.952469 30.573284 -97.601547 34 1
-47.453194 156.213870 -47.580078 21 1
35.143360 43.329033 -52.955399 47 1
-6.594969 176.968200 10.203150 0 0
18.839134 85.247322 -10.183491 0 0
-106.061660 211.778410 19.218140 22 1
10.831897 95.790657 2.481861 42 1
3.847622 240.723570 -6.529319 39 1
17.512825 242.753270 41.211346 17 1
-81.314911 206.788730 41.848034 27 1
-7.587025 95.728645 0.476212 0 0
-65.341225 122.862160 4.059690 30 1
-42.757561 141.685840 -10.379681 33 1
-31.923380 114.611050 -3.961023 44 1
29.109198 228.843220 -17.116232 38 1
8.993683 167.862660 70.777046 19 1
55.289349 186.920550 67.195946 15 1
-18.168797 131.394730 -24.897907 43 1
-112.415160 207.635510 9.584561 22 1
52.905720 210.363270 -33.375267 38 1
-15.057936 99.426056 -15.440313 0 0
-4.027166 238.548200 -16.172287 39 1
-72.000877 154.328950 -9.887122 20 1
-4.074125 143.638500 -35.773144 11 1
10.202503 48.033089 -80.956146 46 1
37.302921 259.772060 20.022663 16 1
-5.767287 241.603450 30.104124 39 1
7.865951 243.903440 -26.270004 37 1
-68.676811 228.931820 -15.327647 28 1
-7.788970 121.909990 -24.993464 0 0
-35.148430 106.827820 3.712520 0 0
7.321676 248.431150 2.571307 37 1
71.410393 237.247240 42.679123 16 1
51.644100 174.667710 26.575361 18 1
33.607349 263.223360 23.262720 16 1
14.543629 33.644703 -53.903805 48 1
38.817188 225.050670 11.357830 39 1
-20.850655 232.720020 11.954512 39 1
1.905391 239.883730 44.521275 17 1
-8.997281 112.048480 -4.355996 0 0
-26.981737 226.484070 -6.580542 39 1
-38.825417 104.192540 21.317104 31 1
32.433376 179.760120 23.314648 18 1
-76.026291 156.761800 -25.652458 20 1
-105.680080 205.976590 32.970024 22 1
8.692401 239.918690 10.655458 39 1
33.634144 223.125210 -28.551056 38 1
49.858383 127.894240 -8.715616 7 1
30.051857 38.546883 -57.406422 47 1
-85.787056 112.660350 -27.729969 49 1
-21.943907 133.610570 -31.420395 43 1
-44.922485 102.718560 36.748173 12 1
-43.770554 147.981120 -59.486710 21 1
-8.328338 35.985222 -102.317460 34 1
41.853024 184.465760 55.011127 19 1
13.697232 240.327270 -28.305714 37 1
26.796358 104.593400 12.058813 13 1
-13.003906 137.470870 3.061119 0 0
24.670078 241.116420 -12.196188 37 1
-22.650745 224.274510 -9.258078 39 1
-7.109650 240.202940 -3.470612 39 1
-87.246376 112.610630 -19.676569 49 1
2.734089 47.079758 -83.181152 46 1
29.858700 226.001450 8.330521 39 1
-64.868401 111.826000 -35.021599 26 1
-3.790393 32.242683 -3.347732 0 0
-46.438057 221.435350 19.530075 0 0
-55.952503 232.025480 -13.352962 28 1
-49.743378 44.000599 -49.983578 45 1
-1.649177 224.601810 -7.612364 39 1
-110.382550 216.735140 1.846419 22 1
8.516039 83.399437 -40.229927 3 1
-5.692286 131.108050 14.343201 0 0
-24.953768 111.012020 -15.549653 0 0
-37.900120 21.671471 -107.928500 34 1
11.312592 252.466370 12.728603 37 1
-11.687909 56.405041 -23.175861 0 0
-4.173265 257.256290 -15.886381 37 1
-8.876343 24.734972 -1.607055 0 0
-11.261417 250.916560 19.047039 39 1
-63.580849 132.326640 -31.786348 24 1
-67.301338 164.226750 -16.250990 20 1
16.561607 179.467740 61.090561 19 1
20.798332 169.879380 73.857956 19 1
-39.563423 27.224216 -103.199970 34 1
-80.624481 215.952710 33.364738 27 1
-25.516041 15.255911 -112.916790 34 1
-32.981483 101.710580 19.355991 32 1
-62.522125 235.905330 16.001543 28 1
51.531605 188.290050 56.476490 15 1
-9.414054 81.380707 -0.842453 0 0
-60.168430 125.901560 -20.034494 26 1
8.989995 250.352800 -3.661537 37 1
-4.987926 200.636200 -53.521141 36 1
35.941795 47.723198 -48.777336 47 1
10.216576 45.993641 -88.393532 46 1
48.337852 128.079910 -17.953548 8 1
-69.491806 123.587300 -30.384699 24 1
-32.028824 166.173540 -46.329628 21 1
-10.531029 106.974590 0.779055 0 0
31.951082 138.090270 -33.174191 10 1
43.101658 261.047120 13.816132 16 1
78.220535 123.860810 -5.671470 6 1
3.374426 202.429370 -55.971836 36 1
46.777729 205.132370 -44.297688 38 1
35.500191 117.799940 -33.406231 8 1
-22.647058 167.224000 -43.111675 21 1
83.127769 182.228780 70.097473 15 1
8.012755 201.967700 -47.943012 36 1
-25.581846 157.769090 -55.960545 21 1
-4.029821 229.259630 23.603954 39 1
-80.603577 220.612530 -5.455863 28 1
-4.483859 57.589550 -70.440712 46 1
57.131172 251.169190 36.112976 16 1
0.253161 256.308930 3.865661 37 1
10.567297 242.036220 1.028830 39 1
-52.746731 131.843090 -34.209461 25 1
16.874077 79.931694 -43.421852 3 1
-63.404823 238.969760 22.364542 27 1
-99.133240 99.326637 -37.623299 49 1
26.554249 245.185750 -1.248140 37 1
-30.068649 236.961990 3.242190 39 1
-22.125338 113.775220 -3.147608 44 1
37.300915 95.690086 19.549685 13 1
-16.627584 122.991020 -2.035915 44 1
-20.202463 237.634410 -10.311698 39 1
-6.666416 3.974226 1.668654 0 0
80.145523 186.356950 66.363373 15 1
16.735939 249.426160 13.931077 37 1
25.626839 186.591740 35.618301 18 1
-2.171768 136.664660 -44.232697 11 1
55.651577 121.599180 -28.169725 8 1
22.250717 78.807892 -44.632244 3 1
11.373414 146.650310 -27.954134 11 1
-64.047920 118.227580 -20.605730 26 1
7.071007 195.959140 -53.852940 36 1
46.550385 46.593483 -24.403564 23 1
-35.268826 135.314760 -35.172485 25 1
0.030796 46.336418 -87.930153 46 1
-62.125401 232.960830 25.029497 27 1
-111.943350 203.384770 17.458801 22 1
-69.627731 237.606480 1.509987 28 1
-6.122293 259.195190 -9.898959 37 1
-56.454998 230.873600 14.277129 28 1
-67.456795 223.606170 -25.036917 28 1
-16.271126 130.318500 -9.552790 43 1
14.017820 240.015110 11.673157 39 1
-12.566773 170.991740 5.208372 0 0
26.772816 177.184220 64.561394 19 1
-12.126457 216.879000 -24.031885 0 0
12.036571 246.610810 -18.578180 37 1
-84.581238 232.035960 13.204378 22 1
-15.409742 224.300740 9.406050 0 0
-21.415380 202.993300 -51.356106 36 1
53.371155 128.662140 -16.122631 7 1
48.085270 259.283290 38.494434 16 1
66.186424 129.616180 -14.437824 6 1
-26.082884 125.186860 -19.826830 43 1
-68.093109 124.345860 -18.464022 30 1
-22.982185 150.492360 -61.449505 21 1
-73.614929 113.676610 -9.650255 30 1
48.177929 106.220630 4.725162 9 1
32.836636 98.714043 17.772364 13 1
-34.860596 206.497120 15.821894 0 0
-27.576696 17.709150 -108.734580 34 1
6.758588 55.818645 -68.144188 46 1
-58.181488 114.120800 -30.101297 26 1
2.403792 193.334000 10.807217 0 0
-4.368839 204.286160 -50.204250 36 1
9.547628 180.658020 57.746803 19 1
-78.243561 101.315350 3.516786 30 1
31.032179 236.201970 -7.461456 39 1
24.868200 251.207400 15.198848 37 1
84.355476 125.110650 0.370449 6 1
-53.735012 38.092133 -55.866676 45 1
3.046758 249.505140 29.060625 17 1
65.181595 251.007950 29.647305 16 1
72.321892 179.508030 77.140770 15 1
16.963915 56.205257 -41.546753 48 1
-5.998516 57.956699 -2.777237 0 0
47.695251 99.685745 -9.000856 14 1
-41.434998 131.452390 3.483646 33 1
-74.471947 130.187910 -21.654930 24 1
-47.759033 94.438477 15.581122 31 1
-68.672653 220.113310 52.384678 27 1
-16.453516 57.201408 -2.588866 0 0
51.483646 251.699260 51.033661 16 1
-69.324486 233.584500 10.109509 28 1
42.235107 232.913350 -18.454712 38 1
-24.089663 241.129710 -2.541018 39 1
-73.656387 215.429660 52.032700 27 1
-68.629761 231.194840 36.775433 27 1
-102.110290 217.601460 17.857065 22 1
-1.585515 72.437325 -39.597149 4 1
-10.369772 117.702470 1.162260 0 0
38.872307 49.100094 -30.578018 23 1
-75.815727 209.081150 46.291607 27 1
34.616066 118.281800 -7.586866 0 0
-91.689896 224.256180 25.883411 22 1
23.930874 157.643360 81.239288 19 1
-41.679096 137.530000 -2.040650 33 1
-71.575294 116.015910 4.603102 30 1
47.705322 184.039520 62.961376 15 1
23.813211 181.647580 58.538486 19 1
3.763782 251.938520 11.163528 37 1
39.135445 219.637920 -44.988216 38 1
-33.876041 128.709700 -6.016302 44 1
-8.348259 0.880422 -1.927109 0 0
-10.506391 102.594670 5.012127 0 0
25.815231 237.496320 -26.724630 38 1
11.950173 245.028900 -9.117006 37 1
4.914764 82.029655 -37.197521 4 1
-9.286532 219.317600 -18.827955 36 1
-41.941528 167.523880 -39.987675 21 1
-5.016691 90.963287 -21.039663 0 0
53.358006 181.909580 80.985199 15 1
27.068708 170.007770 76.939857 19 1
-102.242810 215.379070 31.349995 22 1
27.498421 242.989720 -21.942125 37 1
-36.657917 142.124190 -63.105461 21 1
-66.948868 226.267650 45.242821 27 1
39.691071 122.533000 -39.395596 10 1
-31.771532 30.718039 -99.502342 34 1
-110.576710 202.999630 22.213736 22 1
-11.020288 52.063690 -79.629707 46 1
-15.027676 222.550140 -15.214809 39 1
19.078455 44.225826 -86.673302 46 1
-32.259747 116.813870 2.736363 44 1
19.516510 50.260563 -80.918625 46 1
17.884695 238.711150 -35.329918 37 1
-10.371220 62.964417 -6.931513 0 0
29.924091 182.858870 55.305344 19 1
-17.508114 188.583600 9.218976 0 0
-29.472939 55.798290 -62.271690 45 1
-77.237549 206.896040 60.747726 27 1
48.584263 178.206440 85.387115 15 1
89.420509 115.915760 -10.244661 6 1
18.269983 225.988890 -38.512722 38 1
63.040161 248.165650 44.859932 16 1
-61.420410 232.375900 -16.732893 28 1
-15.457880 128.168010 -18.098007 43 1
-43.640259 153.480510 -28.144291 0 0
-79.023438 113.777760 -34.860527 24 1
12.274968 251.342180 20.733902 17 1
-74.980255 212.864070 -19.538984 28 1
-66.715591 127.580510 -33.150894 24 1
68.863533 127.751980 -18.224874 6 1
21.774323 186.052720 58.467957 19 1
-99.515625 213.201370 10.465615 22 1
-73.869270 159.526570 -16.027817 20 1
36.078815 116.932160 -42.987244 10 1
71.701218 126.902570 -8.993192 6 1
64.687271 132.934650 -6.845679 6 1
0.333258 186.384630 -56.165470 36 1
-77.369202 147.026750 -9.209655 20 1
-21.180965 106.348790 -13.059551 0 0
37.489868 174.499920 16.875362 18 1
58.753841 92.126869 15.322289 9 1
38.267979 212.111710 -50.387802 38 1
78.747147 128.763440 4.956614 6 1
-22.573895 134.785540 -6.267134 44 1
5.644429 237.885880 46.754910 17 1
9.784445 230.288760 24.226395 39 1
-84.271210 215.849950 -18.286604 28 1
33.548523 47.863972 -35.685730 23 1
-59.046806 162.794080 -19.463692 20 1
34.708904 88.590515 25.335299 13 1
46.026287 219.201920 -23.776005 38 1
-11.069217 188.266590 -4.342783 0 0
13.767211 175.781020 64.907066 19 1
-43.942455 98.545776 15.454112 31 1
3.890738 199.444840 12.081726 0 0
-11.065001 97.998497 3.584063 0 0
33.027248 239.219500 -29.289175 37 1
-8.024381 213.044200 -17.936405 0 0
5.559699 138.294080 -37.845299 11 1
47.723488 120.935670 -27.925766 8 1
5.971405 205.657530 -52.119949 36 1
9.945390 143.053890 -32.634960 11 1
23.487997 239.997530 -1.082304 39 1
28.934174 145.560320 -22.102804 10 1
-86.103302 159.263920 -63.025810 2 1
18.653303 43.849506 -45.414158 48 1
-82.978790 119.291920 -16.320181 49 1
19.694798 250.519990 23.430103 17 1
-32.748165 18.482609 -108.943730 34 1
-37.092594 104.547490 25.987291 31 1
45.315510 259.528930 29.163811 16 1
-7.903250 226.176570 -4.404163 39 1
-26.452557 229.808620 -11.377715 39 1
1.403404 258.769010 11.667906 37 1
-64.066216 225.978490 -22.124475 28 1
-117.442380 201.250950 10.629462 22 1
-98.495033 215.359590 22.416328 22 1
-22.776787 62.073540 1.456702 0 0
-61.004711 124.624170 -9.977854 30 1
-22.077120 248.307530 10.886869 39 1
-21.937178 132.533980 -21.931717 43 1
-11.995729 227.314070 1.796730 39 1
12.976526 248.918210 -5.828193 37 1
-36.165142 50.333481 -60.941689 45 1
-63.643948 165.340580 -74.672638 2 1
-37.672745 133.580400 -10.222816 44 1
83.030907 122.716960 -12.856392 6 1
-11.880353 243.471500 30.079739 39 1
-7.539469 209.230130 -44.493038 36 1
21.872574 238.134570 15.953695 39 1
20.518963 128.717990 -7.166446 29 1
-16.434839 226.740650 -0.464686 39 1
-20.001232 243.107800 11.498662 39 1
50.218983 215.988310 -27.708426 38 1
60.554810 181.910200 82.203148 15 1
-18.906885 129.850890 -0.961602 44 1
-58.069664 228.842620 40.861794 27 1
39.645733 235.565310 -9.700283 39 1
-55.961761 239.591890 34.620838 27 1
-34.266014 47.960808 -80.493317 45 1
-27.350870 132.029940 -2.134855 44 1
3.672114 236.842900 -21.702229 39 1
52.304100 206.862750 -38.856003 38 1
-7.424612 76.925621 -33.527794 4 1
-81.484055 221.219250 37.906437 27 1
-56.164597 126.958660 -5.309198 33 1
-47.657078 42.281277 -61.862244 45 1
-36.465034 129.885850 -1.403309 33 1
-121.487740 194.622020 7.544384 22 1
-11.877726 143.103930 5.559631 0 0
53.875149 255.437350 19.656376 16 1
-11.619175 214.211850 -33.454159 36 1
-30.193216 248.184720 18.988455 39 1
42.946461 45.595562 -51.226089 47 1
-76.777306 154.852660 -32.292465 20 1
-3.099739 225.546300 4.149358 39 1
-56.071419 122.906940 2.559622 33 1
-83.549828 163.545760 -57.024944 2 1
-23.477009 209.073820 -41.276184 36 1
-5.673337 125.083840 -21.980909 0 0
-75.406052 108.728520 5.813436 30 1
8.993230 185.399380 55.360172 19 1
6.825362 190.794650 -52.876717 36 1
43.715500 182.791530 59.927425 15 1
13.634598 226.269070 18.485659 39 1
-13.394776 55.383125 -32.726067 0 0
33.011307 106.195850 -5.765639 14 1
-49.254280 95.379906 21.495667 31 1
54.111317 112.392790 -43.719994 8 1
23.456932 222.912950 -49.246567 38 1
30.846716 225.257750 0.181450 39 1
50.033897 256.829320 43.716084 16 1
13.238680 226.736240 4.269187 39 1
-65.276993 224.423540 -17.001860 28 1
-85.308258 222.169880 -6.542483 28 1
45.048298 223.870160 -36.370453 38 1
-5.158081 201.919390 -8.956611 0 0
0.353313 220.506620 -16.190981 39 1
-83.400520 233.289280 6.482928 28 1
-3.158905 213.977620 -36.878292 36 1
27.374971 247.355650 -7.939026 37 1
35.925903 187.358000 47.891685 18 1
57.933178 96.148880 20.607763 9 1
11.287360 215.177020 -33.209846 36 1
58.291359 114.074620 -37.417507 8 1
-50.350353 158.090030 -44.389206 21 1
14.785102 98.325630 -1.592699 0 0
30.077225 50.141968 -37.988663 23 1
-58.744011 228.233920 50.075729 27 1
-13.511362 178.325260 10.307362 0 0
-86.038559 111.734340 -32.452599 49 1
58.358437 172.988770 32.236938 18 1
-30.403254 24.009260 -104.647920 34 1
31.642002 101.378780 11.202155 13 1
45.155327 258.074830 20.577507 16 1
34.381245 83.146118 27.759083 13 1
8.111203 205.900500 -44.070271 36 1
3.487787 247.989520 -6.730984 37 1
-122.413670 186.339480 13.138334 22 1
57.225124 179.271190 88.578705 15 1
-63.305031 139.519810 -20.099144 24 1
46.495144 101.531110 6.156746 14 1
-76.901108 102.408780 -0.928013 30 1
-67.926025 167.731800 -52.502899 2 1
-81.792740 139.908870 -6.448157 20 1
-4.615338 245.751890 44.178291 17 1
30.790174 110.689700 -8.381710 0 0
-31.262308 41.284248 -88.457977 34 1
14.686563 227.747240 -22.558907 38 1
17.518711 240.123720 -6.213248 39 1
-26.892868 47.228813 -83.133972 34 1
-9.982304 58.520939 -16.111700 0 0
50.880016 256.170040 24.089581 16 1
42.911121 127.082600 7.129431 7 1
-18.468979 230.743880 -17.339376 39 1
19.543207 221.790370 56.114849 17 1
66.810715 90.314484 12.210130 9 1
-13.297241 125.293410 -28.521603 0 0
10.883183 36.642403 -53.705696 48 1
-77.287781 116.722840 -22.184153 49 1
6.336186 246.352020 -13.329388 37 1
38.821323 261.627810 28.954832 16 1
44.860050 35.996277 -30.311357 23 1
-40.562122 137.567750 -20.960432 44 1
-55.851135 134.885130 -5.242039 33 1
-61.106514 221.624880 45.913010 27 1
-39.374157 159.081800 -50.326431 21 1
35.164562 113.891310 -9.057251 0 0
-117.086220 195.757280 21.651274 22 1
7.483917 227.439540 57.855042 17 1
-94.552139 217.035060 17.004951 22 1
-82.558128 150.845310 -27.575428 20 1
-3.008947 117.168500 -22.869509 0 0
-34.106934 157.967240 -49.458656 21 1
61.241173 182.568250 75.457314 15 1
-74.457954 126.150730 -25.527075 24 1
6.458259 245.872380 41.471149 17 1
12.826983 252.397460 7.163737 37 1
-62.988049 167.054290 -59.697891 2 1
-44.986671 217.332380 14.346041 0 0
94.908424 115.478600 -7.206143 6 1
33.217129 187.593400 41.088203 18 1
6.067261 248.243480 8.861516 39 1
-17.246220 197.388490 -56.112041 36 1
59.057648 117.990840 -34.827347 8 1
38.901367 40.613297 -53.280560 47 1
-17.567217 50.952606 -75.114967 46 1
37.632713 239.046770 -27.776823 38 1
-40.125820 52.390995 -53.808537 45 1
23.067842 244.641400 35.923653 17 1
-23.771828 52.736366 -71.888062 45 1
65.562515 243.787410 41.494617 16 1
5.584661 52.795586 -77.072350 46 1
27.380287 43.200569 -50.039989 47 1
32.049591 223.159670 -46.918846 38 1
-63.483528 159.377010 -27.226265 20 1
-31.806658 133.056030 -6.843067 44 1
-76.134430 232.420560 14.897542 28 1
-27.655910 158.393620 -50.002842 21 1
38.371517 261.521420 49.639610 16 1
40.504673 230.304750 -11.047715 39 1
41.522800 128.722200 -34.788219 10 1
-106.831700 215.799410 10.879153 22 1
-26.598497 206.318730 -44.972889 36 1
57.006584 124.539120 22.692553 7 1
51.666454 117.068130 -31.551992 8 1
12.297979 240.677690 -19.165588 38 1
13.873772 241.837770 -2.201031 39 1
35.631531 105.901150 -0.505091 14 1
-0.843309 250.737550 25.759489 17 1
-11.496788 127.828010 -20.841650 43 1
65.202690 246.496430 30.661051 16 1
-7.728972 220.198090 -26.174122 36 1
50.398281 124.004210 7.672748 7 1
36.807220 180.642730 22.108477 18 1
-32.718689 111.695670 17.766014 35 1
-60.018089 166.886170 -67.532372 2 1
35.572136 51.933010 -43.610699 47 1
-13.287472 229.052440 21.657511 39 1
-31.905075 242.792050 3.373083 39 1
-22.022005 238.290830 23.736988 39 1
-72.390076 120.578380 -10.754205 30 1
68.692535 186.288770 73.919907 15 1
15.144776 246.765030 -14.526711 37 1
50.734272 256.489350 34.468266 16 1
