13.327227 258.356290 -37.777073 22 1
1.437648 160.980900 -34.615879 0 0
-127.380520 248.377120 41.679348 11 1
-9.381287 14.404003 3.062699 0 0
-99.243546 234.162490 16.166838 11 1
-33.376102 104.260630 53.217255 0 0
3.117576 168.564100 31.898022 33 1
-12.921948 164.225720 52.537090 0 0
64.040741 182.255550 -37.834724 34 1
2.659910 115.297560 4.918363 0 0
-50.065960 261.497010 -77.619713 14 1
-35.623196 179.855670 -65.982689 18 1
-46.480316 179.909240 -42.324547 19 1
-9.192855 31.158077 2.532071 0 0
-27.993298 115.961630 21.436340 0 0
10.281621 258.896270 40.215691 0 0
-10.751187 163.864470 35.121475 33 1
37.297352 287.574620 90.315125 2 1
-107.901370 225.948070 25.739178 25 1
52.463749 165.826510 32.174950 30 1
22.041443 111.873370 100.717510 1 1
73.438759 215.613720 10.593202 12 1
-24.485613 227.715650 50.091743 0 0
-15.999718 223.846080 2.726402 0 0
3.265943 202.439010 13.262744 0 0
-44.170887 251.865200 -53.179779 15 1
-38.169720 219.842470 -19.682112 27 1
-67.768692 215.857700 32.394695 28 1
-82.555534 153.264450 91.376717 5 1
53.053070 185.657940 -29.013611 34 1
45.600475 232.259110 -43.115559 23 1
-16.080626 198.406160 -2.765836 0 0
-81.302368 220.062360 -12.832139 25 1
-17.810202 76.865974 -2.589800 0 0
-79.806732 274.328800 4.566820 13 1
-61.674759 246.793790 -30.313293 16 1
-7.601838 68.311432 21.488272 0 0
-81.729187 172.829450 -65.765686 19 1
-7.766891 219.199520 -4.586499 0 0
-59.229630 105.382600 92.950989 4 1
46.058811 235.398900 -29.650600 23 1
-64.942009 108.651330 96.754433 4 1
-97.304070 212.520750 18.855450 26 1
64.960747 215.202930 80.423859 38 1
-42.174595 99.963905 102.932010 3 1
-19.200054 91.656120 20.824875 0 0
32.409618 123.696850 75.585732 21 1
-31.948917 113.031110 -2.889200 0 0
-25.202396 208.758120 -11.904999 0 0
-70.177834 181.246600 44.691784 7 1
23.362013 169.635570 -19.232836 32 1
-54.474472 209.418080 54.314198 28 1
-62.458660 205.962920 44.155365 28 1
-7.517682 232.851410 48.047447 0 0
-0.588012 304.086610 19.361734 0 0
-13.942221 133.156650 38.243233 0 0
-63.052296 210.890380 -0.063537 28 1
-33.677204 156.208850 70.989754 6 1
-88.129654 272.802310 12.439772 13 1
-13.304372 153.962400 10.460116 0 0
-90.038666 147.561680 94.557632 5 1
-2.973605 233.673930 -8.126212 22 1
93.917709 168.341050 26.735907 8 1
-11.636332 108.442670 -21.767683 0 0
-36.566998 74.312355 -11.348125 0 0
-54.684105 221.935930 -1.439711 27 1
-27.396683 162.336150 62.344978 6 1
-15.386310 139.869770 77.462868 6 1
-4.939960 66.779625 4.129370 0 0
-56.118763 214.051850 28.909597 28 1
9.396598 98.137901 104.607920 1 1
-60.922993 217.146590 9.715733 28 1
-108.712470 246.153030 50.719032 11 1
-145.547290 227.948620 12.082024 11 1
58.564556 266.589900 91.779701 2 1
-50.171410 222.300050 7.768897 28 1
71.135117 265.780460 85.801506 2 1
-27.655212 255.933960 -43.309647 15 1
-73.508499 172.250760 -61.629841 19 1
-12.209633 105.611440 9.940645 0 0
26.491795 238.512890 19.348494 23 1
-20.131382 186.198100 -75.341141 17 1
-10.258904 204.588240 10.552297 0 0
41.683456 168.663590 28.867584 30 1
-80.443237 227.768480 -5.569648 25 1
1.414763 157.423430 -16.911335 0 0
5.977643 152.295620 1.667736 0 0
43.105610 277.430110 86.617882 2 1
-89.509346 208.988650 26.882288 26 1
-87.873489 290.863400 16.493567 13 1
39.731380 231.484420 12.001354 23 1
-76.368912 148.229030 98.151047 5 1
-56.536060 179.241730 42.318584 7 1
-31.247732 103.866850 101.641780 3 1
-33.693794 174.490100 13.083455 0 0
3.471100 266.920170 120.058520 39 1
-12.995444 91.620918 11.941285 0 0
-110.381880 197.269330 28.219238 26 1
-24.644693 158.891890 21.033022 0 0
24.108545 231.027560 29.686371 23 1
-140.434190 247.512730 4.434722 11 1
-33.448090 173.611450 -14.340716 0 0
-49.835281 211.088940 3.952288 27 1
29.397879 245.622540 -23.728554 23 1
19.858706 210.276670 -19.099030 35 1
-22.144743 253.235700 -65.647491 15 1
-15.692709 36.634804 -2.710526 0 0
71.000290 216.611130 75.875710 38 1
30.018406 208.388490 103.730900 37 1
37.731735 277.456570 126.460020 40 1
-54.893913 216.633260 39.676548 28 1
58.700165 175.042620 48.917030 10 1
-11.494238 198.121900 -16.120562 0 0
-50.524223 195.103010 6.721054 0 0
0.413937 152.855530 42.995056 0 0
-30.654316 248.739350 -48.083618 15 1
73.591873 232.729660 5.382692 12 1
-92.760643 219.721820 29.804272 26 1
-84.896439 288.117860 24.735399 13 1
-11.718479 207.988720 -32.016502 35 1
-14.574168 92.846581 -12.223701 0 0
60.614899 285.842650 90.933945 2 1
-102.660190 262.207370 15.480604 11 1
-4.007092 114.260470 2.887090 0 0
43.075455 188.062270 -22.500925 34 1
-20.208733 176.886550 0.787075 0 0
-5.643715 224.581850 9.806964 0 0
-28.334425 227.914250 26.927393 0 0
-1.801284 164.103320 -23.347921 0 0
-10.871758 305.215120 23.890484 0 0
-9.332613 125.020330 30.687340 0 0
-6.893673 122.980870 10.167397 0 0
-88.494987 256.151090 36.935436 11 1
-13.422673 198.233690 -35.524220 31 1
59.740463 236.864120 -1.128699 12 1
-31.833296 210.984390 -21.668844 27 1
8.332754 218.444520 -18.828342 35 1
66.521828 222.710720 8.030909 12 1
-18.627928 174.614410 -79.474525 17 1
-15.581662 266.229830 122.191950 39 1
5.692569 128.458150 38.653896 24 1
-12.091764 54.388020 17.157814 0 0
-15.163803 101.304460 26.367958 0 0
17.171518 108.258670 106.687180 1 1
53.928566 189.505550 -37.850410 34 1
-5.671243 165.920620 -30.649612 0 0
50.228573 208.274290 105.038710 38 1
66.074562 202.115860 135.110430 36 1
-67.526421 149.627210 92.828545 5 1
-25.189236 110.680730 -4.755950 0 0
-62.319313 168.231380 52.543633 7 1
-124.803090 242.825420 1.186556 11 1
49.374470 274.877470 137.696470 40 1
-14.431345 216.881810 2.603798 0 0
-131.908140 231.682460 3.995263 11 1
-48.120274 216.529600 21.670322 28 1
-60.160576 246.875110 -43.272381 16 1
-72.012436 210.154130 5.001871 28 1
-15.786002 253.122020 -71.569122 15 1
-40.933071 256.593170 -64.320374 14 1
4.376916 193.814220 -33.439877 31 1
41.769505 244.828900 -41.212120 23 1
-17.026983 54.455372 -4.982716 0 0
-89.801094 230.068910 -6.554909 25 1
14.159042 188.625720 -36.196423 32 1
8.454821 106.871830 2.488555 0 0
-30.602699 97.892128 41.477032 0 0
13.022474 250.678850 -29.135347 22 1
45.621830 187.491530 -35.392059 34 1
-75.240570 97.987343 87.708786 4 1
22.854208 279.585080 88.727890 40 1
-43.752754 148.538310 75.765541 6 1
4.835900 166.649150 -16.836325 0 0
-5.119380 102.225040 5.518995 0 0
37.694962 122.136320 56.023853 21 1
-3.939171 193.403210 9.206938 0 0
-83.456139 212.098880 25.034229 26 1
-6.587379 295.624940 21.467161 0 0
18.246368 200.028610 104.185890 37 1
-99.614700 255.009670 45.507751 11 1
-81.217537 164.460170 50.212418 7 1
-102.831010 242.598430 3.991524 11 1
18.648224 142.306670 71.305344 0 0
-16.353573 199.961320 -21.448742 0 0
3.955590 221.627940 18.145981 0 0
-11.518028 161.880050 18.866848 33 1
26.823076 188.125950 -40.966244 32 1
-26.505724 153.712740 -11.479509 0 0
-4.708024 259.118800 15.008239 0 0
1.465611 144.455410 4.509640 0 0
-39.563873 180.673680 -48.197128 18 1
-107.840150 259.216280 41.203022 11 1
24.550602 234.083760 7.192651 23 1
11.961055 190.432080 -16.566410 32 1
-16.044529 63.445404 16.585827 0 0
-86.505371 290.685610 9.093002 13 1
84.026215 169.417830 33.781418 8 1
42.496212 177.710920 -2.455009 32 1
68.369446 169.602460 -7.033055 9 1
20.536306 184.373430 70.673782 0 0
-88.582016 262.187320 30.916092 11 1
-14.877196 56.529865 3.583993 0 0
6.044591 281.250580 91.717537 39 1
-31.087637 161.173800 -7.597109 0 0
-11.649839 59.400509 -9.588406 0 0
1.110198 74.907188 -2.418950 0 0
-111.746470 236.221890 45.032040 11 1
50.148037 170.803940 64.113968 10 1
-128.575580 242.202090 38.218739 11 1
60.656464 214.818450 89.119644 38 1
-19.304695 179.483700 -66.233521 17 1
-28.414762 127.394580 -3.503101 0 0
-49.016808 248.461840 -46.574066 16 1
-38.290920 185.592480 5.115075 0 0
-65.276505 172.144610 -15.968006 20 1
-109.865460 213.808240 27.596336 25 1
-6.095586 158.587970 -42.598217 0 0
-14.566060 274.141330 110.585850 39 1
-123.315410 267.455600 15.488006 11 1
45.394749 179.694150 38.581955 10 1
-8.279069 167.570270 27.113295 33 1
-3.990894 65.990654 32.840073 0 0
79.198830 219.813080 7.111817 12 1
0.692260 282.191130 97.976486 39 1
-62.498951 211.592130 32.640202 28 1
28.666498 113.966020 45.589958 21 1
13.709218 211.277110 -26.795542 35 1
13.805158 229.056950 13.735141 0 0
5.630628 150.579880 8.401010 0 0
-24.374882 194.944150 -0.478981 0 0
-4.771506 56.060547 2.102587 0 0
-23.750259 91.344841 6.733092 0 0
-10.115673 51.887836 6.104057 0 0
-2.263720 220.820420 46.496056 0 0
-3.257185 246.398350 22.762943 0 0
-47.952202 189.391080 3.643499 0 0
-92.096832 264.217410 22.554934 11 1
-31.449448 175.137740 -53.109310 18 1
-36.073647 228.070850 3.975882 27 1
-55.975174 110.253430 88.813713 4 1
-102.349530 264.356290 28.251965 11 1
-91.223999 247.236950 12.793392 11 1
-0.151914 311.724030 18.225189 0 0
-73.433540 253.781850 20.747442 11 1
-21.062611 254.782730 -53.795315 15 1
52.507084 237.071170 -2.085603 12 1
-4.766501 227.149310 45.011116 0 0
-10.781114 76.744705 5.531294 0 0
23.856133 178.983370 -18.469278 32 1
13.498262 180.166690 67.667938 0 0
-12.546628 199.720310 3.195265 0 0
-18.686010 285.116580 25.214762 0 0
-103.269000 217.718810 26.320284 25 1
28.760256 241.265000 4.205939 23 1
-5.393077 146.337570 7.063569 0 0
-37.854839 161.872650 10.879766 0 0
62.585629 227.178970 11.421368 12 1
-69.399078 223.304430 -10.744769 25 1
9.000296 209.133150 9.092798 0 0
15.648950 186.320330 -24.860373 32 1
-85.072304 215.653870 -0.348764 25 1
-22.546000 146.128740 -0.219059 0 0
-43.728691 218.307400 -28.236977 27 1
54.027634 290.544800 88.092400 2 1
-33.461628 109.426420 94.729721 3 1
-60.855095 216.522780 -9.853274 27 1
47.228542 284.945920 94.061859 2 1
-4.601303 159.756290 46.770493 0 0
-36.504673 106.885410 -8.223715 0 0
-23.502300 166.836360 5.754577 0 0
-88.702789 208.670270 5.681497 25 1
-36.956936 175.605330 3.260023 0 0
-61.609070 156.364550 76.244102 5 1
51.758858 218.221360 83.093094 38 1
-6.496041 191.942570 17.334208 0 0
-85.255692 297.078220 14.714062 13 1
-7.950719 12.307997 -3.611649 0 0
3.242965 273.764560 103.558740 39 1
-18.735226 140.900920 66.382332 6 1
-15.386662 165.219090 -4.647137 0 0
-7.155667 42.885788 -1.794947 0 0
36.857834 205.433730 97.648506 37 1
15.202636 265.951260 69.163788 0 0
-91.906212 229.031050 1.835965 25 1
-12.570791 152.480360 -20.924738 0 0
4.466366 252.431980 -29.485683 22 1
-86.099754 276.914250 -10.605138 13 1
-97.689407 264.997890 40.628643 11 1
-17.802896 162.245010 48.469376 0 0
-6.563645 200.464830 -2.654963 0 0
-30.785824 168.294510 1.291014 0 0
-22.262812 134.209350 10.346284 0 0
-12.986066 196.271000 -9.887807 0 0
-47.088108 116.145960 86.003113 3 1
28.323729 282.461520 96.666054 40 1
-7.907055 245.732740 -22.501781 22 1
47.281063 205.450200 -7.176501 29 1
-105.480080 256.470280 48.253784 11 1
16.605247 127.970310 44.247723 24 1
-40.605690 108.321440 94.739853 3 1
-9.097136 236.749770 53.893925 0 0
-109.828410 191.356960 45.457218 26 1
-15.463224 233.403820 2.770309 0 0
-65.471169 265.447050 -81.638580 14 1
3.439762 227.485020 9.612671 0 0
-16.717804 63.779613 34.417969 0 0
-60.717087 217.536190 -1.776078 28 1
-41.355942 160.252260 59.782593 6 1
-13.313018 228.346820 54.476372 0 0
-35.184216 223.837020 15.507194 27 1
-38.006271 251.699710 -49.458321 15 1
-32.392662 155.785050 -1.826187 0 0
23.364653 186.953580 -29.127415 32 1
9.280252 187.965870 -41.160427 32 1
-25.648762 165.199840 18.957642 0 0
71.398689 226.496600 1.930226 12 1
8.661212 246.452150 -18.328373 22 1
19.409006 173.755200 -13.995207 32 1
-4.747847 278.391080 15.112629 0 0
-16.541342 87.444618 25.200048 0 0
-58.297012 154.874150 82.247604 5 1
109.311540 166.855730 33.965893 8 1
13.692608 208.891300 98.098236 37 1
-72.314461 191.006180 39.404640 7 1
17.222818 121.883610 84.515831 1 1
-6.285247 167.232240 14.723116 0 0
-17.847944 48.336330 14.489388 0 0
-2.820878 148.129930 -19.215668 0 0
-37.839539 99.840454 51.182953 0 0
-13.592241 181.038890 8.154602 0 0
-92.703827 204.114760 46.676819 26 1
-39.836750 246.130390 3.154806 0 0
-95.753426 206.492680 -0.951529 25 1
1.415759 105.611640 9.385407 0 0
-73.979317 264.114780 -81.191841 14 1
-8.401648 129.628370 38.850372 0 0
8.986150 149.905330 -15.189881 0 0
56.092350 178.531250 14.966804 9 1
-34.124928 148.031110 80.246033 6 1
-98.905434 239.565860 23.002937 11 1
-53.142796 159.350370 62.083225 6 1
44.734901 238.423970 -38.614670 23 1
46.487343 275.774630 118.736040 40 1
-40.425415 153.211150 4.243746 0 0
29.483192 273.510470 127.094260 40 1
-7.519101 177.865170 -95.307686 17 1
-33.282860 239.462220 -6.142281 0 0
3.261702 183.926440 -20.408390 32 1
-84.954178 225.640460 -15.024154 25 1
-50.108372 214.284390 -25.712912 27 1
2.608253 256.452000 6.697911 0 0
-74.258606 165.793290 51.975986 7 1
-58.991058 161.243450 72.691757 5 1
-28.605461 197.157700 -44.037098 31 1
-81.806778 175.270680 -54.037838 19 1
32.017357 208.620760 -21.151752 29 1
-4.925732 195.933590 -41.720058 31 1
-0.911185 295.702480 27.967669 0 0
6.342983 148.329440 14.953416 0 0
14.579063 230.850850 4.040309 0 0
-25.267183 135.297040 78.456352 6 1
-13.866228 152.694410 -7.213072 0 0
46.324162 171.664930 58.365253 10 1
-17.545597 97.472610 -6.269536 0 0
49.298920 178.204800 46.300877 10 1
36.373657 268.189850 141.380400 40 1
-34.051495 219.707810 43.661224 0 0
-64.469086 177.458240 -55.448067 19 1
86.339516 168.854630 26.418041 8 1
8.146528 224.565570 2.350836 0 0
-76.772995 211.342270 43.069187 28 1
4.949888 301.439970 17.111044 0 0
22.445671 203.774540 123.903330 37 1
-9.739800 225.718750 2.526912 0 0
-87.575592 279.914920 4.768490 13 1
65.089928 209.524410 119.880740 36 1
-64.917328 268.745510 -88.449783 14 1
-39.838287 155.931490 68.809349 6 1
-57.442932 208.309460 10.283617 28 1
-10.810327 233.585250 9.565228 0 0
-3.978395 202.865770 21.773333 0 0
58.740528 274.981720 130.118820 40 1
65.445152 175.446240 -38.549179 34 1
-18.422115 218.966630 7.324492 0 0
-45.313206 217.742890 37.328060 28 1
40.367268 232.190410 5.143882 23 1
-28.622185 126.760110 3.007004 0 0
-70.045181 158.443630 73.303062 5 1
103.262020 176.046330 24.666801 8 1
-39.515079 164.084980 52.583988 7 1
-68.298370 99.673409 102.014230 4 1
-16.684853 294.874080 28.401678 0 0
-10.437599 295.804170 13.543636 0 0
19.818655 242.811890 6.837501 23 1
2.555442 64.988297 6.778074 0 0
-149.509320 240.697630 9.449822 11 1
2.353225 232.918820 13.009811 0 0
-4.177510 122.522160 43.166927 0 0
-67.311035 115.489860 78.171860 4 1
60.077290 208.469880 114.485300 36 1
-32.856518 224.565310 52.879978 0 0
-138.437120 255.081480 8.028701 11 1
-153.257630 226.169620 2.176056 11 1
-38.748749 241.497060 -40.704025 15 1
12.635736 171.988220 -52.235828 32 1
12.115590 198.243590 126.289220 37 1
-106.873300 227.608640 36.639046 25 1
28.576313 238.716610 12.483561 23 1
7.243483 238.092970 19.330154 0 0
94.839828 166.127120 34.531906 8 1
45.568012 206.033080 114.283620 37 1
-2.410761 149.126360 -42.778122 0 0
-8.156650 159.722960 -22.409918 0 0
-131.143450 247.823780 0.031904 11 1
-19.112474 186.911970 1.906802 0 0
-4.474793 265.454530 123.716020 39 1
-42.780361 221.141600 -0.285837 27 1
-1.886950 210.444700 2.073416 0 0
-6.958313 141.880200 13.644044 0 0
55.750961 229.037630 5.889460 12 1
62.997375 168.785250 7.478563 9 1
-126.348670 260.383090 28.607037 11 1
-5.239168 229.665100 13.994749 0 0
-15.102544 190.218400 9.899045 0 0
-0.587373 141.267670 -8.784010 0 0
-78.518097 232.012130 -14.584975 25 1
35.497822 279.011410 117.834570 40 1
80.225952 170.746170 14.343773 8 1
-117.210960 268.646300 17.355223 11 1
-47.060452 216.427230 15.042563 28 1
65.850456 178.048600 13.909335 9 1
34.469753 235.081770 -12.332299 23 1
-7.791332 206.541900 -25.751789 35 1
-82.363091 292.447450 -5.681044 13 1
34.285027 238.042760 -0.073322 23 1
40.346989 190.437960 -33.181660 34 1
10.236162 220.099880 -9.946607 35 1
63.476856 165.897830 45.115879 10 1
-46.142242 254.208400 -40.189503 16 1
-91.571320 257.362820 7.401316 11 1
-25.795349 85.448196 -0.788154 0 0
-5.699023 234.285060 -14.627945 22 1
43.794636 210.988450 -18.159567 29 1
-47.252007 246.831180 3.111607 0 0
-11.647973 145.092790 77.180534 6 1
-10.959027 221.412510 -9.705642 0 0
-8.991622 263.708740 23.682232 0 0
-45.032722 167.337340 47.806622 7 1
-9.356525 270.238280 113.340520 39 1
-112.081850 196.515080 34.569767 26 1
-38.859695 211.624620 -18.520489 27 1
-63.026443 171.582870 45.373798 7 1
34.912395 208.854220 -4.041889 29 1
5.536145 180.570420 49.202454 0 0
-45.913620 151.825040 64.222038 6 1
-110.859160 262.798650 10.804380 11 1
-45.368179 222.141570 19.589735 28 1
1.597454 212.565350 -25.279760 35 1
-83.674217 267.056670 21.328802 13 1
-104.250600 201.184690 39.906181 26 1
15.862027 117.701070 90.228180 1 1
-60.842743 149.538740 97.147858 5 1
-140.963530 249.504060 15.290854 11 1
-40.206612 226.821410 10.436747 27 1
-114.555730 264.782100 22.865143 11 1
54.635658 200.867170 -2.512660 29 1
-59.181248 155.977190 63.373314 5 1
-6.727549 153.681900 10.920621 0 0
25.435495 238.776500 25.832722 23 1
-61.588829 216.217130 38.372128 28 1
-43.970459 179.088610 -55.574928 18 1
-107.630080 219.264830 16.797022 25 1
-36.782024 174.484880 47.233841 7 1
-61.661827 214.458340 44.564484 28 1
57.450268 208.957470 126.451590 36 1
99.948463 163.692570 40.040016 8 1
44.601009 239.618090 -44.908863 23 1
-5.111476 89.733864 10.750282 0 0
40.584740 278.343480 108.150530 40 1
-13.418705 285.572480 17.309475 0 0
-118.919880 246.321850 2.091065 11 1
-40.141857 199.562450 3.222619 0 0
-16.638025 25.974749 1.769421 0 0
-51.062603 110.095280 98.593216 3 1
9.152831 108.159010 108.433210 1 1
54.244087 276.874970 86.377998 2 1
-2.416603 127.415480 48.276482 0 0
-80.273865 164.050740 72.644867 5 1
-4.196756 83.520676 5.733131 0 0
75.347382 168.597310 28.309288 9 1
62.860863 231.978390 -4.929532 12 1
-73.592720 300.604130 -5.463565 13 1
-14.269184 137.405980 0.736014 0 0
-97.440384 223.350600 12.077509 25 1
-126.593890 230.756440 21.569218 11 1
2.454128 176.453840 -55.881840 32 1
-5.515853 91.041466 3.669383 0 0
-45.678291 260.368560 -72.842285 14 1
-70.081604 105.094940 86.480927 4 1
-38.397491 144.410420 2.452213 0 0
-65.066338 171.741700 -63.249496 19 1
71.142555 169.203980 2.395752 9 1
-116.548420 181.897080 43.796532 26 1
-12.528157 109.505350 29.161461 0 0
-14.152925 80.957336 25.261015 0 0
25.412373 125.191440 83.918983 21 1
-2.123032 283.881260 22.117920 0 0
-7.671952 136.584750 36.282345 0 0
-75.464027 299.152040 -12.348146 13 1
-5.560123 222.033050 34.588814 0 0
-2.483959 229.822560 31.541304 0 0
-45.582546 112.723440 73.362610 0 0
5.542019 240.310750 -7.858215 22 1
-10.129200 250.901340 -69.755501 15 1
-72.266373 209.176330 25.563791 28 1
-36.098892 142.171360 76.669861 6 1
28.638655 271.746120 134.055180 40 1
-37.510120 225.816100 -6.194491 27 1
57.948780 169.639910 55.884331 10 1
5.404995 157.437470 -27.447968 0 0
-135.033910 230.850190 12.484215 11 1
-43.413540 222.416240 -22.126534 27 1
-84.405022 268.024140 4.063379 13 1
-8.571468 118.507400 32.569092 0 0
22.953861 205.629070 115.266080 37 1
4.156831 162.983990 19.998472 33 1
52.411949 278.686680 120.681760 40 1
17.559532 284.734860 91.029846 39 1
10.909653 207.622440 -15.534264 35 1
-102.625140 204.319720 -11.658365 25 1
70.150337 165.796040 33.726982 9 1
-105.213770 267.099030 21.174120 11 1
1.714712 163.863040 51.014896 0 0
-7.577129 102.203760 -12.927551 0 0
59.655754 176.960650 22.260029 9 1
-16.467361 200.956920 -30.675772 0 0
-95.638557 207.411530 25.622499 26 1
-22.258080 153.382610 0.587440 0 0
49.083580 265.502320 85.204712 2 1
-99.948418 229.840590 -12.141091 25 1
-50.041508 209.342090 43.368809 28 1
8.359423 112.704300 5.648000 0 0
-13.055892 129.325360 -21.876122 0 0
-21.239058 88.798058 -8.864066 0 0
-8.699667 24.887800 2.144420 0 0
-50.086132 251.302950 -33.614967 16 1
-147.628310 246.403500 7.149941 11 1
-125.800220 263.140990 6.298511 11 1
-65.067642 112.448220 85.295059 4 1
48.566380 275.506930 89.084427 2 1
-2.167290 174.634480 12.939160 0 0
-74.820343 169.579770 63.697647 5 1
38.534546 206.919020 105.774570 37 1
26.138975 283.469730 115.254360 40 1
-6.522890 68.544327 -16.363050 0 0
-18.626966 159.960250 26.615286 0 0
-78.008057 173.243900 43.414703 7 1
-134.871170 252.882660 22.623152 11 1
38.299553 278.456420 97.834290 40 1
0.634429 160.890690 26.993652 33 1
19.287481 186.676470 -41.272446 32 1
53.081322 206.812060 -1.210322 29 1
-10.499608 226.071150 38.987949 0 0
-50.355003 174.959260 -50.440845 19 1
96.182152 174.222150 26.950161 8 1
-5.437938 234.364640 20.230991 0 0
-7.774049 173.861530 47.861588 0 0
-95.274933 196.846010 44.865662 26 1
-17.703985 194.730420 -40.545319 31 1
14.454041 200.763690 -20.397600 29 1
-127.857350 233.822390 34.365807 11 1
-25.125938 201.273990 -32.029148 0 0
52.719112 208.853710 120.868420 36 1
-28.830429 167.803940 10.180888 0 0
-3.735477 150.081390 -0.510741 0 0
15.321042 253.465100 -34.244835 22 1
-26.853083 201.767090 -24.662388 0 0
-22.737526 203.099610 -10.881065 0 0
-16.219744 153.895100 64.956276 6 1
3.185879 248.589550 22.142323 0 0
40.680809 267.559450 88.682556 40 1
-1.520510 201.148760 9.459194 0 0
28.493931 186.434230 -22.280445 32 1
-62.999783 161.758820 51.825153 7 1
2.225114 183.103360 15.223738 0 0
13.280897 220.978640 9.351312 0 0
-41.275043 186.753920 -20.476334 0 0
-3.571970 193.903670 -4.145378 0 0
-87.273712 255.125850 26.079519 11 1
-9.083744 131.423050 14.661326 0 0
73.007904 171.898010 9.167339 9 1
-29.334087 139.715850 73.318268 6 1
17.728456 233.920380 13.878064 0 0
-26.461800 176.889210 -60.963009 18 1
-64.896477 203.503490 17.131113 28 1
-33.026001 244.562990 -42.264454 15 1
-56.277817 173.329900 44.264950 7 1
18.439714 121.513570 52.383091 21 1
-54.957298 219.476180 21.516853 28 1
-3.559966 164.536850 5.850051 0 0
-27.243824 231.674530 46.070927 0 0
-21.562817 103.964340 10.398896 0 0
-136.929720 228.810930 21.517929 11 1
-21.832239 100.963070 -9.512596 0 0
-65.187607 170.482790 -24.924440 20 1
3.873367 240.730240 -13.866958 22 1
-81.105141 212.861920 19.227158 28 1
40.990673 238.563750 -27.218801 23 1
-8.141038 185.297200 -81.342987 17 1
-13.420982 140.127380 -24.024355 0 0
-92.511978 222.496920 0.334263 25 1
74.025803 204.225480 129.307190 36 1
-7.622309 102.160450 -22.083632 0 0
8.321568 281.890660 99.948898 39 1
-18.642876 229.943680 50.635208 0 0
-98.100372 217.543210 -8.289606 25 1
-64.570847 173.007660 -51.133739 19 1
18.390167 277.428310 115.741780 40 1
8.042949 252.919650 39.855488 0 0
-12.198043 41.367481 -5.056479 0 0
71.098717 213.747890 81.457970 38 1
-19.039419 160.811070 10.986147 0 0
4.377778 155.079830 -36.155975 0 0
4.535394 100.616800 107.681940 1 1
-5.531995 162.380260 -0.947387 0 0
10.704866 199.840210 118.104010 37 1
-33.514404 222.843320 -29.941269 27 1
-30.983971 182.144610 -5.178372 0 0
7.706353 177.537310 -50.035580 32 1
-4.107014 158.261520 -32.425327 0 0
-59.387665 172.807940 -46.496132 19 1
4.457926 110.135790 16.756828 0 0
-110.515020 238.282410 11.671515 11 1
52.135674 168.582490 53.385891 10 1
71.043518 177.011520 20.104460 9 1
2.272582 67.399963 0.494212 0 0
-6.600212 315.102390 20.464972 0 0
9.320068 164.988270 -36.476173 0 0
-16.748623 129.155900 5.101150 0 0
-56.811043 245.454570 9.335640 0 0
18.173651 273.622280 76.065712 0 0
-71.643730 161.022630 65.292068 5 1
-33.079166 63.805222 -5.629821 0 0
-57.569859 160.437190 48.100483 7 1
-42.726727 217.215910 45.255814 28 1
-11.433013 168.103490 39.522251 33 1
-0.864829 59.546940 7.829246 0 0
-88.384384 261.167690 11.543024 11 1
-40.773045 171.272110 -56.419975 18 1
-4.225464 32.502178 -0.942068 0 0
-25.666391 181.071640 -73.723724 17 1
-1.041566 111.597230 12.956895 0 0
1.613875 107.188000 3.300625 0 0
50.398106 208.260220 111.227580 38 1
40.361225 160.605700 34.617252 30 1
-1.439096 127.695430 15.064287 0 0
-77.457962 291.741880 -1.097359 13 1
-35.105412 161.988720 58.347603 6 1
-70.983803 206.619380 48.799366 28 1
-56.443531 251.462360 -41.114643 16 1
-4.102371 279.217530 107.637150 39 1
13.133162 170.185910 -18.293318 0 0
54.242363 211.289570 92.582123 38 1
-52.522285 152.537730 56.504589 6 1
-68.115646 213.162410 47.867245 28 1
-15.278149 110.950720 8.541736 0 0
-8.955171 302.938480 29.672672 0 0
4.557572 152.045610 -4.786640 0 0
42.204193 283.359680 87.922394 2 1
-22.901152 86.128563 18.623549 0 0
5.527427 60.713398 3.579433 0 0
-16.117529 189.707110 -37.407936 31 1
-19.772158 291.135310 24.689144 0 0
-66.001480 260.797390 -69.776253 14 1
27.152431 274.335050 99.306244 40 1
111.932210 170.151520 25.308714 8 1
-83.059692 218.855010 11.938933 25 1
0.315593 170.600020 55.356571 0 0
33.722130 182.543330 -27.710089 32 1
68.385559 269.557620 90.091080 2 1
-112.604160 190.706280 38.777569 26 1
65.155884 169.820450 33.633286 9 1
-117.929250 258.867680 -1.611504 11 1
-10.851443 53.496338 -7.676810 0 0
-19.069675 151.671720 14.761634 0 0
-108.777480 212.693390 21.708433 25 1
8.162557 106.869060 12.728064 0 0
-5.208020 248.745760 13.875274 0 0
-36.085442 149.483440 69.550484 6 1
-7.691341 311.738460 27.346636 0 0
-13.709913 71.048508 23.403736 0 0
-62.191307 145.391020 101.390830 5 1
-148.404720 236.363490 4.109277 11 1
60.817375 206.800740 131.181300 36 1
-41.833591 195.283080 7.825722 0 0
-20.076385 279.437900 108.438780 39 1
-30.585142 145.319240 65.604210 6 1
-90.146156 208.888580 37.063160 26 1
-40.462723 220.835970 7.912971 27 1
50.004177 232.061950 2.256777 12 1
37.378231 176.373090 -5.523471 32 1
33.055851 127.874520 70.340057 21 1
5.589753 246.093290 -24.174061 22 1
-4.394102 158.582230 -6.984188 0 0
-1.898957 273.275020 106.889670 39 1
11.013688 279.598880 107.856300 39 1
-19.580994 197.800400 -12.068437 0 0
-78.770546 292.347440 4.798318 13 1
61.378288 183.102100 -43.221760 34 1
-37.553703 204.991200 -28.657618 27 1
67.841118 175.174060 25.162071 9 1
-1.057255 213.515460 7.257802 0 0
-50.156075 243.465300 -42.814449 15 1
23.093725 246.488880 2.998215 23 1
-11.626817 91.719315 3.360337 0 0
-86.392212 181.540500 43.526409 7 1
-6.812255 174.954570 7.715947 0 0
5.205629 159.573870 48.550453 0 0
-9.161550 93.098175 29.879593 0 0
-28.876045 199.076340 -19.632896 0 0
-84.567833 272.868230 -0.131539 13 1
-80.937256 281.576810 -12.152078 13 1
61.996815 181.214570 -32.089169 34 1
-20.099987 303.762050 32.494087 0 0
44.115765 294.531680 89.618561 2 1
56.144394 172.242800 38.676983 10 1
22.111071 186.235670 -35.531025 32 1
-2.307259 60.829556 -3.689867 0 0
-14.292794 181.112080 -75.827141 17 1
-29.309187 68.013527 -9.740834 0 0
-27.818327 174.709780 -4.864358 0 0
103.340680 167.208070 34.798183 8 1
-82.175659 258.741060 19.619053 11 1
-82.475365 284.759740 12.044960 13 1
-10.759110 64.674400 34.750454 0 0
-82.509621 143.660580 100.331960 5 1
-122.054120 231.155930 38.270012 11 1
-0.871710 240.716580 11.605299 0 0
73.985062 171.804110 18.772423 9 1
11.030121 277.474090 93.133766 39 1
26.541105 116.029420 85.514755 1 1
-6.299994 125.003080 -22.260881 0 0
10.737570 162.672030 58.332466 0 0
9.923759 127.017890 28.733290 0 0
34.946579 210.630800 -16.185303 29 1
5.264549 163.897200 35.532913 33 1
4.223196 189.840820 -22.911549 32 1
10.109201 119.854570 93.476852 1 1
-9.187965 111.935340 10.659540 0 0
-3.661090 180.963010 15.007877 0 0
-68.062347 143.636440 100.506840 5 1
34.599358 273.077060 84.443916 40 1
-1.644924 154.254560 -45.816109 0 0
-23.200592 182.168240 10.849914 0 0
43.181755 273.725740 136.380740 40 1
13.287058 244.932500 -30.864777 22 1
1.890768 239.281130 16.861876 0 0
-1.760674 64.513466 -8.846462 0 0
21.528772 126.734730 72.189766 21 1
33.867836 118.195820 84.405777 21 1
-42.621429 102.871330 58.700180 0 0
-10.896268 144.280380 -28.839937 0 0
24.846460 125.685530 48.109180 21 1
36.632172 180.338240 -11.786417 32 1
60.266766 173.771030 5.392671 9 1
-100.874730 199.455750 -1.206324 28 1
-51.651497 161.463500 53.617950 7 1
3.545688 145.622530 -12.594913 0 0
8.058418 113.367860 99.203896 1 1
27.629330 209.221570 -17.031712 29 1
-59.162991 217.479340 -18.151371 27 1
54.574684 180.425190 -41.799519 34 1
-26.824877 221.808750 19.007845 0 0
-137.326900 238.078430 3.078718 11 1
4.809516 278.660190 86.471962 39 1
-13.374657 275.208560 23.627789 0 0
36.513500 237.536790 -18.111797 23 1
61.789112 170.991700 23.671709 9 1
2.101646 279.343480 105.352730 39 1
59.284103 214.798360 109.734470 36 1
-9.372899 54.267563 11.846142 0 0
-38.287075 242.572880 -7.083454 0 0
-49.149490 222.792300 -3.576491 27 1
-96.858994 262.049740 17.551525 11 1
76.978676 225.124980 4.788928 12 1
-38.602901 152.098680 55.387600 6 1
-96.068077 201.631000 34.446999 26 1
-8.500622 132.293990 -17.948154 0 0
-9.294699 215.428390 7.483936 0 0
-54.545135 219.593610 10.801449 28 1
-26.237347 255.126270 -56.997635 15 1
-59.746548 172.739470 -26.630711 20 1
-53.484787 153.499020 85.651779 5 1
-68.199699 213.858570 -7.238402 28 1
26.033808 118.791020 93.507645 1 1
-119.664720 264.084320 6.321346 11 1
-20.792969 103.820320 1.256723 0 0
-65.332260 184.994780 44.375546 7 1
-77.042236 179.114750 40.113674 7 1
45.307796 275.347410 124.549480 40 1
-75.493820 213.771770 21.437162 28 1
-35.332993 178.953450 -8.393364 0 0
0.495056 160.083680 -40.437145 0 0
14.817623 137.840180 30.200270 0 0
-14.765499 104.696120 -13.035962 0 0
12.123429 157.574480 66.448654 0 0
8.189625 124.234220 50.209106 24 1
-21.102276 212.862410 6.485743 0 0
-25.537971 113.028520 16.892120 0 0
-24.509712 227.469740 -3.775849 0 0
-2.468632 124.771350 34.331066 0 0
-31.620934 204.564210 -22.492508 27 1
-3.288343 137.253940 14.265776 0 0
-75.391273 171.997880 -68.615707 19 1
-72.135208 106.386700 81.001938 4 1
-39.712475 184.101260 -65.311378 18 1
45.166782 172.214020 48.422176 10 1
-11.046721 130.825130 5.950222 0 0
-40.413601 134.312670 38.460918 0 0
50.916050 268.088290 91.836288 40 1
-41.981407 239.630170 3.710896 0 0
-63.244751 209.575200 56.792717 28 1
20.693829 237.040600 18.979618 23 1
67.459015 172.675980 11.244858 9 1
-10.081776 156.145170 15.253542 0 0
5.689181 226.491490 -13.277368 35 1
-99.888885 209.245790 31.319462 26 1
55.013916 218.058360 78.092499 38 1
-34.480049 123.381230 1.552494 0 0
2.351163 83.355423 6.283005 0 0
12.753938 266.391300 57.533581 0 0
-14.151774 284.164490 104.252690 39 1
-6.720110 283.893770 25.911880 0 0
37.899979 282.056180 103.238150 40 1
-41.627636 109.951510 -8.600206 0 0
-27.267469 180.724370 -54.518398 18 1
14.152501 242.083980 -9.532642 22 1
-22.760006 115.557890 -7.230425 0 0
26.224895 211.256700 -23.655960 29 1
-42.098423 190.077740 3.150522 0 0
-104.457730 230.196210 28.557127 25 1
4.067156 294.822910 17.832335 0 0
-40.354397 218.366590 -12.359589 27 1
-33.029205 217.906830 -21.937048 27 1
-31.561037 171.993650 -77.172966 18 1
-57.414009 209.117840 45.718079 28 1
-30.828064 109.392380 -7.934325 0 0
-83.741371 208.559340 11.127244 28 1
-54.550190 173.604690 -38.884838 19 1
-37.654896 158.380750 -28.757856 20 1
-32.813442 94.286583 45.594311 0 0
-4.717904 75.634789 -2.975982 0 0
13.732355 181.070190 17.505505 0 0
-16.243008 252.366060 -61.492348 15 1
29.685745 238.666520 -5.103588 23 1
-46.531727 116.689780 91.895920 3 1
-2.822457 124.123010 6.060171 0 0
-32.565117 172.878280 -8.560149 0 0
-10.941807 201.136890 -6.958442 0 0
17.468090 175.839480 68.148026 0 0
6.888517 270.662140 110.116650 39 1
38.250656 120.687070 68.900475 21 1
-4.066998 224.859850 3.920414 0 0
-10.139946 58.347893 -0.239463 0 0
-35.769207 209.296220 34.509460 0 0
-49.772377 242.341840 6.551010 0 0
-52.095413 214.882200 17.662924 28 1
-23.454903 178.198260 -79.104919 17 1
-4.749173 191.168490 -29.750832 31 1
61.363827 230.388180 0.543639 12 1
-67.467560 206.168000 6.498387 28 1
-125.837680 226.260270 28.336586 11 1
-60.364815 179.771240 47.043499 7 1
-50.125542 215.724460 48.915730 28 1
12.399015 131.830260 46.418438 24 1
-6.460917 105.671680 17.836737 0 0
-12.545924 159.061750 -17.422831 0 0
-7.557300 80.783585 22.025871 0 0
-0.665954 196.798860 -8.640489 0 0
-99.203857 258.181610 9.115368 11 1
16.048399 112.789340 100.182010 1 1
-53.634987 106.189640 95.057426 3 1
-52.148083 157.952120 75.922096 5 1
-79.620697 286.475160 0.893855 13 1
-99.307159 199.542800 -10.933301 25 1
-61.765347 211.018220 21.910896 28 1
17.993765 198.629490 131.704930 37 1
19.937706 238.137770 -5.899964 22 1
7.825079 190.423070 8.564041 0 0
34.318695 158.107030 29.303213 30 1
-83.136345 293.282750 18.985237 13 1
13.472580 176.777600 49.027542 0 0
-5.318331 169.478520 -25.249363 0 0
-46.417183 158.775090 50.309124 7 1
57.899311 163.914950 38.043903 30 1
-87.664429 272.264430 18.756983 13 1
2.300940 206.715260 3.821547 0 0
-32.326885 219.102620 -11.641933 27 1
-14.283442 151.210680 4.833475 0 0
-78.918907 296.864620 11.371616 13 1
-8.601553 136.119540 -25.561701 0 0
-17.378088 212.051060 1.158631 0 0
-5.533579 299.010440 14.389714 0 0
-6.379504 168.871090 36.343262 33 1
33.103016 236.007660 6.068315 23 1
33.413456 240.917590 -11.718996 23 1
18.008942 272.727810 128.257460 40 1
69.113266 235.361530 -5.285379 12 1
-77.386284 302.978330 7.084642 13 1
81.868057 164.545170 36.511333 8 1
-50.233681 174.496540 50.363712 7 1
-66.604286 206.959110 40.049896 28 1
47.708313 177.156590 59.739105 10 1
-7.334528 170.820560 42.909752 0 0
28.748314 228.952390 2.956797 0 0
-68.849586 215.773770 24.321039 28 1
-105.357570 193.919590 37.494171 26 1
18.174570 127.648840 57.648586 21 1
-16.959629 88.240227 9.146780 0 0
-8.324654 67.897110 28.238752 0 0
22.750643 130.940260 66.234901 21 1
27.653467 152.927760 27.972189 30 1
-25.863096 136.635570 0.718287 0 0
-5.567187 19.260508 2.458338 0 0
-80.281593 157.089170 79.046402 5 1
90.152817 171.372800 30.014069 8 1
66.535942 279.783360 87.244850 2 1
35.378082 246.306410 -31.060135 23 1
-34.343704 132.252750 1.015883 0 0
-108.818050 252.031540 49.971466 11 1
31.195259 122.407190 57.687786 21 1
-10.374548 164.098110 -33.815674 0 0
60.350098 215.108090 76.778831 38 1
32.128674 289.900390 92.604652 2 1
16.714552 276.507870 110.258560 39 1
36.121811 205.691530 -9.173166 29 1
-18.572737 132.310970 79.019531 6 1
-72.761398 231.102770 -15.503080 25 1
-95.156624 244.723860 23.035278 11 1
-11.838253 170.018140 -40.254887 0 0
-9.244685 102.291310 13.661137 0 0
-7.840006 186.508510 10.505495 0 0
-31.693682 147.735400 8.799143 0 0
47.644230 213.414640 90.189156 38 1
4.778757 183.957020 -40.647881 32 1
25.542364 277.461430 125.523440 40 1
-2.726372 248.599410 -20.202187 22 1
46.004051 192.902850 -37.946953 34 1
85.794792 171.456070 21.272688 8 1
-71.741058 170.320710 -17.008835 20 1
-42.617348 168.623350 8.435727 0 0
-137.794310 263.826510 13.184023 11 1
-65.526436 153.135450 82.604973 5 1
-22.132929 128.355940 -1.898349 0 0
-25.410461 103.399980 100.902950 3 1
-94.024590 242.335490 11.161402 11 1
-132.941540 244.314560 30.761377 11 1
41.206154 280.024780 121.004410 40 1
31.625332 276.143740 109.250000 40 1
29.626877 232.765000 16.049009 23 1
-17.289862 160.077730 -7.094406 0 0
18.286510 226.052430 6.078965 0 0
31.782724 198.708970 91.982246 0 0
-1.798188 264.783450 14.015676 0 0
-23.671471 148.321880 65.304924 6 1
-9.290764 160.903880 42.380493 0 0
-34.809654 185.221010 9.708544 0 0
-22.556047 159.210190 61.479313 6 1
8.540927 205.057530 -21.735611 35 1
0.539016 185.585450 9.857887 0 0
-10.118852 121.693780 47.720024 0 0
-42.736530 153.689210 73.372475 6 1
52.556953 189.202930 -44.052769 34 1
-35.489128 140.306660 -3.524713 0 0
19.718710 282.566010 101.383900 40 1
8.873105 239.335510 -3.250943 22 1
-30.131544 184.679230 1.949735 0 0
-34.813049 136.752470 37.119610 0 0
-87.782951 249.567340 5.607805 11 1
35.095955 271.654480 136.647060 40 1
-16.882023 158.334200 44.339092 0 0
74.740654 173.963030 25.810642 9 1
-50.012112 258.629670 -68.355286 14 1
-4.151941 136.079970 8.398177 0 0
14.104463 179.917370 -15.250826 32 1
-23.756008 148.590580 76.410767 6 1
-13.449510 215.382950 -6.107326 0 0
-43.056862 176.778590 -45.737301 18 1
3.859801 230.636080 26.296545 0 0
-29.743143 225.607530 7.285496 27 1
-57.048748 212.948360 34.497833 28 1
-105.372890 223.074770 -19.657669 25 1
-34.234333 213.853760 14.281383 0 0
5.785676 175.036940 -16.985895 0 0
-18.765810 236.791660 52.667717 0 0
18.489662 178.926570 -50.702812 32 1
-109.032760 203.062150 28.448387 26 1
-101.982230 242.971070 48.509140 11 1
-21.343176 202.794620 -21.249155 0 0
95.023331 173.038310 21.050591 8 1
50.180260 286.313900 87.040009 2 1
48.183239 183.670040 -25.223742 34 1
-55.722660 153.808580 47.849377 7 1
34.959679 228.377330 11.295169 23 1
-139.864240 229.000000 9.181891 11 1
-33.702377 214.200670 -26.264465 27 1
-20.850937 161.848830 4.408510 0 0
-45.364632 209.697070 -26.178846 27 1
-4.351491 194.041610 50.859467 0 0
41.451843 234.181370 -16.192646 23 1
-38.616257 146.421710 73.684578 6 1
-75.295357 152.184110 87.283119 5 1
-0.895683 223.232590 -1.654834 0 0
2.493945 130.684950 33.316589 0 0
-11.820121 41.782742 8.872333 0 0
-28.289036 153.840190 1.676999 0 0
15.560976 215.398830 -12.552328 35 1
-90.168045 216.704590 -2.740834 25 1
-17.880560 166.669360 -31.346598 0 0
-74.559891 177.180390 46.252033 7 1
-12.270313 73.903984 29.878344 0 0
-7.079507 38.461105 1.899494 0 0
63.400036 172.308880 39.588287 10 1
11.475832 227.165390 18.604029 0 0
-101.345210 223.671630 6.998995 25 1
4.177258 217.728360 -0.597485 0 0
-64.293510 176.666150 -34.418842 20 1
-99.461227 228.164790 16.907635 25 1
-156.267320 233.978960 7.821630 11 1
2.872341 106.480220 21.376404 0 0
-15.673872 154.355450 -30.927837 0 0
-107.684550 262.419950 31.304537 11 1
-71.648773 177.057910 -58.473347 19 1
31.083961 271.132720 88.522591 40 1
-25.599651 78.399567 -6.207323 0 0
-9.878051 280.002500 20.522511 0 0
-34.895695 211.844800 44.166122 0 0
-81.408516 281.114960 6.375998 13 1
-45.727604 177.096040 47.988148 7 1
72.217751 221.259160 10.770817 12 1
-86.052269 227.079670 5.129097 25 1
-18.778891 88.541245 0.643690 0 0
-35.815414 69.143402 -14.772777 0 0
-82.966766 213.158550 4.766086 28 1
-17.333412 98.781242 4.465234 0 0
58.268032 271.367710 87.877800 2 1
-37.860199 118.755020 87.886627 3 1
58.441582 277.104490 90.217598 2 1
-32.651485 153.179030 10.809847 0 0
-22.493662 182.253680 0.733522 0 0
57.841949 186.790480 -25.442869 34 1
-11.773370 158.281560 -42.383709 0 0
-82.853622 176.475620 -69.985062 19 1
-15.880788 262.983430 126.853760 39 1
-5.507730 207.552690 11.547982 0 0
12.848904 183.909290 11.860612 0 0
-32.711052 109.249700 100.558870 3 1
-9.606915 193.131710 -35.894119 31 1
-61.733501 156.411250 54.468220 7 1
-8.388722 268.878230 19.904926 0 0
-30.137606 73.752571 -4.216847 0 0
6.030550 163.057500 -28.664778 0 0
-6.973732 244.343950 -16.929247 22 1
-27.098997 157.329130 -4.255474 0 0
-22.416590 97.203262 -14.985251 0 0
-7.243630 118.943480 6.127806 0 0
-100.092740 241.793000 33.475517 11 1
-3.668966 239.658840 -15.854722 22 1
-48.000912 109.287540 91.308083 3 1
-70.299095 171.288740 45.198368 7 1
-4.269184 195.618030 -13.375499 0 0
57.619545 183.971800 13.116226 9 1
34.502628 215.657380 -21.147360 29 1
9.431617 132.047610 40.913479 24 1
37.948147 272.256960 130.390500 40 1
-53.686157 219.503940 -13.990580 27 1
23.102495 275.042600 117.750280 40 1
-17.676994 182.901370 11.785644 0 0
46.068783 277.019260 106.900500 40 1
-117.488360 255.162020 45.376076 11 1
-31.049545 73.690880 -10.343756 0 0
-101.675050 229.578700 -4.825791 25 1
-25.083227 140.295430 82.799339 6 1
-60.974571 254.247730 8.837061 13 1
-7.027431 141.499220 39.259342 0 0
2.274792 156.550290 1.673243 0 0
26.940800 192.819660 75.417244 0 0
5.061323 134.135620 -10.573032 0 0
4.923206 110.336710 102.780410 1 1
58.119751 206.918990 121.230060 36 1
-106.527040 236.586940 42.531300 11 1
2.505146 245.521130 -19.280739 22 1
-85.085243 175.624070 46.844341 7 1
1.081870 140.024280 -14.020075 0 0
-24.991909 106.051580 5.538118 0 0
46.958244 209.876040 100.746600 38 1
-3.477652 127.733410 41.159332 0 0
-16.695887 169.025680 33.019718 33 1
-16.648211 297.838780 23.620094 0 0
-91.420456 222.258830 -10.792192 25 1
-20.988258 171.328450 0.313645 0 0
21.664795 217.647610 -8.535267 35 1
-73.673836 171.567750 -50.625523 19 1
-102.720630 212.981030 20.287895 26 1
-74.664299 174.594500 -45.089264 19 1
-22.376663 256.280550 -60.916771 15 1
-21.866570 229.806410 4.300759 0 0
-33.307125 133.719220 9.744076 0 0
9.828688 160.895650 -25.049335 0 0
2.534337 235.923710 -9.671143 22 1
-7.822216 150.645320 42.983067 0 0
-30.098402 178.120960 -65.064827 18 1
-117.379570 233.313600 20.026371 11 1
51.163013 185.988080 -34.294239 34 1
16.005239 201.372380 113.273350 37 1
-92.012085 197.778350 37.530804 26 1
-27.461399 229.772710 -8.642503 27 1
-27.055374 117.640020 -3.696327 0 0
68.032913 211.460490 124.960750 36 1
46.786674 234.514910 -5.191359 23 1
-4.108336 163.886290 26.378397 33 1
-21.562164 256.277770 -48.408554 15 1
-12.354338 120.613760 8.611179 0 0
-55.379726 218.422670 32.514259 28 1
-11.725325 96.639587 -15.221055 0 0
-16.682653 203.606980 -25.698423 0 0
-7.363919 292.628630 27.021202 0 0
5.365069 244.386290 28.494473 0 0
-57.371582 180.276110 -14.770353 20 1
-56.345184 262.073760 -74.376617 14 1
-34.789444 251.912830 -62.187420 15 1
-35.510502 160.425630 -0.844992 0 0
-29.967535 203.054570 -3.259474 0 0
-48.154457 219.414120 -24.580978 27 1
-19.697514 168.986650 -4.835500 0 0
-83.113945 279.979800 16.018076 13 1
-105.845370 232.185090 6.202175 25 1
-84.689949 137.983840 95.789223 5 1
55.625343 174.844270 44.169380 10 1
51.221405 271.112610 86.851479 2 1
-73.739998 216.159350 10.903637 28 1
-15.893047 93.074501 16.537413 0 0
46.201267 241.425700 -18.988119 23 1
-12.502021 256.719120 -55.903831 15 1
6.981095 161.380580 -16.720432 0 0
-26.521376 189.970540 5.900861 0 0
-12.667246 46.769928 6.180668 0 0
-70.704651 178.365130 -66.410004 19 1
-77.601982 164.566850 67.344376 5 1
65.276840 236.084010 0.113125 12 1
-40.776344 151.085690 79.848434 6 1
-88.778305 206.708940 32.103958 26 1
-6.031821 184.427920 51.188747 0 0
-85.662140 153.183650 86.216080 5 1
57.026951 272.510530 135.857060 40 1
-4.847804 213.250670 -3.110302 0 0
-3.329582 162.759700 16.357794 33 1
-71.044807 147.327880 96.749008 5 1
-75.687149 261.910680 15.921626 13 1
-35.761063 180.656850 -71.500946 18 1
-13.882707 239.481310 52.535896 0 0
40.008255 212.707640 104.995440 37 1
23.796343 116.990650 99.378426 1 1
-5.368138 204.048830 4.518278 0 0
33.709492 274.451840 120.491420 40 1
-78.848450 149.323640 92.707428 5 1
-32.174427 254.058870 -49.204937 15 1
65.854607 226.967790 1.301903 12 1
-76.900650 99.936119 82.763527 4 1
28.549145 168.131150 -12.182720 32 1
33.962227 209.613540 107.465900 37 1
19.755783 184.606400 -11.387922 32 1
0.953198 199.329150 1.110919 0 0
27.546526 115.914740 52.907951 21 1
-57.418728 219.106800 26.977678 28 1
-46.375256 162.727290 62.535648 6 1
-78.163033 221.308990 10.838799 25 1
-58.458324 242.303450 -28.308184 16 1
15.531536 271.773770 106.606580 39 1
-49.784157 223.227630 2.080928 27 1
-11.950893 165.527130 47.082733 0 0
3.540195 144.953020 -6.233255 0 0
2.215793 206.714370 -25.315395 35 1
-88.311562 286.064360 20.835327 13 1
1.153785 192.968780 11.976878 0 0
-50.456413 152.994430 95.299400 5 1
-95.777901 251.302350 43.978088 11 1
27.713507 126.118810 64.783554 21 1
-19.103611 111.313560 -18.337307 0 0
-58.741676 212.869460 16.027325 28 1
-48.310863 175.286880 -44.780258 19 1
-16.587242 130.864960 33.544956 0 0
37.504520 208.176410 89.728477 0 0
-91.153923 221.941010 9.710829 25 1
-76.530281 228.301090 -9.466998 25 1
-31.060041 137.924850 6.918140 0 0
0.252330 230.517780 -13.115263 22 1
18.753454 220.029430 -4.047409 35 1
24.597120 206.274540 106.679110 37 1
3.419728 155.551930 -22.041380 0 0
-56.595558 266.036010 -84.407738 14 1
55.486702 189.382050 -32.304161 34 1
-79.315971 212.948530 29.267242 28 1
8.611483 103.966660 104.863770 1 1
-7.615362 157.447630 -37.397087 0 0
-84.818893 287.481450 -4.462252 13 1
41.917221 286.060420 92.991814 2 1
-13.318055 136.104750 6.280184 0 0
-58.623138 211.981950 -18.379333 27 1
53.691116 189.037960 -18.743690 34 1
-44.986069 216.477910 51.971058 28 1
-3.442667 178.812840 -91.668259 17 1
-5.549439 238.848430 50.214081 0 0
-32.409073 230.964570 24.648724 0 0
-3.863024 270.911350 115.785460 39 1
-39.694408 253.928120 -42.728527 15 1
-116.714460 237.777070 10.095676 11 1
-57.265549 160.776140 66.915565 5 1
-91.456451 250.467680 35.164059 11 1
-40.766453 144.736330 41.417843 0 0
-4.154561 132.794770 17.509245 0 0
-11.787725 166.496660 22.269539 33 1
73.479034 232.878050 -0.761675 12 1
-12.751033 89.203499 -16.336233 0 0
10.692717 275.759550 99.290146 39 1
-19.179266 131.151090 -25.540937 0 0
-49.724876 155.277050 66.650917 6 1
-8.197353 308.678440 19.000742 0 0
-15.533373 172.133160 17.838528 0 0
-85.947197 257.594020 14.950035 11 1
-59.204762 172.831740 -54.749676 19 1
-58.408424 178.180310 -56.408325 19 1
-10.982554 150.429170 -1.685036 0 0
-100.020240 195.784070 50.808262 26 1
-15.448035 226.170460 -3.114741 0 0
-44.876926 219.179610 4.403543 27 1
-69.796005 162.880160 53.321285 7 1
-21.009537 109.974520 17.500277 0 0
-93.193657 251.163310 3.269578 11 1
53.049042 202.429200 2.509942 29 1
29.779177 204.696810 114.854380 37 1
-91.674370 232.377760 -11.706512 25 1
11.736801 258.166930 50.568897 0 0
-42.917191 223.106990 31.362728 28 1
-34.288857 155.125980 57.605282 6 1
-79.311218 168.419830 46.349735 7 1
-12.928345 138.930360 12.721902 0 0
-129.686660 252.874920 2.162449 11 1
-10.723053 102.312800 0.920442 0 0
-78.715874 264.265500 10.218491 13 1
4.852808 225.443910 -2.081611 35 1
-1.713179 165.280330 11.213911 0 0
-34.554317 145.498810 -1.653612 0 0
-65.993591 102.477310 91.775261 4 1
-32.090481 224.615880 2.336416 27 1
-6.456798 147.859600 47.710155 0 0
-63.524040 162.596080 66.618141 5 1
-40.691856 220.262420 53.552952 0 0
-65.316116 207.741090 11.407526 28 1
-13.407311 315.174320 12.625818 0 0
-12.715446 121.564510 34.552464 0 0
-44.646584 202.702550 3.676297 0 0
-88.095726 268.828520 8.585199 13 1
-7.826611 219.239440 11.242063 0 0
-134.347180 258.618290 20.110895 11 1
-3.243777 158.983760 -19.464758 0 0
-36.419628 177.981920 -2.538262 0 0
-10.126840 64.949135 -14.370127 0 0
-33.208389 222.473340 -7.216345 27 1
12.722184 160.011510 -36.059708 0 0
-95.338058 228.233630 9.677172 25 1
-82.024063 265.717380 16.294853 13 1
-18.132465 136.396470 74.264526 6 1
77.146141 175.162540 15.700594 9 1
39.876286 272.477080 85.748375 40 1
-9.490383 169.411330 -45.317371 0 0
-36.127151 144.502530 84.770309 6 1
-14.532074 151.328960 71.834808 6 1
-66.757462 154.333450 90.079895 5 1
30.062815 121.743740 50.682922 21 1
55.396248 171.184050 62.625702 10 1
-52.978664 213.284210 -0.020243 27 1
-108.302420 221.083020 36.836304 25 1
-56.721920 188.561460 39.065117 7 1
-64.761093 224.645660 -8.218114 25 1
-109.625050 259.410190 6.038573 11 1
-68.983284 103.886050 98.578308 4 1
-5.686965 106.143390 31.265116 0 0
25.083891 241.868260 15.220330 23 1
75.231438 272.673340 88.822334 2 1
25.895329 128.181050 56.295319 21 1
11.486114 181.517590 -48.779381 32 1
-9.381782 81.956650 4.859177 0 0
-90.668762 201.595110 7.301439 28 1
-36.154610 105.165830 -14.831583 0 0
-0.733364 230.581940 16.897846 0 0
1.334260 156.457430 -31.594557 0 0
35.090786 267.073610 91.731873 40 1
-116.912990 186.720280 37.508911 26 1
-15.133460 164.226930 -23.357780 0 0
72.666656 210.254300 72.850304 38 1
-110.523550 232.398360 37.672482 11 1
38.995659 183.588750 -29.272839 34 1
-25.100172 225.024030 1.711024 27 1
-115.266170 214.883270 27.789917 25 1
60.940121 179.728610 12.326206 9 1
28.908251 186.395250 -30.425436 32 1
-62.720154 240.210130 -31.037560 16 1
7.577449 236.826720 -13.241437 22 1
-21.763424 112.001730 8.202408 0 0
53.405071 213.518550 118.088840 36 1
-47.077232 191.467580 8.776655 0 0
-86.061485 143.678330 95.699356 5 1
-29.520855 245.844190 -2.410855 0 0
-81.199013 276.537990 -2.450566 13 1
-12.864825 158.771970 65.063980 6 1
1.448184 139.324580 16.372143 0 0
-88.255280 278.195860 11.815334 13 1
-94.324684 212.289540 23.514776 26 1
-31.155655 184.126240 -57.261154 18 1
4.233891 155.657240 52.503365 0 0
-68.922691 207.327970 54.710461 28 1
-7.676164 97.032043 -11.081393 0 0
-14.039429 40.459545 0.734857 0 0
-99.415543 234.750900 10.795176 11 1
52.772091 182.007600 11.694577 9 1
-52.934273 213.219680 -30.196394 27 1
-70.729767 169.843260 67.288895 5 1
-44.264565 101.758630 98.220314 3 1
