37.339970 37.920452 -1.603828 6 1
35.130150 37.553337 -0.434138 6 1
-10.288087 21.751322 -4.312600 1 1
0.085918 50.540482 -1.820410 0 0
12.220400 52.692314 -31.825268 8 1
-7.750494 23.248955 -2.663670 1 1
2.358966 61.225101 -26.414213 8 1
-8.763695 59.493378 39.853382 4 1
1.407666 43.988819 0.662413 0 0
0.860204 28.198751 0.159638 0 0
-11.218748 68.065811 28.283079 4 1
27.005548 53.494274 15.630573 5 1
16.050129 55.776924 -32.024639 8 1
1.628878 52.685036 1.279314 0 0
32.105461 56.853767 -30.239477 7 1
-23.886301 57.085793 7.104255 3 1
12.099771 56.545216 21.212519 5 1
41.443989 40.578506 -37.419888 7 1
-11.906676 57.060024 16.285242 3 1
0.117572 41.630196 -42.971760 8 1
31.315985 53.436287 -18.774940 6 1
29.946329 50.066284 1.888348 6 1
29.129955 56.109348 -41.387901 7 1
2.084559 46.161594 -39.758564 8 1
7.212350 51.628147 -33.285194 8 1
32.066872 51.254440 -50.254990 7 1
7.578758 55.615723 -29.256199 8 1
0.505502 22.085257 9.774943 2 1
-13.264886 66.525757 33.518276 4 1
17.381371 61.255173 -19.570923 0 0
35.589561 55.355068 -30.946215 7 1
1.100192 57.872433 34.694340 4 1
21.416491 57.095634 12.143447 5 1
3.599459 22.254499 5.552647 2 1
40.076160 39.320023 -10.648540 6 1
2.830328 47.808865 -36.941769 8 1
-11.476327 64.460922 32.357998 4 1
34.450188 52.964836 -17.376183 6 1
11.291141 19.224205 6.280517 2 1
7.034638 57.079155 23.713341 5 1
26.337978 51.067852 -10.987544 6 1
-7.336522 63.644173 28.328100 4 1
11.592086 54.738564 22.426414 5 1
-1.249527 61.461254 3.461027 0 0
-33.174976 49.242954 19.223183 3 1
-15.347535 22.685400 4.959410 1 1
6.828719 62.645073 29.830723 4 1
-2.174478 52.763832 0.458575 0 0
-11.793438 20.061047 -13.584386 1 1
24.373158 50.588940 21.208021 5 1
-0.006040 59.384598 35.583286 4 1
-17.711996 55.244949 10.902112 3 1
11.859716 54.518002 -33.897396 8 1
40.109829 54.936523 -26.064049 7 1
36.976490 49.555752 -33.458210 7 1
-2.173352 51.217693 -35.058891 8 1
15.458250 15.312900 9.813857 2 1
18.567692 57.807838 11.650518 5 1
-1.417260 4.392680 2.879776 0 0
3.539514 38.082703 -4.943475 0 0
-11.432554 65.059601 5.423951 3 1
8.332631 47.639820 -36.935585 8 1
-3.631528 60.089241 36.609142 4 1
-9.690772 61.838058 39.855194 4 1
4.478994 52.089592 -35.783279 8 1
-4.990049 61.342075 10.996028 3 1
-1.146410 30.584686 -0.958372 0 0
-9.608664 64.588455 33.612064 4 1
11.807698 62.539284 9.134460 5 1
-15.830162 57.854874 11.814780 3 1
-10.524694 64.541641 35.434635 4 1
-27.349361 52.347950 15.890672 3 1
10.749615 49.860767 -12.311878 0 0
33.461079 46.004974 -13.808304 6 1
27.085220 51.919064 0.895630 6 1
24.419807 62.504719 -34.860088 7 1
36.683815 52.797256 -39.320808 7 1
-2.262422 59.330563 31.436090 4 1
33.401257 40.388836 0.719949 6 1
12.463173 51.735676 -36.555485 8 1
31.475002 53.442520 -33.787384 7 1
29.403013 56.657463 -44.655426 7 1
-29.468784 50.608650 13.468914 3 1
6.052871 18.237383 15.015211 2 1
-1.589720 1.319800 3.350505 0 0
-2.376963 12.211184 0.628427 0 0
12.073344 58.947010 11.496378 5 1
1.676452 63.511566 24.270351 4 1
27.185946 50.659370 -12.805141 6 1
-5.486462 57.289383 44.107513 4 1
-0.747918 49.250851 -36.185738 8 1
0.249919 20.508995 1.560499 0 0
-8.947286 58.615417 13.771201 3 1
34.646927 52.197563 -31.664587 7 1
-16.242256 21.328337 -5.829791 1 1
-18.545761 59.689560 5.166425 3 1
-26.448305 17.502560 4.038011 1 1
-1.613650 62.555740 5.059779 0 0
2.985445 19.061005 16.093945 2 1
34.396549 49.511814 -8.755703 6 1
39.514832 40.558033 -44.931789 7 1
-18.418396 21.011677 -7.355898 1 1
43.291222 52.842350 -28.720329 7 1
23.681429 56.343220 -5.264871 6 1
11.958676 55.913849 -31.910408 8 1
0.442890 58.005032 1.651288 0 0
-4.640192 58.226040 3.550176 0 0
17.159605 52.456856 16.630693 5 1
27.999586 59.013058 -32.449883 7 1
18.645994 53.741955 15.087007 5 1
-15.107735 21.068523 -8.631101 1 1
-18.779350 57.805096 8.583908 3 1
16.423113 13.237938 20.301430 2 1
-2.440503 54.042648 1.934885 0 0
35.301613 51.195236 -14.062181 6 1
-1.206735 60.380135 8.769718 5 1
35.879429 46.898235 -41.656727 7 1
-0.270315 57.112148 -32.336693 8 1
-5.275800 61.044544 30.747637 4 1
4.452028 19.462002 18.026215 2 1
33.365505 57.691360 -26.728170 7 1
3.473511 42.720997 -41.004406 8 1
-14.115471 56.855183 10.881532 3 1
-2.640306 58.721729 -30.324736 8 1
16.446535 58.448730 13.578237 5 1
20.435322 48.029686 24.401163 5 1
-29.125378 51.109795 19.879639 3 1
24.831093 56.896999 -1.714189 6 1
4.453244 61.652454 -25.481802 8 1
37.744682 55.640190 -28.519938 7 1
17.229574 50.794868 22.393150 5 1
-25.592445 20.055967 -6.147826 1 1
39.589012 37.040367 -8.252917 6 1
9.066676 45.974438 -40.095196 8 1
0.816599 57.013248 36.591076 4 1
-0.411564 65.876709 16.035536 4 1
32.214443 42.065994 -6.738826 6 1
-5.170149 62.173016 6.717706 0 0
7.913938 57.200855 18.815849 5 1
22.567108 60.457699 -10.700539 6 1
32.298428 46.654751 1.432097 6 1
44.729790 48.769196 -31.030043 7 1
33.138031 55.613277 -35.911682 7 1
29.615070 57.745155 -26.787251 7 1
14.107388 59.179634 -24.479813 8 1
-2.875533 56.460831 -33.197380 8 1
12.817501 58.466469 14.907737 5 1
0.597480 64.395653 -26.353739 8 1
-21.289377 19.282108 -12.605948 1 1
7.814017 63.580921 -23.677402 8 1
-28.011353 15.789720 2.151777 1 1
9.421847 64.131714 9.257394 5 1
24.315828 52.110233 15.926963 5 1
39.595844 49.963604 -39.224167 7 1
22.783272 48.238525 21.662836 5 1
1.056735 54.919323 3.912974 0 0
21.262058 62.008728 -11.870456 6 1
-2.560749 60.744671 -28.967175 8 1
-8.949266 21.318901 -12.037085 1 1
10.006759 52.457184 -36.426170 8 1
9.462862 56.598183 -28.011290 8 1
40.242718 41.352680 -39.245361 7 1
35.293159 47.975101 -8.019291 6 1
-1.166773 47.056561 -0.645138 0 0
-13.878828 22.573195 -0.870783 1 1
-22.873787 52.019779 22.357756 3 1
2.835386 40.687344 -5.449281 0 0
7.650035 16.551531 23.709087 2 1
-15.530824 22.034580 2.185238 1 1
43.666325 48.205814 -33.425804 7 1
18.231850 50.100582 26.642988 5 1
38.129307 47.844379 -16.449892 6 1
12.154347 16.236044 14.544944 2 1
15.002816 63.428230 9.437127 5 1
-4.332146 55.341793 42.781784 4 1
25.187796 54.692299 -2.286018 6 1
-25.500000 54.074520 8.548763 3 1
16.937515 13.476619 11.031902 2 1
32.774601 53.854523 -44.461807 7 1
23.394123 57.337269 -18.856417 6 1
37.388130 50.854401 -30.664660 7 1
1.887517 50.309502 -0.437842 0 0
14.687633 57.636570 12.203260 5 1
21.766401 52.974331 19.386660 5 1
-8.792547 23.435453 2.244515 1 1
40.471165 52.268135 -34.017349 7 1
41.748993 49.317886 -36.147228 7 1
-1.509245 62.471237 11.678039 5 1
-1.888957 13.345943 2.455506 0 0
-21.885328 54.404865 16.092499 3 1
-16.774035 62.977314 5.138651 3 1
7.405324 45.707794 -38.561928 8 1
40.445248 52.305042 -28.565109 7 1
40.907547 41.582062 -45.824600 7 1
21.215944 55.520409 13.316962 5 1
25.961922 59.929066 -19.146284 6 1
33.539421 42.071571 -10.220095 6 1
17.421677 56.672153 12.656610 5 1
-15.162785 60.160809 5.921610 3 1
12.865587 48.626339 -37.031715 8 1
34.783424 38.834099 -5.977326 6 1
24.346270 58.276745 11.769108 5 1
-12.808283 65.109947 34.908993 4 1
-10.157770 60.100460 11.308624 3 1
33.219624 47.271282 -2.274047 6 1
-23.805685 57.926292 4.977375 3 1
0.913507 56.253876 1.087072 0 0
7.994474 58.867340 -28.359531 8 1
31.697874 52.609428 -40.018719 7 1
0.963704 61.193333 -29.316277 8 1
-19.804852 18.230787 -13.852942 1 1
-0.997494 35.822277 -0.243684 0 0
10.682899 58.213581 -26.156076 8 1
-4.298935 63.254700 24.139742 4 1
23.688581 58.481098 -3.786957 6 1
33.903965 49.791016 -42.757763 7 1
38.211964 44.340698 -9.798869 6 1
0.482293 47.539696 -2.156597 0 0
5.961836 57.366581 38.220478 4 1
38.699512 39.587597 -7.015411 6 1
15.965303 51.841015 19.581024 5 1
35.469193 48.891457 -51.912052 7 1
16.914272 55.534981 18.602715 5 1
-4.316496 63.878590 4.040775 0 0
7.571249 61.979832 11.026887 5 1
-16.585072 58.046936 10.080637 3 1
9.972197 55.366013 25.424608 5 1
-14.112574 60.099503 7.831287 3 1
-23.739756 20.308496 -11.084860 1 1
25.184757 48.620411 23.986553 5 1
3.421201 58.477699 37.146378 4 1
42.973484 44.033882 -33.363194 7 1
-0.171191 57.792881 39.584198 4 1
9.156752 17.525389 15.691574 2 1
28.338779 47.738472 -2.777658 6 1
-19.721395 52.840782 17.192623 3 1
18.952162 50.855877 24.792091 5 1
20.590504 60.742554 -20.272575 0 0
22.481281 54.366070 14.279077 5 1
22.738976 56.695789 -13.100634 6 1
10.453937 57.499256 20.671181 5 1
36.621651 45.251095 -14.876211 6 1
-5.021927 62.595551 0.708754 0 0
35.762238 55.160652 -27.281717 7 1
2.730172 58.577034 33.405369 4 1
36.598034 49.480057 -13.397704 6 1
4.761971 54.838184 -33.254372 8 1
-16.278706 20.700197 -2.845589 1 1
25.942940 51.133583 -7.485300 6 1
13.600178 56.331871 20.074903 5 1
-2.814574 10.215746 1.618561 0 0
19.105566 60.708126 -22.568569 8 1
15.196691 54.861511 14.672458 5 1
41.630871 39.388386 -38.929657 7 1
34.708618 50.081928 -10.535781 6 1
37.718754 40.452179 -11.930237 6 1
37.630043 35.675564 -2.364047 6 1
21.053322 61.505421 -17.611883 6 1
24.445673 58.376053 -7.036280 6 1
7.292160 47.201160 -9.371873 0 0
33.060280 50.427654 -7.652929 6 1
11.781713 51.777119 -13.943537 0 0
36.147030 41.184105 -1.005663 6 1
-4.330388 64.678589 6.190373 0 0
-17.540785 57.166122 12.132888 3 1
23.831095 61.098030 -29.023952 7 1
10.517016 58.144554 18.629538 5 1
-1.639775 56.866096 37.024815 4 1
14.708551 15.174467 15.973676 2 1
22.157013 58.537964 -8.463611 6 1
-3.625956 20.702105 -0.540954 1 1
-2.086248 18.717264 -0.475137 0 0
2.896764 65.936546 20.451426 4 1
0.160166 55.670586 -0.648311 0 0
35.029694 49.897934 -17.358248 6 1
24.821154 58.249096 -10.275762 6 1
37.362377 43.006859 -6.288228 6 1
38.311466 41.859222 -7.817563 6 1
8.665562 54.560043 -33.583969 8 1
-27.361813 52.281246 10.625935 3 1
-0.698194 9.193109 1.886462 0 0
10.779172 49.374619 -35.187893 8 1
0.016837 44.461414 1.809185 0 0
1.989057 59.305908 -27.418112 8 1
-10.710390 60.803768 9.052319 3 1
-20.506390 58.247059 5.615867 3 1
26.296204 51.146225 -4.030936 6 1
4.901566 60.205193 31.815987 4 1
15.782272 59.660210 12.299053 5 1
-3.679400 56.270458 -0.288006 0 0
1.069102 50.622490 -36.688110 8 1
5.166711 58.745686 14.451968 5 1
35.600319 39.252090 -9.604288 6 1
4.650270 59.294903 35.400543 4 1
-20.288597 19.859524 -10.731814 1 1
-5.384138 59.239979 2.039894 0 0
24.624897 46.765976 24.884314 5 1
15.448533 55.135414 20.713743 5 1
20.432426 54.044121 18.673462 5 1
4.463243 46.834663 -37.647873 8 1
27.523996 58.120384 -38.959320 7 1
32.465687 52.505192 -10.261126 6 1
19.723795 50.966640 17.434464 5 1
-6.104400 52.342529 -35.150387 8 1
34.845158 50.037464 -50.121632 7 1
-11.589418 22.654272 -2.899053 1 1
27.797710 47.352570 24.492212 5 1
40.679497 48.118240 -39.266975 7 1
33.998829 52.653900 -13.650241 6 1
-0.915022 54.708969 6.831830 0 0
25.592607 55.580368 -0.480130 6 1
-26.793419 55.055191 9.425798 3 1
-26.201780 50.142616 17.812426 3 1
-16.960728 56.554996 19.391207 3 1
-1.782662 54.290379 44.659142 4 1
41.392090 42.251698 -40.491291 7 1
-31.176189 50.755775 16.344654 3 1
39.585056 40.947750 -43.008419 7 1
-2.285490 58.001991 34.568001 4 1
-20.941580 20.860340 4.865045 1 1
13.064431 63.880955 9.248214 5 1
32.150204 49.262241 -3.441123 6 1
25.761675 61.016979 -39.880604 7 1
2.487199 37.976429 -3.262786 0 0
2.704071 49.704712 -35.385117 8 1
-6.254609 65.011879 26.763597 4 1
-3.497828 59.625397 -0.825773 0 0
20.833040 52.458069 15.754893 5 1
-26.254515 55.941616 6.128101 3 1
-23.758556 19.778173 -4.994206 1 1
37.156876 45.750439 -39.093132 7 1
2.150117 35.746723 -2.709653 0 0
-2.431076 15.599709 0.732854 0 0
27.575409 53.010204 -16.063869 6 1
38.152710 57.547131 -26.517656 7 1
34.382217 53.850681 -41.170277 7 1
36.497662 46.861855 -9.175914 6 1
-16.064764 22.757654 6.697404 1 1
-4.083918 58.611893 34.734501 4 1
-9.966081 62.230755 34.920162 4 1
28.617653 55.986160 -19.921921 6 1
-8.499166 62.926460 30.607540 4 1
-28.127645 20.885258 -8.563326 1 1
-5.719625 58.068031 37.830353 4 1
-10.805890 62.091194 38.027699 4 1
1.379406 37.182713 -0.148446 0 0
-21.029573 61.046562 3.671185 3 1
-19.943352 53.520527 12.177683 3 1
27.509659 48.395355 22.466738 5 1
10.086084 17.017609 13.120411 2 1
30.651030 46.753853 -12.792105 6 1
-0.433991 55.086578 42.242908 4 1
-13.205561 21.208138 -3.491810 1 1
28.260506 57.061176 -42.683586 7 1
-13.835335 65.522881 36.518906 4 1
13.767221 64.606102 -21.590988 8 1
0.569252 29.926941 0.724169 0 0
28.205898 56.274586 -11.513602 6 1
18.783266 52.871471 21.603010 5 1
23.666288 46.848820 26.494289 5 1
-18.404108 56.056225 9.025548 3 1
-13.717070 23.519203 5.050779 1 1
14.055876 54.561073 -30.013172 8 1
28.577652 56.009644 -49.338039 7 1
-5.985917 60.981071 9.489145 3 1
-27.425707 53.341370 13.475332 3 1
-3.667484 61.965141 1.796412 0 0
0.595987 40.800087 -1.571818 0 0
40.688114 42.708157 -47.374092 7 1
-0.306976 62.728291 -27.188532 8 1
-4.499069 61.369461 29.111923 4 1
-7.951126 67.650665 23.456659 4 1
24.738346 60.876308 -25.654604 7 1
-1.012621 60.279659 33.702869 4 1
-12.403237 58.188293 9.733819 3 1
3.538332 20.892702 10.689030 2 1
10.205009 56.183510 -31.300512 8 1
-3.938269 56.234356 45.083057 4 1
17.591684 61.341564 10.717196 5 1
36.767979 44.681850 -6.670071 6 1
-21.984770 54.148777 19.696424 3 1
0.683323 18.153469 18.386517 2 1
29.416023 57.618023 -35.911472 7 1
-6.179453 59.560463 40.239922 4 1
38.242531 52.357880 -37.537422 7 1
39.539516 45.157501 -45.980404 7 1
39.387112 44.519234 -13.029108 6 1
6.975820 43.816570 -41.142933 8 1
13.653761 56.906082 18.137970 5 1
32.164875 52.061020 -37.166908 7 1
-26.947857 17.908777 -5.107327 1 1
11.564631 20.643688 2.597019 2 1
24.948244 61.874683 -37.957741 7 1
17.123020 58.134640 -26.701256 8 1
-10.967331 59.389782 15.233149 3 1
4.895053 41.458855 -5.541984 0 0
22.349178 63.226921 -25.484373 7 1
15.798391 13.030068 18.451071 2 1
34.408127 40.424313 -8.721180 6 1
-0.614451 53.019653 -35.070026 8 1
8.824000 56.630638 20.547714 5 1
-1.790427 61.228027 27.333860 4 1
-7.846392 60.878365 12.750123 3 1
-24.495668 52.223103 23.654039 3 1
-15.305773 55.002224 17.079706 3 1
-30.807539 48.719440 18.131100 3 1
39.217377 44.667282 -49.376148 7 1
2.336725 55.955406 -32.414375 8 1
-1.607137 26.741274 -0.200828 0 0
11.749207 53.319958 -13.000543 0 0
10.368250 14.208908 23.151999 2 1
1.834210 21.881702 5.784586 2 1
42.285469 37.147186 -41.381706 7 1
-8.544661 58.922455 17.763247 3 1
-8.755264 57.579620 46.188305 4 1
25.469868 58.485821 -13.757664 6 1
15.295164 53.259766 16.390568 5 1
-6.098759 64.640083 5.236711 0 0
23.233593 60.294434 -6.085503 6 1
-26.859819 57.673870 4.761268 3 1
-12.064808 61.223610 7.633699 3 1
38.063377 48.072517 -33.892078 7 1
11.078447 58.799519 15.242603 5 1
-12.671085 67.794884 30.850264 4 1
-9.366332 61.713318 18.112034 3 1
18.324192 61.174313 -25.335873 8 1
34.248955 52.968697 -43.852161 7 1
-27.657026 51.006584 22.503225 3 1
16.276039 52.151291 24.960953 5 1
-0.618925 59.932259 30.486486 4 1
28.589966 56.850983 -31.000305 7 1
22.953733 56.354862 -11.096689 6 1
-6.897339 54.566242 49.372925 4 1
10.945442 57.615845 -29.162115 8 1
-25.895060 21.021345 -10.997562 1 1
-21.829762 57.129139 8.337782 3 1
-4.245188 53.960690 45.964428 4 1
-5.038100 48.251877 -38.559147 8 1
32.979042 44.784805 2.775638 6 1
22.230217 47.474365 23.909847 5 1
-1.353737 19.280426 15.629489 2 1
37.578316 44.283894 -43.997864 7 1
4.676772 65.243752 23.609833 4 1
14.569488 18.104982 5.110249 2 1
-24.030094 52.791012 10.811039 3 1
42.980076 46.412350 -35.797844 7 1
-16.985538 58.752201 7.970800 3 1
3.812419 65.245094 -25.046120 8 1
-4.475179 58.666233 -31.044178 8 1
-0.802855 47.959099 2.821247 0 0
-5.588258 23.012495 -6.678136 1 1
40.561470 42.520359 -44.201344 7 1
33.328960 41.804459 3.366525 6 1
21.150265 52.049873 21.141174 5 1
33.545483 44.510548 -12.840420 6 1
-3.941392 63.176903 28.137867 4 1
-4.851143 67.566772 18.585304 4 1
-0.201209 54.680092 46.649246 4 1
26.714144 58.894814 -45.189236 7 1
-8.504564 64.355385 32.041382 4 1
14.694799 49.164394 -36.711811 8 1
44.695076 50.479561 -29.983686 7 1
-5.643281 66.022148 23.957024 4 1
-5.561550 62.850716 31.521458 4 1
-2.053679 62.944489 -27.756933 8 1
22.830631 60.373943 -15.164863 6 1
3.435164 20.695045 7.987219 2 1
12.088632 54.063812 16.672276 5 1
27.434595 55.738384 -8.053151 6 1
31.926929 42.988758 -8.383823 6 1
22.583036 63.450146 -29.091154 7 1
-13.650526 64.863129 4.847455 3 1
43.584579 45.026726 -32.024773 7 1
0.985674 21.685860 8.007801 2 1
26.842121 58.880287 -37.499317 7 1
-1.247383 51.550591 3.869680 0 0
34.893436 47.461700 -6.370582 6 1
30.157234 53.327053 -8.064057 6 1
-6.094396 56.587898 45.735203 4 1
40.609966 54.990688 -27.786785 7 1
29.936373 55.274437 -32.282963 7 1
32.586430 53.065559 -47.017025 7 1
26.174948 58.966263 -16.437906 6 1
35.622379 51.304253 -16.328394 6 1
7.479813 61.789719 -25.946459 8 1
-10.840810 59.117462 19.729239 3 1
2.376497 61.843658 -28.287834 8 1
39.753452 48.712772 -31.573061 7 1
7.918000 19.764671 7.407063 2 1
0.581540 18.325846 2.125745 0 0
21.876518 58.605965 -18.712313 6 1
17.358339 57.151619 -28.250090 8 1
-7.252415 56.019100 47.586132 4 1
-3.826090 65.520340 21.662909 4 1
23.075550 59.971252 -7.869478 6 1
-7.238584 55.483162 -33.981880 8 1
7.144670 64.063866 9.351720 5 1
-7.105961 56.422550 44.115635 4 1
38.417625 45.400936 -11.833867 6 1
13.860527 59.909683 12.459312 5 1
1.189122 54.858040 2.148442 0 0
7.489533 17.209545 20.143696 2 1
32.147270 56.490200 -32.462261 7 1
39.906666 39.688843 -47.378807 7 1
35.111824 54.032162 -28.489201 7 1
-20.167820 20.117033 -7.228696 1 1
0.839352 61.640961 26.926727 4 1
23.916248 53.610191 17.142052 5 1
0.324791 19.821012 15.446425 2 1
31.777868 55.121056 -42.505161 7 1
37.072491 36.380062 -5.517615 6 1
5.806653 58.456394 16.369461 5 1
32.033169 59.248543 -25.143757 7 1
-2.097429 65.195885 19.358887 4 1
-2.691365 61.586422 31.193195 4 1
28.895582 48.840702 2.635633 6 1
7.583959 59.525150 16.194868 5 1
40.684425 41.990147 -50.195614 7 1
-15.722451 56.302479 21.242361 3 1
4.533259 59.822533 20.672722 5 1
-6.662544 63.670830 7.869427 3 1
3.090561 62.546654 27.179432 4 1
10.192545 61.316074 -23.811588 8 1
-6.209289 22.913647 0.054591 1 1
-18.850269 21.306568 5.674014 1 1
31.195057 47.752140 2.868227 6 1
2.760453 60.714478 12.142255 5 1
21.758734 58.958603 -10.197928 6 1
24.877415 55.037254 -16.321873 6 1
-13.425143 62.598465 5.969320 3 1
41.029278 46.951130 -32.321606 7 1
5.289256 56.934460 -30.834642 8 1
30.588333 48.271183 -14.366014 6 1
6.097884 60.902058 32.880016 4 1
6.739923 54.574699 -30.378473 8 1
-15.099686 57.436192 9.057807 3 1
3.115052 61.239746 18.425325 5 1
12.080462 14.582801 17.274975 2 1
0.600340 35.747784 0.462415 0 0
1.026809 20.871809 4.169334 2 1
21.664728 61.240189 -13.445228 6 1
38.529255 42.669491 -45.620922 7 1
31.405384 54.291740 -46.361549 7 1
30.154270 54.642311 -39.849560 7 1
-11.685990 57.057446 13.193762 3 1
12.256761 13.561072 19.971279 2 1
3.530305 54.835506 -30.716188 8 1
-1.189607 43.139893 -41.281887 8 1
-5.797177 67.707169 21.559124 4 1
-30.287645 52.610062 11.837641 3 1
18.272221 58.441097 13.253118 5 1
7.369828 60.598915 34.669178 4 1
27.956200 58.345470 -47.225246 7 1
12.755482 18.434748 7.241114 2 1
-3.632065 56.834236 3.296451 0 0
10.928159 60.659679 12.069679 5 1
26.019472 50.203579 20.814234 5 1
42.867279 43.722065 -36.963451 7 1
36.795731 49.353592 -46.688713 7 1
-3.965760 63.167179 9.843979 3 1
1.740334 56.120430 41.416103 4 1
2.375792 63.247860 10.471551 5 1
6.457553 58.256447 13.408849 5 1
14.917795 62.339474 -22.440037 8 1
7.221261 62.359116 32.031250 4 1
2.490090 58.508312 -30.647917 8 1
-24.896500 52.768166 20.174023 3 1
24.146784 62.463661 -32.074070 7 1
39.107533 54.768547 -29.176071 7 1
6.201653 62.952538 10.332200 5 1
1.836393 45.150200 -0.542839 0 0
-15.301954 18.894522 -15.586724 1 1
-8.836280 21.729382 -2.252154 1 1
0.095414 20.847830 13.053452 2 1
20.477249 50.613674 24.019590 5 1
21.181614 58.926304 -17.164501 6 1
26.390459 51.754627 -2.366812 6 1
37.336636 52.162403 -29.120750 7 1
3.806336 56.695770 -29.050753 8 1
-10.689635 61.154373 19.415403 3 1
26.710014 57.128704 -11.102739 6 1
38.642590 38.229748 -10.765983 6 1
35.232300 59.424129 -25.048935 7 1
-18.206902 55.979214 23.484291 3 1
-25.164900 20.213919 -7.889807 1 1
37.120766 45.376781 -8.515972 6 1
-1.982259 63.603237 24.120619 4 1
9.342437 20.884052 5.327950 2 1
29.048597 47.727421 0.659573 6 1
-13.188392 59.247776 20.749659 3 1
40.229565 45.430897 -41.447075 7 1
2.127333 46.541985 -38.038918 8 1
38.469864 45.305080 -36.114182 7 1
40.212898 41.454609 -13.260821 6 1
-1.651369 58.013622 -0.700949 0 0
34.524281 38.793236 0.771083 6 1
-17.860682 56.201378 17.143755 3 1
10.275218 45.001186 -39.355438 8 1
-18.845751 55.560272 20.436913 3 1
16.864368 16.072662 6.554333 2 1
-2.784550 60.525597 28.795258 4 1
32.245907 54.621891 -29.841280 7 1
-5.154069 60.829506 36.328846 4 1
2.281046 60.924728 15.605283 5 1
42.614964 51.210464 -32.461994 7 1
-2.648722 1.810824 1.106714 0 0
10.796357 55.034611 19.537962 5 1
32.174633 56.323456 -27.033871 7 1
32.048203 50.480736 -16.772251 6 1
-10.072373 62.512058 5.904119 3 1
-5.161255 61.321487 5.115124 0 0
0.598750 64.392830 21.533615 4 1
5.912048 19.660000 9.182613 2 1
14.666074 57.579891 -29.721809 8 1
11.888890 53.135090 25.479151 5 1
3.601613 63.971161 -26.203890 8 1
29.465921 57.990616 -32.565922 7 1
44.384914 43.813957 -34.306263 7 1
7.800226 45.665722 -8.488517 0 0
7.255436 57.292957 16.821239 5 1
29.015198 57.450817 -39.464447 7 1
16.064610 51.042500 -35.281342 8 1
4.638008 60.441177 11.291401 5 1
27.690479 57.591671 -35.893688 7 1
17.971603 15.266635 15.987874 2 1
-18.167164 21.535269 7.265073 1 1
40.983101 53.234535 -30.785635 7 1
-4.399598 59.943195 31.764229 4 1
-5.197389 51.955647 50.804619 4 1
28.300804 49.361763 -12.865141 6 1
35.730534 46.749306 -43.362549 7 1
38.789227 56.138145 -25.691151 7 1
29.322815 61.009293 -25.225618 7 1
11.957249 63.028744 -22.982599 8 1
21.394249 62.046242 -8.414819 6 1
-17.566826 53.821190 19.401226 3 1
34.364101 43.624989 0.445619 6 1
1.557632 34.221493 -1.928140 0 0
32.329399 48.733784 -15.430614 6 1
16.562132 14.332604 13.156331 2 1
-8.643078 60.855736 10.796243 3 1
-28.188530 54.234085 10.195708 3 1
31.270014 56.194286 -38.259895 7 1
13.648026 53.361721 -31.180012 8 1
14.712369 57.909111 15.115318 5 1
42.090553 37.294003 -43.782608 7 1
5.803858 62.296993 -26.326736 8 1
28.398211 57.236740 -14.437870 6 1
-24.894150 51.093987 21.402439 3 1
8.614540 50.093636 -38.092075 8 1
-17.697357 53.636555 14.265896 3 1
32.224213 41.849155 -0.832319 6 1
35.370308 51.593960 -45.313797 7 1
-3.173953 66.167702 16.915337 4 1
7.114878 58.012173 -29.539865 8 1
-6.212820 50.771023 -36.314251 8 1
-1.610301 53.067669 -33.649998 8 1
7.755142 18.569195 15.159532 2 1
22.786491 60.437080 -20.475290 6 1
-22.787506 53.861130 17.662210 3 1
5.352396 19.880096 12.309445 2 1
-23.211550 51.475018 18.833862 3 1
20.062805 62.889999 -14.603735 6 1
-3.369565 61.064316 7.636843 0 0
-20.258099 21.475107 2.709468 1 1
11.843542 61.040756 9.997392 5 1
25.675777 57.254395 -3.198152 6 1
0.175701 57.664062 8.228582 0 0
11.932061 49.924347 -37.991837 8 1
12.217737 54.972359 15.248532 5 1
31.417299 45.031418 -11.082767 6 1
28.334286 47.224319 -6.271801 6 1
-21.701416 52.127335 15.021961 3 1
38.220539 46.337181 -48.519867 7 1
-12.307048 57.153591 18.536837 3 1
38.828247 46.793579 -15.081852 6 1
-6.405824 21.252176 -1.139604 1 1
38.943871 42.239422 -42.046810 7 1
-2.061982 56.836720 -31.434334 8 1
-17.956335 20.857172 0.006220 1 1
30.992674 55.268936 -13.329636 6 1
-32.670753 48.511780 17.735760 3 1
-0.265405 53.232281 6.330227 0 0
-19.847939 53.474327 21.837271 3 1
-8.415576 22.755608 0.745341 1 1
-1.045624 21.595577 10.507141 2 1
34.843136 56.903412 -27.852943 7 1
19.011053 60.637547 -19.117592 0 0
-9.271339 22.807039 -5.148824 1 1
0.074830 58.450214 -31.369362 8 1
13.593614 47.187107 -38.359592 8 1
-5.121374 61.889874 33.495064 4 1
43.653419 47.662415 -30.311077 7 1
5.278418 61.733719 29.607483 4 1
30.796862 55.655411 -30.043482 7 1
5.893220 21.644793 5.820594 2 1
35.205647 48.501026 -16.434275 6 1
-8.895925 61.068367 16.467415 3 1
41.716064 39.749367 -42.668198 7 1
-1.804493 54.693920 4.711447 0 0
22.682558 60.938587 -18.635828 6 1
-18.545782 19.599173 -10.180644 1 1
-4.269087 59.412876 4.922756 0 0
-0.350703 11.341187 1.034862 0 0
-14.114154 24.609533 7.279623 1 1
28.568438 55.054527 -9.113691 6 1
-16.561497 23.454947 4.034769 1 1
-27.115669 16.426113 -2.474766 1 1
5.117621 58.690868 18.992483 5 1
26.381395 51.739323 16.299597 5 1
27.777191 55.014938 -6.396050 6 1
1.365123 55.474041 44.659855 4 1
35.010647 46.122952 -14.713264 6 1
36.846161 57.126118 -25.552412 7 1
25.832687 59.448830 -28.081987 7 1
6.492595 44.567394 -39.562111 8 1
36.039303 49.084435 -11.477355 6 1
13.303009 53.837090 21.466698 5 1
0.405175 60.359112 32.780689 4 1
5.320273 53.348251 -34.662079 8 1
-2.454957 56.166546 44.307873 4 1
42.539135 42.461823 -38.128330 7 1
35.285675 56.331440 -26.139133 7 1
-6.265625 58.569572 42.457745 4 1
12.704429 65.279755 8.392811 5 1
19.005295 48.662655 27.107883 5 1
28.211641 46.894627 22.936438 5 1
11.510422 60.038826 -24.222599 8 1
-5.736637 63.925903 28.729071 4 1
-12.495880 58.878048 12.896543 3 1
-15.439371 22.325150 0.202040 1 1
14.389256 19.463953 4.152268 2 1
-9.574308 22.478899 -7.905322 1 1
-28.153595 20.506104 -6.920924 1 1
33.535797 50.829388 -50.931034 7 1
25.738731 58.709419 -30.755323 7 1
-29.135084 18.128235 -5.784676 1 1
19.687407 61.169411 -15.840338 6 1
3.762678 52.768063 -32.602375 8 1
43.841751 52.153458 -27.231041 7 1
36.091599 51.230316 -31.647697 7 1
-17.532393 20.290354 -6.138030 1 1
-18.098970 53.477566 17.297169 3 1
-28.270582 54.132221 7.586672 3 1
8.977722 48.162140 -9.848449 0 0
4.574336 59.649765 -29.229589 8 1
16.984674 54.120594 -31.853767 8 1
6.671005 18.981550 16.372967 2 1
27.083218 57.205151 -32.959866 7 1
-24.517439 53.900021 14.663700 3 1
-4.988865 63.210873 25.695993 4 1
1.455768 19.417694 16.649334 2 1
15.042621 59.152496 -27.522169 8 1
30.857452 56.510307 -19.236198 6 1
-0.254997 17.081261 0.464106 0 0
4.839592 45.210655 -40.303429 8 1
17.531145 56.188419 -29.760359 8 1
-1.082893 31.592949 0.624753 0 0
12.625109 54.893314 23.850906 5 1
36.794090 47.483082 -10.743138 6 1
-1.192633 61.476742 30.262493 4 1
30.833677 46.810986 4.368377 6 1
-27.851767 51.452774 20.914042 3 1
0.044028 47.585754 -37.316235 8 1
-21.867710 55.304684 13.079600 3 1
30.479824 45.876186 2.599551 6 1
20.330191 61.094048 -23.684118 8 1
29.757010 54.278526 -48.938522 7 1
-2.767955 7.382163 1.942375 0 0
0.786697 56.534176 38.351444 4 1
-2.820263 4.268948 2.001574 0 0
30.576649 59.364586 -26.073225 7 1
26.415905 51.697388 18.509731 5 1
-21.808599 55.992741 11.169532 3 1
-14.124916 63.292542 4.553654 3 1
33.765038 51.713749 -48.297531 7 1
27.836124 50.702011 1.819084 6 1
13.624559 60.488338 10.206145 5 1
12.610856 17.844397 8.798219 2 1
23.688246 62.419880 -28.035618 7 1
18.608406 50.246307 19.536575 5 1
38.392578 49.554115 -42.143749 7 1
13.216683 53.906551 -34.617252 8 1
34.389584 49.758251 -37.037994 7 1
-10.789368 63.753410 37.639763 4 1
27.057819 59.373379 -20.464861 6 1
36.968430 50.871742 -43.523861 7 1
24.904808 61.638557 -41.153214 7 1
2.899044 20.743303 6.425447 2 1
1.106975 61.623600 10.982032 5 1
3.198158 20.156572 13.622335 2 1
-0.156774 49.257233 3.981628 0 0
-16.218960 20.779049 -9.884768 1 1
2.619284 54.728809 -33.482040 8 1
42.717670 40.372738 -36.390907 7 1
17.472990 60.467907 -22.578432 8 1
-7.566092 58.090801 40.692009 4 1
-7.857965 58.969254 15.377665 3 1
-19.096807 56.690586 11.835582 3 1
-6.595652 62.531437 2.087806 0 0
30.762091 55.873966 -41.425060 7 1
-9.422064 60.142487 13.098141 3 1
-7.194154 62.141453 9.426010 3 1
38.181248 44.651108 -47.415321 7 1
-14.158986 22.129629 -2.499388 1 1
-8.209137 66.823143 26.878229 4 1
27.095297 54.919724 -0.619899 6 1
-1.556670 58.515690 -31.586782 8 1
11.237038 15.406236 15.920558 2 1
38.552895 43.623516 -39.324623 7 1
8.472190 59.389423 11.601856 5 1
34.360409 46.402348 -3.635141 6 1
30.556810 44.065247 -2.977869 6 1
16.814276 61.124992 -24.684799 8 1
9.979337 62.494461 9.279904 5 1
14.691638 12.827870 21.721918 2 1
3.416425 56.113567 43.065910 4 1
-6.961041 63.128002 6.276877 3 1
-13.110413 56.360081 12.763614 3 1
-0.940356 12.926272 0.257295 0 0
5.745435 42.782036 -8.372730 0 0
21.277662 57.147495 13.823299 5 1
-4.499822 57.711517 -0.031269 0 0
-16.821344 21.647541 -0.928531 1 1
13.232474 50.861740 -33.523560 8 1
16.083767 49.947834 28.097927 5 1
-0.170422 52.461121 -1.323456 0 0
37.140289 51.963772 -40.657619 7 1
-18.029760 22.656046 4.143349 1 1
-0.314388 51.485386 -34.431690 8 1
-30.965769 20.470892 -7.517375 1 1
-1.059273 14.733047 2.192476 0 0
21.474194 48.201344 27.742088 5 1
41.538082 45.619808 -38.758827 7 1
28.189720 54.929909 -18.746647 6 1
-3.964253 50.561176 -36.999447 8 1
-14.015802 56.597034 19.694366 3 1
25.094412 61.250641 -30.053606 7 1
43.761768 50.253193 -28.528893 7 1
-0.359368 59.808109 4.053895 0 0
-0.897013 59.162727 5.783026 0 0
13.710545 13.231037 19.064184 2 1
23.234623 56.103123 -16.828215 6 1
24.208673 49.522476 18.491535 5 1
-21.901644 52.225319 13.400973 3 1
-5.868845 56.173294 42.974442 4 1
-20.349142 19.849474 -4.841930 1 1
33.712372 39.307953 -2.416779 6 1
-0.678032 41.473141 0.161987 0 0
-13.044263 20.056454 -14.806205 1 1
14.843248 51.036465 -36.716984 8 1
2.173106 42.823250 -41.986893 8 1
-11.041673 23.309078 -1.506993 1 1
-5.238621 58.007519 -32.517445 8 1
13.922913 14.913641 14.487925 2 1
-20.182774 52.716831 15.606326 3 1
-13.147953 21.093580 -5.239573 1 1
22.845800 57.330414 -7.611196 6 1
1.006288 53.770737 -32.542206 8 1
16.737877 58.801895 -18.049347 0 0
32.968849 53.595531 -30.911028 7 1
6.177056 22.979605 3.264529 2 1
14.654547 16.634338 9.308738 2 1
-2.411415 64.507805 21.616047 4 1
35.871319 54.249866 -36.374836 7 1
32.003880 50.826458 -6.209145 6 1
12.701839 53.390968 19.183216 5 1
29.729965 56.199802 -46.369663 7 1
10.286613 54.232304 -34.180927 8 1
-3.810609 59.471794 38.587830 4 1
3.754665 63.817554 9.327835 5 1
-29.811165 49.462391 20.566530 3 1
-8.735251 64.258926 28.875851 4 1
-2.653599 56.594212 4.631345 0 0
15.502006 61.821411 9.236644 5 1
-28.736242 55.613033 6.708912 3 1
9.575698 47.370686 -39.410053 8 1
-13.597281 58.107082 16.725704 3 1
15.062650 56.616703 17.390020 5 1
41.820114 48.059368 -37.185921 7 1
2.111482 60.839924 30.861801 4 1
27.280495 54.958279 -3.148202 6 1
6.100717 45.329273 -8.105030 0 0
29.983089 52.890247 -17.808376 6 1
-11.191617 65.304985 30.959330 4 1
-28.606775 17.031946 -3.051972 1 1
-1.199636 59.091442 36.710953 4 1
38.678856 46.587215 -46.297905 7 1
-20.336861 52.664265 19.875965 3 1
9.236373 60.288109 -26.461975 8 1
24.338007 62.301411 -26.462280 7 1
-3.275944 58.085278 41.188137 4 1
7.457611 59.062061 19.251051 5 1
31.526478 44.664383 3.627019 6 1
8.857147 49.475983 -10.784086 0 0
32.370064 41.106873 -3.607000 6 1
-11.390052 59.979004 43.410736 4 1
3.510692 39.595066 -4.317333 0 0
-5.912562 61.378559 2.990259 0 0
1.472235 47.454945 1.759225 0 0
30.024078 57.037384 -37.548008 7 1
-2.967316 62.033600 10.790779 3 1
3.580949 59.714848 34.173473 4 1
11.940392 19.739330 4.855925 2 1
-13.627831 58.693939 11.590466 3 1
-3.471934 54.795097 47.241131 4 1
-8.632393 60.444969 41.167480 4 1
25.352182 59.580589 -32.252686 7 1
39.978764 51.972767 -35.524879 7 1
-2.415459 58.450645 6.226150 0 0
35.077393 38.941502 2.297302 6 1
-1.873481 53.665726 3.441350 0 0
34.037380 44.938221 -0.566029 6 1
17.334446 59.897522 -27.243908 8 1
33.511299 53.608387 -15.165388 6 1
-3.240820 62.796604 23.003513 4 1
8.151226 46.537109 -10.560504 0 0
0.986320 61.642303 13.614455 5 1
-28.033316 49.849468 20.798004 3 1
5.525202 51.095585 -33.989513 8 1
23.067892 49.205196 24.411663 5 1
13.681491 52.691006 26.651960 5 1
4.662787 21.293579 4.824024 2 1
36.219898 40.594368 -11.366862 6 1
-0.840320 0.688033 2.065984 0 0
-2.971575 17.647627 0.334638 0 0
32.087723 52.437740 -44.061642 7 1
-13.640555 22.594299 2.540618 1 1
-23.905245 55.544502 10.546755 3 1
25.037060 47.839622 22.127092 5 1
1.321532 49.157078 1.900977 0 0
-29.001431 51.350471 12.011787 3 1
-11.117342 58.974899 9.175857 3 1
1.031408 53.513813 -0.812455 0 0
40.593586 45.942047 -33.648621 7 1
5.442626 56.678967 39.949646 4 1
38.057941 36.513493 -7.641076 6 1
38.507416 50.487026 -40.690521 7 1
38.654446 54.711479 -26.702230 7 1
-20.545811 54.590206 23.925367 3 1
-2.018347 63.055332 25.865479 4 1
23.054565 63.476334 -31.455603 7 1
24.531136 58.936413 -20.645863 6 1
0.374570 61.829700 9.571427 5 1
31.403749 54.770767 -44.774307 7 1
-30.535286 53.057564 10.288720 3 1
-8.292936 60.482140 36.964832 4 1
36.669701 37.824261 -0.085376 6 1
32.690655 51.529266 -45.454063 7 1
-0.769905 60.776657 -28.251789 8 1
14.205301 18.066870 6.668751 2 1
-26.432457 20.763983 -9.185966 1 1
34.762447 49.473782 -46.845001 7 1
-11.097052 59.955589 18.186569 3 1
29.241335 47.497379 -11.530168 6 1
9.069799 56.009705 22.551521 5 1
-24.978945 52.795307 18.567430 3 1
31.856813 48.208588 -0.160790 6 1
-2.461688 21.014578 13.545400 2 1
1.074620 58.828526 32.809067 4 1
36.501522 47.519653 -46.837612 7 1
18.529757 53.791550 20.283573 5 1
7.562713 18.043398 13.008828 2 1
-30.610497 50.565342 19.606379 3 1
11.885468 45.446678 -39.258018 8 1
36.646122 38.289516 -8.855325 6 1
1.119837 65.610573 18.206411 4 1
32.862049 40.786434 -5.094851 6 1
-0.203397 20.630163 0.035240 0 0
20.720762 62.052197 -19.370138 6 1
-25.544249 17.597757 -3.633638 1 1
36.833351 45.763622 -40.954472 7 1
19.428415 14.685951 14.135110 2 1
39.681652 44.581810 -14.595019 6 1
6.995790 50.770576 -37.651844 8 1
38.884144 47.596699 -43.343441 7 1
20.190670 60.962803 10.763295 5 1
-1.925230 65.383408 15.469460 4 1
10.686666 52.210361 -32.314224 8 1
-7.960909 62.792355 8.153813 3 1
-26.205729 52.061699 21.306520 3 1
-2.814155 61.656265 26.115171 4 1
-2.519046 62.611755 27.636372 4 1
24.180168 61.633305 -33.440453 7 1
21.733524 58.361660 -13.103376 6 1
40.353184 44.280952 -48.330151 7 1
-11.990970 63.863861 35.500340 4 1
42.078274 42.686787 -35.258034 7 1
33.430878 50.263809 -39.516060 7 1
28.268806 48.971455 21.144653 5 1
16.328180 61.917099 -20.670876 8 1
26.657505 53.396263 1.298948 6 1
-7.474100 61.964359 31.671268 4 1
-23.218805 20.094238 -9.581537 1 1
40.513012 56.597141 -26.545633 7 1
23.262903 57.962814 -5.298901 6 1
17.711046 53.149212 -33.702782 8 1
-3.582429 63.857777 7.386473 3 1
9.918201 58.766796 17.271481 5 1
-0.819227 44.638115 -1.044714 0 0
22.913954 50.775898 21.885801 5 1
-0.440878 58.984505 0.769281 0 0
-1.735191 16.462528 2.483413 0 0
0.884191 56.383942 4.547050 0 0
40.030815 47.622307 -40.705666 7 1
-8.999034 65.477264 30.544371 4 1
-1.367539 56.615719 7.262420 0 0
15.135124 16.623629 7.186912 2 1
27.710972 48.677574 -9.165955 6 1
0.562304 62.820705 25.386280 4 1
1.007025 31.296558 -0.816359 0 0
0.267011 49.473949 -37.427589 8 1
8.312798 18.735571 10.311392 2 1
43.627483 46.865742 -34.357822 7 1
34.649963 41.433376 1.923095 6 1
5.492275 18.551386 20.693943 2 1
15.664064 60.124237 -23.225348 8 1
27.338263 49.469601 18.417013 5 1
24.422400 61.030544 -21.024456 6 1
4.553999 40.665451 -6.876755 0 0
1.844039 21.238173 11.064360 2 1
-23.727201 54.812702 8.209786 3 1
7.395579 45.742695 -40.190121 8 1
-26.012928 55.982388 8.096711 3 1
-6.682359 22.191071 -5.077800 1 1
38.614105 36.678402 -5.343693 6 1
-10.155544 57.996288 12.899654 3 1
35.489140 48.113304 -38.555264 7 1
3.386667 56.686348 39.992783 4 1
32.589615 53.577175 -12.334026 6 1
34.533707 38.584354 -4.439183 6 1
-2.370085 56.147263 39.203144 4 1
-8.518104 57.220676 44.145641 4 1
24.486622 53.737850 -12.170231 6 1
10.010139 51.165634 -11.828046 0 0
21.786217 55.473518 15.666240 5 1
8.072990 52.757381 -36.036964 8 1
-3.745425 51.827087 -34.978729 8 1
29.357914 49.242344 -14.217156 6 1
-5.099232 19.907135 -0.451382 1 1
34.802082 48.929268 -44.442123 7 1
7.479440 62.170547 -24.331570 8 1
-15.168684 58.986015 8.797758 3 1
9.220977 19.199299 8.090106 2 1
-3.116422 55.291466 41.750568 4 1
2.973199 39.177803 -5.918316 0 0
-0.956968 37.831696 -2.664197 0 0
-7.953801 21.818113 -10.883944 1 1
-7.904729 61.776978 37.890476 4 1
42.925877 40.636703 -37.969124 7 1
-1.925456 61.247940 9.918921 5 1
-30.661430 53.090889 8.542709 3 1
-29.910629 49.984268 14.838275 3 1
10.182338 55.046589 17.812279 5 1
33.382633 55.009033 -28.535000 7 1
4.474047 57.455978 37.697468 4 1
39.849083 36.016357 -9.416302 6 1
1.282466 57.926727 38.871265 4 1
-32.185154 51.164085 13.246803 3 1
7.427643 60.415771 10.929822 5 1
0.291510 58.474075 3.136947 0 0
-10.472037 20.170639 -14.641789 1 1
15.541233 56.664017 -16.778393 0 0
-11.202173 67.830223 30.192492 4 1
6.432373 47.893814 -38.874870 8 1
-6.185466 55.055813 46.033798 4 1
-0.194874 61.924915 28.125532 4 1
23.595268 55.591038 -8.699566 6 1
24.855137 54.409698 -3.847181 6 1
-0.531850 45.108868 -39.406754 8 1
34.054836 51.899712 -33.078815 7 1
-20.056843 55.081696 18.920883 3 1
34.845711 41.971020 -11.415002 6 1
28.927820 53.387981 -5.174722 6 1
12.441545 57.927834 -28.846867 8 1
0.362998 39.215637 -1.635090 0 0
-0.274280 59.294811 8.034107 0 0
-28.277876 18.278086 -4.380176 1 1
-1.855652 61.549126 6.285974 0 0
-5.029765 66.388016 22.144230 4 1
-10.627688 57.863876 16.673904 3 1
19.471308 55.100445 17.647013 5 1
33.405548 58.518227 -25.269524 7 1
39.478588 45.112629 -44.380894 7 1
-7.593801 61.097317 34.040913 4 1
-30.489449 51.888077 13.291861 3 1
-1.198754 17.917053 2.643593 0 0
26.997404 60.371597 -25.422489 7 1
-8.694771 58.768528 44.098549 4 1
5.573188 64.275703 26.026016 4 1
-8.427894 22.171225 -6.729464 1 1
8.751298 53.161259 -31.531509 8 1
18.677797 56.597664 15.553471 5 1
33.953434 48.329571 -5.484261 6 1
-29.002399 53.476913 11.312420 3 1
-1.321542 15.354469 -0.330038 0 0
27.036257 54.492176 2.400742 6 1
4.680289 46.996658 -39.256161 8 1
32.538525 52.556789 -18.392544 6 1
36.871788 40.744049 -2.307614 6 1
-26.884701 50.077984 15.727490 3 1
41.911301 52.580559 -27.855047 7 1
7.435224 59.427017 -25.907164 8 1
1.957635 60.553478 29.326551 4 1
15.950710 53.050289 -34.883236 8 1
20.003513 60.548985 -14.394078 6 1
9.532024 44.576397 -40.777481 8 1
15.163420 55.024513 -33.052967 8 1
9.881375 21.874489 1.156773 2 1
36.539257 50.273472 -17.044270 6 1
-11.683518 24.552534 6.379994 1 1
4.512471 19.685274 10.735580 2 1
32.435673 55.089191 -17.992758 6 1
16.655500 13.452300 17.228018 2 1
1.448817 37.759075 -4.395452 0 0
23.836283 59.865490 -16.428202 6 1
-30.105450 15.859990 -1.433740 1 1
0.998029 58.535900 -28.329039 8 1
25.429220 57.288803 -6.532922 6 1
12.199930 55.236408 -29.280930 8 1
-5.826493 62.379429 28.961784 4 1
36.587563 42.886337 -3.949384 6 1
39.776943 42.170017 -48.880489 7 1
-13.278865 20.297825 -10.929204 1 1
-18.087082 19.425407 -12.113918 1 1
-10.342093 59.345718 44.849197 4 1
-33.007931 51.113304 11.878003 3 1
12.347446 47.147766 -39.664204 8 1
26.686548 46.194103 26.848761 5 1
-28.327343 52.370514 14.693091 3 1
-21.054413 56.463058 7.170289 3 1
28.688255 51.828255 2.447511 6 1
25.280289 60.588188 -42.975506 7 1
38.827923 50.050728 -30.531635 7 1
28.271893 56.485504 -47.886635 7 1
1.078788 62.009636 -26.779646 8 1
5.340935 49.732964 -35.181736 8 1
-9.302912 60.367725 8.443276 3 1
-1.229580 24.088289 1.630049 0 0
-5.855875 53.975262 -34.986450 8 1
13.815387 55.548985 -16.478859 0 0
-8.075252 59.588150 38.454960 4 1
10.182431 57.019783 22.164440 5 1
19.625011 55.180328 13.590010 5 1
9.066014 55.231701 -29.401621 8 1
21.613438 59.681789 -19.819908 6 1
-2.281353 45.324806 -39.405762 8 1
7.458858 58.309017 21.901979 5 1
19.370953 61.601681 -21.187824 8 1
7.565418 22.282310 3.688850 2 1
-19.131775 56.925751 7.371737 3 1
28.600460 58.352631 -19.927759 6 1
-14.994813 20.766733 -5.114111 1 1
8.266830 50.085232 -34.592945 8 1
3.964569 61.217892 -28.109678 8 1
-13.220368 56.329815 15.965034 3 1
22.691586 50.360008 17.570925 5 1
-14.951031 57.655853 14.168420 3 1
-2.698933 58.734547 39.373825 4 1
-14.988617 57.469154 17.286221 3 1
29.321836 46.259205 -2.222900 6 1
10.178170 64.433006 -23.112610 8 1
28.853434 55.742901 -34.107430 7 1
-1.828615 51.376858 1.076059 0 0
-4.418678 57.730721 37.085934 4 1
-7.231332 23.272011 -4.106876 1 1
-12.470474 63.300140 40.871346 4 1
-2.053205 53.511066 -0.875078 0 0
3.193599 57.227543 -31.290783 8 1
-5.609619 61.797184 14.634200 3 1
-11.022161 63.598606 5.179621 3 1
27.289326 59.652122 -30.023285 7 1
35.903137 58.595222 -26.229248 7 1
3.716995 58.315422 -27.392126 8 1
3.054982 59.639259 31.285101 4 1
-12.720826 64.731857 38.837738 4 1
43.735321 43.176445 -35.663486 7 1
0.771662 52.472660 -35.421825 8 1
23.016571 51.386635 16.482567 5 1
14.468353 52.354519 18.921852 5 1
36.128429 43.266636 -13.314177 6 1
28.990116 59.762428 -27.178366 7 1
3.338899 62.914108 25.077400 4 1
41.739391 51.373959 -33.706436 7 1
29.801411 54.914509 -38.368748 7 1
-3.990312 63.974628 21.749956 4 1
9.108460 62.223034 10.652437 5 1
8.666869 62.319859 32.530655 4 1
-6.788101 61.594341 13.679881 3 1
-13.765631 21.161606 -9.754111 1 1
3.228431 48.826893 -38.025776 8 1
-10.749175 21.294785 -9.929931 1 1
-28.681341 49.669807 15.762555 3 1
-12.640208 59.817436 7.469628 3 1
11.737064 59.880730 -26.164742 8 1
28.520853 57.699314 -28.798189 7 1
23.692846 55.332893 -13.798304 6 1
-16.926262 22.625265 2.374560 1 1
-4.139766 55.805321 -33.793114 8 1
-5.373372 60.740070 0.195123 0 0
17.909315 51.890907 23.885784 5 1
5.687594 63.911888 -24.143982 8 1
-12.459940 22.422115 0.920424 1 1
-7.631501 62.498493 35.683342 4 1
-8.751143 55.935501 47.321732 4 1
-1.855026 47.079224 -38.033730 8 1
1.110769 44.970917 -1.874910 0 0
-19.677536 19.954203 -1.975584 1 1
16.962469 13.992344 18.653191 2 1
-10.668944 61.475113 41.690952 4 1
33.070526 41.212303 1.957757 6 1
14.472128 52.969559 22.259869 5 1
8.689725 61.288254 34.354107 4 1
6.106258 56.760315 -28.480225 8 1
-0.338259 59.266991 31.827906 4 1
-18.128866 20.807499 -3.196472 1 1
37.854790 46.731544 -12.309352 6 1
38.361187 54.087990 -31.859280 7 1
-7.505188 65.124207 28.657612 4 1
-0.617826 3.402367 1.068347 0 0
18.816637 59.498436 10.429337 5 1
-1.048947 55.338837 45.477226 4 1
22.919556 48.785461 20.250454 5 1
-11.239672 22.291229 -5.803842 1 1
-17.413866 18.321014 -14.549385 1 1
5.326037 59.707199 -26.108751 8 1
-15.098324 20.604137 -7.181415 1 1
13.691440 49.025597 -38.379395 8 1
12.842000 62.069511 10.490642 5 1
31.156555 42.896648 -3.800529 6 1
-2.585917 63.463223 11.122609 3 1
-24.000843 51.102894 15.602751 3 1
29.701256 46.067703 -0.594265 6 1
10.458375 60.494038 10.510281 5 1
16.891428 58.960709 -25.394575 8 1
26.378176 56.395603 0.730941 6 1
-8.933789 58.962540 41.261364 4 1
22.726721 48.021862 26.679193 5 1
34.778217 53.087788 -42.438644 7 1
20.427431 58.078083 11.349588 5 1
-12.399524 60.925678 44.046131 4 1
8.991101 16.511232 20.858515 2 1
38.447872 43.027367 -9.086134 6 1
30.074045 45.006435 -7.458391 6 1
-1.607687 49.637131 -37.368256 8 1
10.136998 65.408745 8.639639 5 1
4.895977 56.299553 42.621422 4 1
40.690910 50.265678 -36.695614 7 1
-5.010784 53.807518 47.357574 4 1
-7.328433 21.854811 -2.172900 1 1
34.439953 51.038754 -34.352993 7 1
-10.426747 21.710590 -2.600460 1 1
20.115250 49.967613 25.420273 5 1
16.037651 61.601578 -23.389500 8 1
5.340847 58.538712 21.010382 5 1
40.299091 39.614372 -43.170071 7 1
-9.394636 62.359798 7.836634 3 1
-9.783540 67.082054 28.953876 4 1
-9.844523 62.455620 33.328224 4 1
-12.868927 25.449358 7.423850 1 1
-1.324965 22.324591 9.216368 2 1
-0.283941 6.342511 1.302835 0 0
23.436287 55.484501 13.471342 5 1
24.290701 54.564671 -6.994245 6 1
-14.703938 20.021809 -13.051878 1 1
-7.365896 57.434814 45.303616 4 1
35.605034 47.526390 -44.663773 7 1
2.118304 64.269096 -26.730783 8 1
-9.392622 63.547562 35.756748 4 1
5.934134 42.755859 -41.579948 8 1
17.361280 60.918842 -21.126677 8 1
44.447952 41.331142 -34.532646 7 1
-10.789964 66.741173 31.176422 4 1
22.269592 60.675949 -12.185631 6 1
29.606497 45.221985 -5.109175 6 1
22.517218 57.097031 -15.829834 6 1
34.603363 52.890774 -30.327784 7 1
-23.089750 19.958134 2.564207 1 1
33.464333 50.573376 -37.902225 7 1
2.873915 57.845665 39.078724 4 1
-2.800755 62.238960 8.689161 3 1
10.932616 17.244080 11.531007 2 1
-31.550945 49.294338 16.554487 3 1
-0.461328 54.166332 -32.796715 8 1
-2.488285 14.143629 1.321913 0 0
17.805738 63.243649 9.477110 5 1
-23.672459 20.704815 -8.280548 1 1
16.564856 56.286076 17.345432 5 1
41.438629 41.043556 -41.954262 7 1
-28.696087 52.814491 9.194529 3 1
14.156604 56.827244 -27.574306 8 1
-7.411919 23.197748 -1.048289 1 1
2.500703 57.537239 36.388233 4 1
11.456770 56.229832 22.553354 5 1
-16.971558 56.151245 9.959786 3 1
4.412783 57.932365 36.121651 4 1
-1.490242 50.040680 -1.089803 0 0
33.992371 55.472916 -34.183727 7 1
-12.549273 66.588257 34.966076 4 1
19.704426 48.588226 23.214045 5 1
-19.462978 59.094238 6.285522 3 1
12.856372 55.251621 -14.728152 0 0
44.800346 42.515518 -33.676773 7 1
30.561787 50.982334 -16.356493 6 1
-10.641766 23.664625 -0.059746 1 1
-2.155614 21.772743 0.408809 0 0
-25.600927 53.043591 16.154800 3 1
0.473565 54.963432 43.454922 4 1
35.000633 50.354092 -48.663780 7 1
-2.604154 21.627001 11.304558 2 1
-2.300550 63.925259 6.612036 0 0
12.490879 16.679556 11.266346 2 1
30.556908 53.988724 -35.216579 7 1
-8.555112 63.933289 6.009104 3 1
-1.371984 48.504337 -0.098693 0 0
-5.769746 64.832466 6.702960 3 1
27.509592 59.192818 -34.205444 7 1
29.942680 56.379173 -14.419815 6 1
41.722237 49.746552 -29.636055 7 1
-14.194495 58.358955 19.851364 3 1
-34.059128 49.935398 14.669527 3 1
-9.420305 62.409012 38.497906 4 1
19.509699 57.678818 13.750410 5 1
31.799372 52.326397 -8.933634 6 1
32.277901 42.871181 2.391311 6 1
0.873712 26.730499 0.504502 0 0
21.621962 58.354801 -15.855527 6 1
3.996290 51.698116 -33.619236 8 1
30.811543 56.382858 -16.173769 6 1
6.818343 59.414734 17.540796 5 1
0.414830 38.692307 0.474337 0 0
40.516479 41.716202 -37.692341 7 1
1.760037 43.536476 -40.654530 8 1
-27.005394 16.601313 2.967145 1 1
30.824030 57.548126 -29.891630 7 1
1.822011 51.659866 0.192873 0 0
-2.905558 51.413914 -36.343388 8 1
5.577164 45.995892 -38.319160 8 1
-7.613543 57.321831 42.703655 4 1
42.618382 45.208363 -36.862556 7 1
39.765968 42.986408 -12.438472 6 1
16.275566 51.519913 23.279896 5 1
27.994865 58.203300 -45.741932 7 1
15.595963 59.173588 -24.556059 8 1
-11.153791 61.548096 39.770290 4 1
22.081528 50.111118 23.617237 5 1
10.268516 16.704416 16.247377 2 1
-8.347961 61.007904 39.809387 4 1
4.443967 49.656532 -37.511158 8 1
0.023588 20.576975 3.055185 0 0
40.524754 38.257866 -45.874084 7 1
-3.605070 54.167858 -34.651218 8 1
9.720951 20.847866 3.333200 2 1
8.899964 48.431728 -11.846386 0 0
4.565331 64.564781 24.971205 4 1
-15.378458 55.001457 14.325272 3 1
32.632160 43.230953 -10.009324 6 1
26.167444 60.378105 -36.622253 7 1
-0.548603 55.434845 40.755306 4 1
40.742241 40.261700 -49.459625 7 1
33.723564 54.664261 -39.840199 7 1
30.348051 49.027500 2.889012 6 1
-4.538467 62.407150 26.892097 4 1
10.999176 47.913433 -39.200714 8 1
10.484088 59.452873 -26.951342 8 1
11.372243 22.137957 2.289752 2 1
-16.229462 61.191055 5.840799 3 1
-8.500877 60.476883 17.831760 3 1
14.585959 15.337771 11.686476 2 1
-1.176398 1.788391 0.914180 0 0
17.062033 62.056889 -22.324150 8 1
-0.325381 65.891190 17.517765 4 1
6.323121 65.149864 8.760019 5 1
-19.604618 55.364334 17.502439 3 1
-2.791704 53.889347 45.674591 4 1
-18.014454 62.312572 3.999550 3 1
-3.195111 63.759918 24.991369 4 1
-21.080763 19.908945 -9.468589 1 1
42.383804 54.850555 -27.007416 7 1
-6.028213 63.597584 30.144361 4 1
-19.063070 53.236748 13.832206 3 1
-26.026402 50.592949 19.660004 3 1
10.507030 52.743671 -13.621304 0 0
-1.132501 46.915936 -2.119028 0 0
-1.359420 58.339836 38.882286 4 1
-4.631589 67.177544 19.996632 4 1
-7.539191 60.917824 8.649624 3 1
40.500572 50.995495 -29.318726 7 1
15.100433 14.731877 13.071140 2 1
41.086014 40.722813 -47.091885 7 1
-9.782341 24.023817 4.269418 1 1
37.365559 53.466381 -36.096657 7 1
-6.115808 23.529522 -5.353539 1 1
-26.104216 54.303856 11.969173 3 1
0.503752 42.275669 -1.571684 0 0
23.162273 46.933933 25.018177 5 1
-9.879269 61.930668 36.365047 4 1
32.442616 56.967144 -28.721754 7 1
16.683899 54.964119 -30.629484 8 1
-6.392477 60.797890 12.287800 3 1
-6.017056 62.186211 10.342362 3 1
0.203517 21.840155 0.874121 0 0
-18.067173 21.093050 1.477963 1 1
-7.368506 66.404198 24.140879 4 1
