-106.734050 240.191770 126.183560 29 1
68.871819 287.882660 92.124779 42 1
-35.930126 98.389267 -1.236087 0 0
9.346117 62.361588 -8.240059 0 0
26.307158 106.017210 10.903137 0 0
15.478083 333.120790 123.623890 4 1
-97.817802 238.325740 48.267746 30 1
5.238349 205.207890 133.613950 35 1
18.271481 130.175700 13.063898 0 0
16.765627 315.037020 27.034523 0 0
-102.922670 309.066890 -14.930420 6 1
-5.843267 330.004150 127.185390 4 1
50.882980 274.263430 47.700623 0 0
76.911911 301.252870 99.084274 40 1
7.929873 53.622589 2.035870 0 0
-34.563976 410.602420 37.110870 74 1
-40.282528 122.079150 55.464893 60 1
102.603550 217.759660 61.039959 23 1
97.996071 295.173860 57.314465 41 1
-4.608480 84.883575 1.046734 0 0
11.858996 336.923000 24.290955 0 0
-39.240936 233.416380 45.381866 0 0
20.566319 270.542660 35.771259 70 1
79.669472 276.036070 88.626862 44 1
-32.602432 194.846470 69.475426 31 1
79.529152 226.702360 113.870060 32 1
-111.472380 140.383870 30.946083 47 1
-92.156113 328.764680 -30.027454 6 1
-28.296799 66.643822 -4.986383 59 1
37.909203 342.694550 141.520780 3 1
-39.538265 398.395840 39.860214 74 1
-100.085750 316.758850 -35.016182 6 1
-3.180463 113.551610 -16.270893 0 0
8.357547 48.374485 -6.129659 0 0
122.852760 230.472820 -8.750427 12 1
-43.175610 134.083880 18.333656 0 0
-122.895740 211.954940 62.715366 26 1
-51.884907 273.262940 82.040710 28 1
56.170918 132.871690 44.290985 21 1
-113.592110 141.510620 -71.673218 13 1
-99.536972 146.156170 27.790781 47 1
77.427795 107.587940 28.412249 19 1
-35.078537 265.851200 50.902691 57 1
65.405823 138.380650 -5.545100 20 1
27.024643 327.827420 169.494740 3 1
-2.665414 264.920590 124.936640 39 1
43.146217 280.923580 130.752440 38 1
37.497219 219.746400 117.160870 35 1
-21.856623 309.443910 -85.455841 10 1
18.267483 159.411900 22.636892 0 0
-83.628807 314.534610 -11.513277 6 1
128.260210 212.600860 34.685398 12 1
-28.634409 307.367740 -96.902962 10 1
-37.251308 166.685990 15.873005 63 1
76.216866 105.462560 4.954142 22 1
8.231674 103.324000 -19.342157 0 0
12.087889 266.149930 48.512836 0 0
2.820091 157.585910 -6.494994 0 0
62.299698 103.912120 31.582886 19 1
14.346104 225.281370 -4.629369 0 0
33.645161 180.490950 -0.215767 0 0
15.431626 350.463320 25.929438 0 0
22.489723 229.467030 -16.571751 0 0
-105.506110 240.448320 118.368180 29 1
69.602615 218.393220 119.787740 32 1
-75.394272 138.819840 22.469538 63 1
91.176018 87.001427 9.167715 22 1
-22.531275 192.431700 127.066630 37 1
142.025510 163.018590 26.794369 1 1
77.020569 105.289560 20.578075 22 1
-2.022111 318.695980 -85.763916 10 1
-63.833244 307.388980 -53.669739 11 1
4.751901 280.932680 8.803414 0 0
-97.391724 154.643720 -45.105232 14 1
-43.906376 305.735170 -47.568123 11 1
55.160469 269.152280 41.583477 0 0
-82.087410 294.730410 -11.485697 8 1
79.197723 146.522050 -9.706453 20 1
95.178070 294.679500 88.253174 42 1
-64.222542 158.745770 -1.459353 63 1
7.840638 278.806090 54.853378 69 1
20.502024 283.334660 44.059093 54 1
52.654011 213.494630 137.953920 33 1
12.064383 341.809480 113.679080 4 1
-93.420021 189.277210 119.411670 27 1
-63.397274 322.594180 -5.741044 7 1
-59.091236 262.938930 84.962379 28 1
-49.235680 408.415680 21.874348 74 1
82.483902 148.832310 -20.591049 20 1
42.368729 406.095920 69.893929 45 1
19.809477 58.241306 -6.488058 0 0
-51.929394 147.589740 38.777687 63 1
23.232695 138.758970 -10.668324 0 0
34.178631 149.532590 -105.265280 18 1
138.589250 178.352360 45.662483 1 1
-2.551691 48.025124 3.621741 0 0
-129.727430 205.582410 59.241657 26 1
-55.421139 403.143590 26.155413 74 1
-9.203215 254.941310 -46.240993 0 0
-43.877884 119.359160 41.776314 0 0
14.534640 228.922060 21.920595 0 0
-68.897629 316.963840 6.236318 7 1
-126.168670 140.680270 -22.290751 15 1
-44.384640 112.243970 2.010522 0 0
124.225300 207.881360 63.504883 23 1
83.985619 293.462190 114.455600 40 1
-70.543015 154.094570 34.129364 0 0
142.999820 175.507870 34.171497 1 1
119.716780 212.948590 43.278564 23 1
114.020320 230.358460 0.993667 12 1
-100.427610 251.696120 82.481209 29 1
136.617390 223.253850 14.582713 12 1
112.154880 217.308410 37.072777 12 1
-25.311972 198.049650 76.900208 31 1
-40.285702 154.773910 6.114052 63 1
-16.407640 257.824190 124.716700 39 1
-4.138765 138.796260 -14.097545 0 0
-49.064171 160.200000 -5.215783 63 1
-19.507862 143.150770 -101.398850 16 1
11.874307 133.554690 3.040556 0 0
144.662550 214.440220 -6.353712 12 1
-103.576900 204.232570 92.419807 27 1
-29.581800 273.647340 15.967445 58 1
-30.084785 191.894300 90.807884 31 1
28.045879 215.908070 78.569366 36 1
55.005749 297.432800 89.878677 40 1
-11.230137 217.300140 20.483612 0 0
-32.845852 79.746513 -7.824556 0 0
-33.523273 127.127790 38.583714 64 1
-19.666784 134.494540 2.858933 0 0
-8.790616 131.160390 32.362701 0 0
-94.527870 239.173750 79.374817 29 1
142.504710 216.220810 3.381166 12 1
-11.313647 70.511955 -18.003269 0 0
-21.418146 311.978450 -109.248240 10 1
148.926590 209.112350 22.483686 12 1
-92.276001 166.414060 -51.333447 14 1
-78.741920 139.496190 30.126745 63 1
-84.052597 155.639510 32.977703 62 1
-42.394806 129.723910 -125.557450 16 1
-66.221764 121.864010 30.961302 0 0
-8.360799 198.053120 121.156220 37 1
76.652237 295.886540 46.510696 41 1
-3.691031 258.788970 23.395395 70 1
16.201254 217.009350 126.046510 35 1
-56.885460 219.781510 41.976593 0 0
7.566020 224.912930 -10.057442 0 0
25.712450 277.347380 46.125423 54 1
-75.219742 304.072630 -7.205015 8 1
-12.464067 186.731480 135.033570 37 1
50.913635 283.672060 59.081764 0 0
11.894135 167.994060 -96.415512 18 1
7.849267 157.353210 38.174728 0 0
63.707542 129.254490 0.989685 21 1
-12.442806 121.797900 53.757133 64 1
-90.913437 246.826770 91.930138 29 1
-16.149578 397.042790 71.128334 75 1
76.317223 161.266920 -10.533069 20 1
-3.798487 126.896130 -17.316801 0 0
-28.960558 145.667500 30.113312 0 0
-112.656960 240.750700 60.628868 30 1
-122.008290 138.833270 -60.589413 13 1
-88.684113 251.389830 110.413220 29 1
-67.336578 296.833710 -71.468193 11 1
-14.045393 100.355360 3.088406 0 0
79.034683 279.399480 28.440882 0 0
-23.825445 293.684570 -68.639420 0 0
135.348180 220.108730 3.598933 12 1
-45.405785 386.931580 66.833138 2 1
2.402615 220.521300 -0.360780 0 0
45.145309 174.134460 14.002476 0 0
68.295708 150.709050 14.449613 21 1
16.440481 131.357300 32.937328 0 0
-24.411974 127.197360 -133.553090 16 1
-126.448400 225.381710 117.313030 29 1
30.558001 313.518650 12.858034 0 0
-36.013447 265.378810 33.302177 58 1
3.495181 215.792330 -10.526757 0 0
16.524311 123.542420 22.227936 0 0
-115.091350 240.209990 82.292694 29 1
47.336800 212.406650 122.499230 33 1
73.624435 137.162460 -34.285549 20 1
121.915770 210.777250 55.420795 23 1
-98.148987 312.384890 -3.363595 6 1
-43.085583 135.082900 -111.952290 16 1
-26.114714 405.967440 74.861053 67 1
29.175289 268.582640 120.366480 39 1
11.913413 211.750290 -5.919590 0 0
108.418230 229.632260 40.072311 23 1
-20.476271 133.437850 30.711042 64 1
76.095726 146.588790 -31.765942 20 1
20.815750 82.187965 -1.317336 0 0
4.240695 339.419680 120.136900 4 1
-21.558708 273.803010 36.768684 58 1
65.299805 100.145160 43.674370 19 1
95.528404 220.374020 26.341684 0 0
-39.786362 255.482850 136.225250 28 1
2.201724 197.147400 91.912773 36 1
-26.908749 402.071080 62.855297 75 1
-16.300423 258.245240 39.069351 70 1
-40.833500 387.222960 79.750000 2 1
-37.415890 157.182890 -1.343014 63 1
-1.062247 114.370110 53.343563 64 1
74.348373 130.391630 -13.382244 20 1
33.614857 347.190980 111.920870 5 1
-52.558949 252.190750 113.368780 28 1
-130.168790 227.931350 104.044690 29 1
47.691978 401.356570 75.963379 45 1
-53.885124 380.222440 83.174675 2 1
143.384750 186.815950 25.967155 1 1
-50.408211 300.651950 -69.143669 11 1
-19.469563 136.311870 -119.879060 16 1
-87.987236 324.459350 -15.758887 6 1
-67.925064 236.498660 35.779091 0 0
-37.239658 66.724579 -12.263045 59 1
33.320671 284.572200 39.915462 54 1
51.221336 236.302540 38.045792 0 0
133.943880 184.885030 41.667084 1 1
113.590860 231.844820 21.315281 12 1
-67.375481 302.729000 -135.784210 9 1
-114.443600 142.011860 19.408270 47 1
14.252783 285.229610 104.533450 39 1
118.188410 290.381840 66.880890 41 1
-96.246437 195.089460 70.057320 0 0
4.090523 138.593380 -13.017186 0 0
106.541520 290.500610 47.941616 41 1
-125.489810 153.252980 -20.177439 15 1
65.970718 242.028080 22.593973 0 0
-33.115341 142.252500 -100.801020 16 1
-16.942158 142.532500 2.764287 0 0
-31.407207 149.978100 11.063560 0 0
8.623835 126.404970 33.764950 0 0
36.331509 288.472780 33.716736 54 1
-53.357971 113.302960 12.563806 0 0
92.156464 285.466460 57.382656 41 1
9.825355 203.251890 111.156070 37 1
-22.273726 402.246250 26.779060 74 1
29.721071 98.316978 -9.093269 0 0
-111.418200 160.877900 -28.430496 15 1
12.309400 365.089450 26.878618 0 0
-62.864395 133.788860 46.376511 63 1
-94.790428 325.846470 -18.334129 6 1
98.969894 227.524090 45.084507 23 1
32.983810 138.933900 -7.878525 0 0
96.286102 268.851320 86.310493 44 1
63.767998 137.617650 35.904160 21 1
28.560411 274.797670 90.739929 0 0
-10.451841 278.071080 44.489433 69 1
-40.188305 123.030270 10.059579 0 0
-17.760664 415.252170 62.757496 67 1
-39.419689 269.702820 14.046060 58 1
52.440857 227.435300 38.542294 0 0
33.147614 212.069270 117.876280 35 1
23.985674 244.863280 -5.099772 0 0
-14.154978 179.569430 -45.849426 65 1
13.242909 164.016050 -14.332123 0 0
18.728239 307.500700 19.381889 0 0
20.411972 240.609180 -17.928095 0 0
32.014454 265.579770 166.988420 38 1
132.419490 186.869430 54.061428 1 1
-70.866806 166.780840 20.116280 62 1
-93.030914 159.167300 -49.188370 14 1
21.345249 259.795780 73.263412 68 1
-0.707634 260.829440 134.031650 39 1
-42.141701 386.254360 54.768955 75 1
12.075997 69.169395 -11.152578 0 0
68.902771 127.381420 29.077429 21 1
-49.296227 136.067840 13.010198 0 0
-81.485405 141.727230 19.165295 61 1
2.165113 148.756760 -11.834290 0 0
-1.112496 280.415410 59.306419 69 1
-33.446072 305.978730 -83.391739 10 1
18.991144 331.719700 148.024840 3 1
-90.880440 257.154850 56.413212 30 1
-0.162490 165.075130 57.148731 71 1
-104.157360 198.002550 82.851273 27 1
110.595560 224.191530 51.216183 23 1
45.406551 345.155400 119.991460 5 1
-28.863186 52.545818 -8.291759 59 1
-114.368870 131.896560 -82.457680 13 1
-57.787006 373.917180 74.847382 2 1
-61.363270 128.821660 53.217796 0 0
-116.447640 190.940060 98.897118 27 1
-29.945744 271.637700 5.699577 58 1
59.534550 276.916840 157.109680 38 1
-11.720744 130.962130 21.035851 0 0
-4.086069 304.308040 -1.361752 0 0
-107.845650 241.695070 107.497970 29 1
10.651003 147.902830 25.743380 0 0
-3.244793 210.234510 15.704290 0 0
70.409050 285.966520 114.142750 40 1
-51.685116 250.763210 57.351734 0 0
-85.473473 287.949040 -4.538679 8 1
-17.304110 167.983290 -34.555561 66 1
-155.621020 178.772190 103.187190 25 1
-49.799522 163.893070 19.699337 63 1
-120.405550 139.786730 -48.410316 13 1
46.358662 225.607500 28.814678 0 0
18.396053 266.960140 -1.734402 0 0
-116.025950 263.508850 58.364632 30 1
-16.410149 122.956710 -5.772509 0 0
-5.665136 265.017360 36.932625 70 1
-53.712204 393.720090 34.501328 74 1
-86.267044 313.974210 -22.712648 6 1
-0.289900 293.263280 3.386064 0 0
5.232338 188.051990 -2.166562 0 0
-56.192554 208.752120 40.387627 0 0
-15.136997 310.983830 -95.712067 10 1
-21.122620 195.913150 120.434250 37 1
110.024680 218.483430 22.772781 12 1
30.256578 113.886450 3.179777 0 0
94.510056 298.978490 95.467506 44 1
65.657028 283.452670 144.833010 38 1
119.585600 221.095380 46.544937 12 1
23.781443 94.003639 2.141751 0 0
-73.877571 124.771480 47.555035 0 0
56.571350 345.027800 123.489940 5 1
22.512506 154.413760 -110.251290 18 1
-25.460920 73.460579 -26.215002 59 1
78.664139 290.876310 107.053220 40 1
-44.543911 392.681920 59.336205 75 1
88.280479 289.650600 47.478512 41 1
-2.850909 105.002730 -13.905597 0 0
-86.186302 137.693070 41.659737 63 1
-0.069993 284.829160 45.598927 69 1
-66.772995 314.513150 -4.275084 7 1
-91.660072 148.401730 16.573849 47 1
26.905972 170.692060 7.968739 0 0
6.378421 154.244080 -19.025351 0 0
69.595062 117.708620 21.613281 21 1
-43.154945 188.787630 40.246113 0 0
-101.092450 317.946750 -27.941376 6 1
-37.458618 270.005550 73.736870 57 1
3.549245 196.091220 130.693080 37 1
24.670389 295.442500 13.302666 0 0
93.897247 275.548800 84.772217 44 1
-96.341171 323.095890 -40.556400 6 1
-37.700310 120.705950 28.782587 0 0
-15.534348 337.722660 120.436840 4 1
-28.081211 386.516480 72.859398 2 1
16.286413 204.326800 106.309220 36 1
-44.335693 134.834380 -81.393158 17 1
-44.207668 402.474210 31.233051 74 1
-88.776787 236.944610 37.280327 48 1
80.647667 122.572290 -8.117426 20 1
61.858860 299.991460 110.852650 40 1
-61.352295 250.785690 66.965401 0 0
-5.881558 143.031860 -113.781690 16 1
130.900510 227.631530 15.094528 12 1
-67.486366 118.809780 38.781734 0 0
-39.363499 85.683937 -5.852683 0 0
-42.590714 194.494830 92.576820 31 1
-73.883385 95.179939 -5.605214 0 0
33.565037 271.769650 127.465610 39 1
-63.932095 312.614720 -101.112980 9 1
7.751692 284.106660 2.120056 0 0
-125.627020 133.800020 -72.606827 13 1
114.469700 213.384770 67.537605 23 1
-40.582943 125.879840 41.924335 0 0
-121.390580 200.386060 66.503273 26 1
44.406746 227.391880 108.309750 32 1
-50.216499 268.607910 94.717445 28 1
-88.345192 160.651430 -77.514053 14 1
-72.351204 249.435930 72.142860 30 1
11.785343 207.415510 135.614490 35 1
-46.533943 315.817960 -109.001560 9 1
44.305031 275.796720 108.132670 40 1
87.401497 219.443540 23.778910 0 0
38.675774 160.001590 -9.342165 0 0
-54.405041 334.308590 -28.904221 7 1
79.330269 104.630240 -2.794025 22 1
-11.595505 176.413960 138.655930 37 1
-103.669760 142.959260 -68.080109 13 1
-13.259651 112.009130 0.264287 0 0
-32.930267 135.173610 -130.845790 16 1
-2.266247 264.254180 29.207319 70 1
8.971472 320.605870 -112.888890 10 1
50.968472 293.519650 28.212236 54 1
53.398533 138.713120 41.110134 21 1
76.842140 132.662920 -51.817280 20 1
-2.513449 284.853210 111.805610 39 1
113.658910 224.211180 42.048267 23 1
124.515670 305.740420 53.318272 41 1
-77.135780 136.096660 -24.830648 61 1
-34.202923 153.484650 -70.012650 17 1
-5.600136 266.103060 -51.262363 0 0
32.264095 202.585750 50.548141 0 0
143.090880 200.683810 26.595427 1 1
-10.454593 310.896850 -1.863832 0 0
-25.078611 267.889800 56.814537 57 1
0.331222 97.348557 7.212909 0 0
39.410824 336.476810 123.199260 5 1
127.339040 207.969130 50.131084 23 1
-18.269566 330.009700 128.903690 4 1
-9.812725 320.659240 -74.079063 10 1
38.312172 274.735750 135.068470 38 1
-0.876039 157.669040 15.809751 0 0
24.520281 325.036830 14.978919 0 0
-61.295544 326.082820 -35.687988 7 1
16.677681 252.006840 16.734249 0 0
123.162910 290.058500 74.733635 46 1
-1.665656 160.797300 -105.844800 18 1
134.706940 179.537220 54.676651 1 1
-20.015141 193.969280 87.174721 31 1
-21.821669 407.528630 39.873070 74 1
-65.288536 324.640530 -12.822670 7 1
-78.563309 246.457890 97.937546 29 1
86.612457 275.896580 101.411160 44 1
-90.698792 254.334200 97.550072 29 1
-28.698109 296.873200 -83.315491 10 1
125.511960 207.185200 28.343185 12 1
26.886045 287.098690 13.756819 0 0
-11.117813 261.905060 33.342358 70 1
-35.548557 399.542720 59.811569 75 1
25.881819 264.122220 67.377327 68 1
12.853044 271.651520 24.783134 70 1
-4.789261 284.769200 54.981701 69 1
2.174374 266.167940 9.278945 70 1
28.738119 337.598880 156.492630 3 1
4.872766 156.706380 -109.444700 18 1
118.045340 283.515660 83.599915 46 1
1.534592 206.492680 90.122482 36 1
18.730640 212.735020 131.213470 35 1
12.473366 155.211090 32.217251 0 0
42.341599 149.164050 -14.118166 0 0
-16.478308 142.672650 -120.958630 16 1
128.022290 156.936900 51.668991 1 1
-78.261421 149.724460 -4.132425 61 1
-27.041170 262.357570 44.470463 57 1
46.302341 212.569950 23.419033 0 0
14.887393 275.309420 42.400414 70 1
-12.219083 94.701302 -5.747006 0 0
16.995113 159.437730 -98.607346 18 1
-74.794464 289.943360 -51.622562 11 1
23.142071 268.628540 124.486940 39 1
25.944319 280.772000 57.137085 54 1
20.963575 246.415830 8.616081 0 0
-16.939453 195.596530 131.385360 37 1
4.678747 166.073300 46.386856 71 1
48.849636 411.573090 57.973743 45 1
-82.614876 261.383580 90.786522 29 1
-42.717400 300.990260 -82.225929 11 1
-86.118240 248.515460 29.679848 50 1
20.111431 157.209470 -20.456913 0 0
70.544228 228.950930 108.789310 32 1
85.557770 270.317870 109.525270 44 1
-11.094497 197.268020 94.208183 36 1
-6.575534 162.899960 -82.515366 18 1
10.461607 115.953810 9.407103 0 0
54.334496 290.784240 45.517059 54 1
4.702143 161.998690 3.551507 0 0
126.147270 276.034090 83.622566 46 1
138.607570 184.277470 33.227051 1 1
46.127396 342.393590 126.858990 5 1
-1.369087 162.436290 42.972820 0 0
19.519825 337.611570 17.266502 0 0
104.681370 216.578080 71.840332 23 1
-53.716934 139.052800 25.919716 0 0
-86.495819 149.533480 9.299260 61 1
71.291786 414.943420 62.321480 34 1
120.757390 202.721270 76.316299 23 1
38.153816 275.686160 97.174355 40 1
6.291773 279.085540 113.269620 39 1
103.631740 270.822970 112.220360 43 1
94.076569 220.008030 70.591820 23 1
13.042824 161.395310 11.349958 0 0
55.879581 398.024410 79.325142 45 1
55.845512 230.421600 108.494780 32 1
-45.906563 306.098790 -69.872063 11 1
-114.886660 194.105030 78.889740 26 1
-119.382780 234.460910 109.728640 29 1
-96.389931 322.632050 -25.540775 6 1
-42.800842 394.837100 45.755322 75 1
21.423191 205.046490 13.059697 0 0
-10.140593 125.700130 4.234737 0 0
64.666466 233.073670 103.286000 32 1
94.232269 87.258247 -2.011876 22 1
-63.478146 207.559110 39.464397 0 0
32.372215 216.253680 85.157494 36 1
-102.522490 244.247090 60.471031 30 1
-96.115662 310.773250 -15.550755 6 1
8.982069 205.833740 78.545662 36 1
81.762100 296.410950 96.639778 40 1
-78.282272 248.507740 30.101906 50 1
-74.608536 288.287350 -71.545380 11 1
-13.814735 131.472410 -127.582770 16 1
8.914442 247.392580 12.914692 0 0
5.604771 164.111220 39.315582 71 1
-8.057596 198.953870 133.506930 37 1
76.905823 134.925370 -1.732293 20 1
2.814755 130.575700 26.565351 0 0
-124.963420 133.245190 21.684502 47 1
88.982506 84.087303 16.744421 22 1
-10.690067 320.836520 -95.104073 10 1
110.789380 197.667770 83.659050 23 1
19.581474 336.532200 35.672203 0 0
-8.916446 118.117890 -13.003254 0 0
-37.481041 408.907780 22.327734 74 1
-10.129813 407.617220 41.570087 56 1
-38.175793 137.080290 23.289825 0 0
-79.698158 261.717160 80.206116 29 1
-42.349739 160.199110 27.301121 63 1
-80.501137 312.323240 1.750972 7 1
-26.159187 402.699490 32.854305 74 1
-56.103493 246.736820 61.033489 0 0
-5.535396 145.518860 -49.135826 0 0
-113.337220 238.146000 67.994141 30 1
-75.956100 148.006390 7.077780 61 1
9.170149 106.317710 -10.798299 0 0
-39.108303 320.894650 -118.216690 9 1
65.865265 113.428260 0.158738 22 1
159.962680 210.099240 -7.284682 12 1
-92.924095 319.178990 -5.271598 6 1
3.224564 224.597960 123.011350 35 1
-87.611099 297.194890 15.091166 8 1
45.977932 290.635770 91.632050 40 1
-6.061958 161.046680 -96.698456 18 1
1.391248 179.742540 7.903934 0 0
40.325836 289.349580 48.082840 54 1
10.152771 220.299390 -2.028103 0 0
40.944130 173.864040 27.272139 0 0
-19.484684 201.738110 70.334869 31 1
-70.924217 314.923280 -17.541426 7 1
-94.042809 141.965610 6.591752 61 1
-95.139328 251.287870 10.074991 49 1
-0.091707 343.226070 111.041830 4 1
-21.221346 223.290630 28.957424 0 0
26.460114 156.219330 -103.558650 18 1
29.826605 256.257170 78.346123 68 1
108.713230 282.748900 94.278557 46 1
10.773504 121.902790 3.619773 0 0
139.982270 215.960540 22.288755 12 1
40.521099 353.447970 110.139850 5 1
112.916940 214.799940 58.010834 23 1
-31.127401 300.826840 -96.052040 10 1
-13.857962 201.548050 126.827900 37 1
5.457875 114.210390 -17.246336 0 0
61.158501 418.831570 58.257401 34 1
-20.295444 192.585560 99.021912 31 1
-67.020477 309.289030 -107.100650 9 1
9.715267 211.347290 87.204330 36 1
-7.226599 195.938250 83.979126 31 1
8.809647 423.419160 38.940285 56 1
-13.441543 274.141880 -64.680954 0 0
28.437160 146.079860 -112.103670 18 1
-91.015144 246.513960 58.914230 30 1
53.042908 218.135590 28.191565 0 0
-54.394806 257.306370 101.464440 28 1
-112.221340 235.572590 127.593250 29 1
-95.971321 265.328640 69.153336 29 1
22.663866 179.210360 6.998412 0 0
-32.292995 258.735080 78.196709 57 1
-5.440595 204.420620 123.666520 37 1
-82.342224 270.644200 69.590515 29 1
67.461288 156.633300 21.468491 21 1
-76.370316 101.201580 -8.071798 0 0
-67.580307 295.089080 -52.510502 11 1
69.466026 107.006910 4.190413 22 1
-12.661045 160.433260 -77.807869 17 1
-25.524998 308.221340 -103.078920 10 1
56.564312 281.372740 110.465290 40 1
-79.572006 245.744890 56.901840 30 1
30.452713 157.578540 8.867251 0 0
-17.946827 403.254210 34.536888 56 1
116.290600 299.588870 47.358398 41 1
-71.495461 138.790560 42.729588 63 1
-31.381817 315.372680 3.544766 0 0
-99.780579 233.380310 40.112564 48 1
89.731445 288.335390 39.706676 41 1
109.490590 291.047640 55.959568 41 1
-6.737543 167.612700 35.936924 71 1
98.456490 81.206261 13.257911 24 1
-46.282852 73.661057 -29.329538 59 1
-82.634590 145.780690 -14.190405 61 1
34.915512 282.042790 112.416770 40 1
7.188728 322.059810 -99.145599 10 1
-11.927565 130.643800 8.772561 0 0
-122.021510 135.028700 27.957069 47 1
89.584290 423.983220 58.206200 34 1
102.025620 201.593840 83.260910 23 1
-98.802979 194.033620 76.418648 0 0
-16.056076 176.640050 -39.793339 65 1
-21.976547 159.099660 -65.671158 17 1
79.977180 237.895940 108.001910 32 1
-106.249610 194.095500 115.530330 27 1
44.868866 184.858720 20.089447 0 0
-3.140111 317.124050 -92.421661 10 1
21.477592 212.170820 120.821710 35 1
-92.474068 245.234700 43.004894 30 1
-6.134085 334.756320 118.328160 4 1
-48.107811 261.055270 122.103370 28 1
34.225163 218.121230 94.526199 36 1
7.263686 143.522690 -48.720924 0 0
28.939362 280.753600 120.443340 39 1
-58.764000 159.972670 34.860981 62 1
-85.067932 326.257170 -9.462888 6 1
-51.574581 310.662990 -118.996130 9 1
5.336567 110.252880 27.530128 0 0
25.014635 318.185670 7.005782 0 0
19.167421 210.820970 104.452250 36 1
72.860504 260.094240 58.972015 0 0
52.179886 263.101380 170.098300 38 1
5.015138 97.892723 -3.731335 0 0
79.784035 116.788960 4.602679 22 1
41.295158 198.484710 159.347780 33 1
80.053627 128.128910 -37.278305 20 1
22.772223 275.540070 53.449394 54 1
16.406448 99.444183 14.508881 0 0
52.832451 418.156980 48.525837 55 1
-27.418980 270.639950 64.697960 57 1
-19.716654 408.140960 24.012712 56 1
-13.365816 315.957030 -100.875350 10 1
21.285624 316.028780 40.309460 0 0
83.675095 143.141710 -32.464783 20 1
72.080894 287.023410 67.060432 53 1
117.934310 312.590940 44.549141 41 1
-20.801973 311.022740 -73.607552 10 1
25.350775 282.509640 39.234734 54 1
114.489430 281.658570 76.815079 46 1
22.423738 126.985670 18.900902 0 0
-31.442120 129.439060 -134.359040 16 1
131.282240 204.919240 41.944832 1 1
85.321159 103.590810 17.911768 22 1
-45.951622 150.657760 13.664489 0 0
-32.979729 62.826351 -8.510364 59 1
18.030733 185.708860 1.105404 0 0
67.336128 143.221760 2.084048 21 1
-108.059650 141.196590 -75.759682 13 1
25.222466 272.254120 130.072770 39 1
45.604286 352.244720 118.741320 5 1
29.636251 335.063900 140.211560 3 1
-135.820880 200.147220 49.300900 26 1
-99.739960 154.169400 -54.944721 14 1
-111.574600 238.471540 115.163470 29 1
-64.660927 254.970400 86.713348 28 1
-3.074406 338.818080 123.593280 4 1
-3.137939 40.822159 -2.032325 0 0
46.507450 279.835660 152.586330 38 1
74.950096 129.021000 10.886241 21 1
9.567762 153.461180 21.841890 0 0
-53.521614 299.338230 -82.627602 11 1
-2.155592 169.415330 46.235466 71 1
-53.142139 301.827030 -53.673416 11 1
-35.737926 271.610200 36.191700 58 1
-9.771798 161.115970 34.001549 72 1
42.744137 271.782530 121.263440 40 1
-116.774450 137.056150 -13.822597 15 1
-117.733600 126.277750 18.534210 47 1
-73.305420 258.586940 101.113430 28 1
80.549370 152.389720 -38.159805 20 1
-58.510082 111.875140 30.506735 0 0
98.460815 273.478610 98.667198 44 1
81.638924 102.326920 31.002306 19 1
64.395447 205.875110 149.049190 33 1
-25.230394 268.691650 22.693735 58 1
55.896938 148.842740 -2.432677 0 0
25.209303 88.391296 -4.514031 0 0
54.800941 302.494350 106.818600 40 1
21.545149 153.553100 -1.136969 0 0
15.422646 239.792390 2.241999 0 0
25.079308 280.624150 107.393130 39 1
77.431679 144.395320 -45.079365 20 1
-25.033789 156.978390 10.897488 0 0
-36.182796 311.566650 -55.567867 11 1
-1.475596 167.198680 19.350378 72 1
-34.939785 159.798710 -12.828393 63 1
28.119513 275.677090 140.529430 38 1
78.044662 159.708800 -22.322002 20 1
-46.243587 105.380540 60.336349 60 1
41.477592 270.896480 160.829240 38 1
-9.801291 142.448930 -119.497380 16 1
27.424932 266.705960 54.137188 68 1
-91.164497 144.691670 -1.499561 61 1
-33.901302 111.692880 73.131355 60 1
-19.062412 53.943085 -3.837988 59 1
139.120900 190.731160 41.313938 1 1
10.753011 232.967450 0.831205 0 0
-5.259743 199.767090 113.510180 37 1
72.880028 147.089110 5.640611 21 1
64.739601 408.259550 49.297054 34 1
129.959990 199.102110 53.363190 1 1
-38.276348 193.314640 80.112305 31 1
86.056282 299.025600 66.655594 42 1
12.303670 235.865680 12.467913 0 0
4.930528 266.365600 31.822586 70 1
-106.738230 264.540470 59.503262 30 1
-53.054829 143.438920 8.539454 0 0
-73.448524 152.700060 -8.667713 61 1
-109.378400 249.418810 73.107132 29 1
63.295090 402.529240 60.373264 45 1
14.273522 153.967580 -115.619770 18 1
6.350163 234.998670 29.216080 0 0
-34.989964 81.040581 -0.838890 0 0
-28.354183 405.300110 26.367344 74 1
-45.384575 176.191730 34.574566 0 0
29.154865 206.997090 125.452700 35 1
-30.587448 139.654220 -116.237300 16 1
-41.922180 301.151280 -60.742363 11 1
104.320160 279.118650 88.097725 46 1
-97.078346 144.379530 14.932098 47 1
4.063458 140.394490 6.821776 0 0
50.055099 232.598020 113.234050 32 1
-38.100655 168.290050 31.179283 0 0
-60.426819 146.862430 16.682255 63 1
-61.962349 329.479680 -18.174219 7 1
-42.604198 125.353640 29.555666 0 0
90.874802 94.867096 1.425208 22 1
14.030969 212.919940 78.331306 36 1
72.681290 134.183210 -26.684805 20 1
19.611227 133.339980 19.665588 0 0
-24.307905 395.117580 62.956848 75 1
59.755970 132.174190 29.750807 21 1
-95.346725 253.587630 112.416690 29 1
20.677019 294.595030 18.957287 0 0
132.807370 151.512440 41.487427 1 1
152.771990 211.930080 -12.566257 12 1
-101.990890 187.481550 118.385010 27 1
-88.489891 165.000260 -68.857689 14 1
-0.870141 311.162810 -121.267420 10 1
23.961926 343.945040 33.654301 0 0
63.091213 292.631410 84.162315 42 1
-69.384926 131.346730 13.156723 0 0
60.412395 104.630350 24.943068 19 1
46.422340 294.089840 38.650261 54 1
-56.693134 325.388820 -23.786699 7 1
-44.072422 137.260680 -75.061401 17 1
-86.364395 163.233250 -47.975628 14 1
-77.267746 297.583400 -5.733527 8 1
-121.180470 209.109620 55.057205 26 1
-21.221210 102.536410 1.448029 0 0
17.961449 112.050580 19.115824 0 0
37.880135 196.673810 39.909706 0 0
-17.619844 66.245346 1.794772 59 1
-124.680650 151.752990 -33.800205 15 1
-48.577042 191.738620 84.248405 31 1
-12.097411 279.092620 118.656490 39 1
70.492165 104.064560 -9.165935 22 1
-11.882618 415.156430 35.402702 56 1
34.128185 109.593390 -0.587705 0 0
-23.934702 129.364610 37.374836 64 1
-17.838982 172.657670 -23.136837 66 1
38.354641 336.804410 130.862920 3 1
73.569855 150.596420 -14.705772 20 1
30.156160 209.805210 75.362610 0 0
92.918427 289.998840 69.785255 42 1
83.372650 415.340850 66.730415 34 1
56.088810 90.478020 42.249443 19 1
-121.406850 257.172760 57.753220 30 1
-65.813126 116.516830 26.835974 0 0
-54.587532 262.976810 92.795090 28 1
-22.298847 172.358700 136.708770 37 1
3.954791 65.714371 -5.915914 0 0
-14.217525 142.304400 -106.547780 16 1
-20.627398 197.713360 113.335330 37 1
-122.404370 194.367390 74.069519 26 1
-65.126572 95.270020 -6.440421 0 0
-146.837070 182.937450 88.284233 25 1
-83.241714 245.365140 74.632675 30 1
-2.649185 108.576390 1.057761 0 0
-19.231640 100.443120 -8.287683 0 0
31.890009 273.336730 105.984910 39 1
-11.018734 93.820496 2.980016 0 0
-8.780421 271.787570 127.285740 39 1
30.154013 207.546110 63.998356 0 0
149.136810 211.925570 12.481050 12 1
-60.297825 300.778110 -56.575500 11 1
39.903835 279.253270 124.762510 38 1
76.512512 113.295240 -9.660335 22 1
-7.584412 75.339432 -13.865381 0 0
-46.932178 264.009250 105.494250 28 1
-31.134842 252.361970 41.085255 0 0
100.064260 282.948300 80.615387 46 1
8.702672 98.448463 7.228220 0 0
-97.932930 161.288740 -44.157440 14 1
19.054853 149.300930 21.731092 0 0
135.846620 203.833710 19.387346 12 1
-58.486706 213.172550 45.693848 0 0
12.652591 214.228810 17.086945 0 0
-95.454010 312.157620 -45.517693 6 1
8.619138 277.913790 44.489532 70 1
-15.125669 272.814390 122.323590 39 1
-139.271800 186.718980 94.699173 25 1
24.233627 191.780730 11.306177 0 0
93.534492 288.038540 123.082860 40 1
21.877247 278.515900 118.212720 39 1
-1.332224 152.051710 -62.553001 0 0
12.375667 265.724400 -4.446647 0 0
141.635600 197.602310 33.856434 1 1
43.885941 128.746770 46.537201 21 1
49.054173 219.021680 125.801490 33 1
15.962598 302.636080 15.445339 0 0
-85.285553 312.926330 -3.692111 6 1
-33.842079 115.170460 6.499957 0 0
112.198320 309.717440 51.980602 41 1
-14.513769 318.381680 -78.293373 10 1
-114.588390 152.669530 -38.223572 15 1
-91.760559 319.863310 -29.657370 6 1
84.751472 132.841250 -38.141312 20 1
35.919201 348.075130 119.502790 5 1
-71.716019 161.219450 33.102882 62 1
-34.501743 228.449250 43.707329 0 0
49.540726 205.448590 148.623020 33 1
-124.129360 189.500210 81.159195 26 1
131.206800 221.910770 28.282438 12 1
-64.392578 252.334840 94.292015 28 1
11.230543 190.157420 8.020854 0 0
-78.648315 161.957640 30.212818 62 1
-20.399837 140.402100 -110.828080 16 1
-44.657349 106.393990 5.263175 0 0
51.039047 417.428070 41.242813 55 1
110.184720 224.294370 9.980516 12 1
26.286985 343.611510 115.672740 5 1
15.449315 170.402630 -89.049355 18 1
-36.076397 73.030624 -27.249144 59 1
-132.663940 134.108030 -65.963028 13 1
-5.052886 153.576480 -107.043820 18 1
21.034657 171.767910 -14.707039 0 0
-31.055502 410.503360 45.894459 67 1
-121.731330 239.598240 58.269619 30 1
-12.192563 265.423430 131.960460 39 1
-70.184547 260.151820 82.143547 29 1
-21.484114 267.631530 46.603165 58 1
-116.146610 237.976210 91.265579 29 1
58.332478 290.508700 37.121613 54 1
22.436476 209.853970 92.024086 36 1
-25.930964 69.507294 -20.224733 59 1
-30.424278 88.907242 0.739950 0 0
22.293959 332.749020 121.257780 4 1
4.824508 425.540950 34.024750 56 1
52.767651 237.696180 31.434183 0 0
-33.105137 152.815430 4.758195 0 0
46.982124 238.754710 43.075123 0 0
7.263410 125.689080 -23.603277 0 0
-27.228012 271.785890 45.243046 58 1
17.489845 284.752720 10.891767 0 0
53.893559 121.150200 43.884926 21 1
-2.421584 316.168240 -104.555820 10 1
14.656754 261.121000 -10.870984 0 0
71.285652 124.534570 23.033718 21 1
-0.222934 204.021580 105.232040 36 1
-70.956604 167.975490 13.049647 62 1
-48.870163 197.088060 41.191254 0 0
48.531361 302.124050 104.603070 40 1
91.941963 78.435242 24.461233 24 1
9.291724 129.845280 24.294353 0 0
-106.564610 141.156130 6.523399 47 1
-51.442589 385.887630 74.651985 2 1
51.699581 199.909060 161.048520 33 1
18.973700 311.438840 32.580315 0 0
31.772928 322.986300 168.931700 3 1
62.592751 230.243960 116.072870 32 1
-12.165690 269.994170 66.113304 69 1
32.530464 242.852170 78.992615 68 1
-59.568684 307.251460 -116.318040 9 1
73.319168 155.739900 -6.868428 20 1
-106.262720 248.419310 79.350601 29 1
-59.867180 329.295290 -29.811810 7 1
14.551745 99.892281 27.975882 0 0
4.884369 204.230070 125.301270 37 1
86.472054 304.944700 86.086395 42 1
22.011984 207.477570 127.831870 35 1
-13.179276 314.247650 -84.196251 10 1
-45.190727 105.828740 17.274645 0 0
-43.137653 107.690360 67.051147 60 1
65.471672 295.234620 94.536217 40 1
14.315062 173.133220 1.169929 0 0
9.772392 119.612560 -16.113594 0 0
-4.160486 103.057900 5.242680 0 0
-135.849840 198.371000 55.769512 26 1
-26.064201 398.616490 68.816879 75 1
-51.659283 250.268830 125.308400 28 1
75.670166 156.476650 -16.913652 20 1
-117.775500 195.864940 86.046471 26 1
-42.639660 161.284730 -2.536978 63 1
3.490241 72.060555 -8.402040 0 0
-85.547935 278.612670 63.902161 29 1
14.656745 347.111360 34.147255 0 0
-97.692314 320.190860 -14.854071 6 1
15.468678 104.884190 33.737507 0 0
-90.749977 309.958650 6.287523 6 1
63.508488 139.202330 9.311291 21 1
97.052811 228.555660 60.406345 23 1
-27.456312 274.652400 31.415733 58 1
-23.018177 75.970810 -0.229611 0 0
-13.186602 198.021260 79.300575 31 1
7.179784 201.208020 -0.649211 0 0
-64.204247 262.036070 105.457370 28 1
-70.268532 125.281430 38.779877 0 0
7.453610 341.549190 107.721210 4 1
13.077589 322.692600 -118.603690 10 1
-45.378983 85.053238 -3.188173 0 0
21.418026 249.728290 -1.315557 0 0
-25.246317 300.816930 -93.038010 10 1
-110.095330 141.420070 24.566544 47 1
100.572260 273.310490 88.635246 44 1
42.764187 283.271390 95.895470 40 1
11.136109 246.087740 -0.642831 0 0
11.377647 119.660290 27.462648 0 0
-138.701050 195.003040 44.959892 26 1
48.901173 288.559880 51.363899 54 1
-23.354155 202.762630 119.036780 37 1
-11.569458 281.890840 56.832535 69 1
-2.064394 70.690636 -15.091505 0 0
-150.786300 179.560700 107.675020 25 1
80.186455 422.710300 57.141701 34 1
-49.866741 119.232410 45.977077 0 0
-91.529312 150.174090 23.175972 47 1
17.899874 251.734890 81.107468 68 1
0.500656 215.737380 -4.480566 0 0
-104.145680 144.344920 34.004280 47 1
-125.513460 125.772640 -81.303535 13 1
-36.763481 406.117130 64.490082 67 1
1.592757 126.868570 -13.534381 0 0
148.600360 183.354420 23.923109 1 1
-38.027519 316.125820 -110.631790 9 1
119.144220 235.825420 -0.586800 12 1
-69.680519 115.011540 45.416882 0 0
-68.265846 308.856600 8.220391 0 0
-92.905014 272.132630 65.431412 29 1
-92.323746 244.082470 52.939041 30 1
51.481056 180.148820 19.277828 0 0
13.796577 213.278560 95.060364 36 1
-44.513172 154.425860 -11.892038 63 1
-69.967194 318.024900 -31.660690 7 1
121.718090 235.926860 9.400443 12 1
145.056370 221.388790 -4.689352 12 1
9.374415 285.349430 56.331341 54 1
-13.211544 151.863540 -93.707840 17 1
-29.102831 265.802340 36.821266 58 1
-11.825226 152.566070 -83.424286 17 1
-39.488323 143.902690 -1.132490 0 0
59.540665 270.707890 165.888580 38 1
39.235909 210.804630 134.468990 33 1
-12.242236 378.087710 37.945309 0 0
39.746357 330.654850 163.266530 3 1
14.213925 296.113010 20.517504 0 0
79.567429 115.383540 11.220404 22 1
-34.057491 410.675290 54.667877 67 1
-26.277760 150.983840 19.829697 0 0
-114.782750 146.983120 -41.877041 15 1
-19.918146 196.707140 80.605232 31 1
-48.888577 263.824430 116.176930 28 1
-83.949730 135.066850 17.134354 61 1
-93.247993 158.897510 -37.622562 0 0
-18.735445 204.429890 106.940030 37 1
8.159635 257.513760 7.442880 0 0
-28.917072 194.566480 97.297424 31 1
-26.894402 410.045500 64.519447 67 1
-67.509361 302.508700 -129.157040 9 1
138.549910 160.359740 31.725239 1 1
10.128237 168.821900 -84.218521 18 1
23.285734 99.461388 -6.535364 0 0
-7.074698 148.364990 -20.168798 0 0
-43.203728 197.266270 82.951324 31 1
-60.031757 165.087660 10.799814 62 1
12.296928 203.148560 123.172130 37 1
-18.082815 135.636340 -3.387194 0 0
34.207233 290.109950 104.715060 40 1
64.040833 132.085970 8.458555 21 1
-81.298767 311.666530 15.429199 8 1
77.533676 297.545440 85.494446 42 1
-44.358025 314.891480 -99.552361 9 1
1.760529 168.895940 34.289505 71 1
7.482294 133.239810 -3.913392 0 0
-105.476090 154.877170 -38.004509 15 1
156.185170 211.955950 -0.388102 12 1
-85.096222 315.972230 6.694998 6 1
-12.148464 329.983610 125.491970 4 1
4.233798 161.833220 -92.780289 18 1
134.418660 168.313780 49.671268 1 1
-43.476181 260.758300 127.659400 28 1
106.422590 270.956670 98.748985 43 1
28.252514 217.895100 97.723000 36 1
-0.278311 148.808460 -18.268501 0 0
121.064810 279.000090 87.214211 46 1
-18.169868 276.447240 56.755646 69 1
80.404686 275.675510 34.086521 0 0
78.634384 302.132720 120.079340 40 1
-109.152790 244.233670 83.510925 29 1
-4.618372 199.208830 105.430140 37 1
-83.755058 143.054200 27.869341 63 1
-15.569807 195.992740 123.849240 37 1
26.100300 273.021450 111.910760 39 1
-48.064617 194.832980 47.861618 0 0
-43.171474 171.859600 26.445339 0 0
-75.709702 150.173170 33.493107 0 0
26.743135 140.607300 0.973240 0 0
-60.617821 139.203460 43.535770 63 1
-37.202122 174.531600 -30.944456 52 1
-6.002482 209.840160 128.206830 35 1
-128.414950 147.499980 -22.112020 15 1
-35.387268 238.372650 39.560955 0 0
-70.696785 250.881010 105.116040 28 1
-30.618654 119.742160 44.751678 60 1
53.037300 291.188480 94.166229 40 1
-6.844796 72.786186 -24.145163 0 0
-7.207177 121.783290 44.822529 64 1
-152.536670 177.166460 97.683357 25 1
-16.310822 404.190190 40.784279 56 1
85.978737 282.318050 29.968132 0 0
56.434719 206.905560 138.830570 33 1
47.278912 410.179570 48.750282 55 1
-77.943802 137.585080 36.291885 63 1
19.415745 332.955900 158.243210 3 1
45.356144 210.833280 144.617400 33 1
37.672253 361.843260 112.648040 5 1
86.422783 274.673770 90.146965 44 1
-32.830051 189.395360 96.793106 31 1
66.863869 274.966890 69.474373 53 1
-52.385712 148.683760 4.459205 0 0
8.903234 102.207370 0.946645 0 0
10.008783 192.331240 -4.802161 0 0
-34.824844 101.865400 4.889220 0 0
-71.498405 126.348260 27.763597 0 0
31.328001 130.761180 3.039282 0 0
28.858118 219.333400 104.677870 36 1
-93.064957 201.308110 109.913480 27 1
5.340390 236.115860 17.844534 0 0
26.509924 120.012210 8.500481 0 0
-28.684072 173.031920 -37.409676 52 1
17.298513 221.057050 -8.565901 0 0
-55.916168 160.923170 1.801512 63 1
-82.675560 127.251980 13.413446 0 0
7.287953 217.810240 114.713090 35 1
-89.996895 263.834840 77.031273 29 1
22.967344 238.966430 5.953305 0 0
-104.906590 147.526790 22.529814 47 1
141.796200 218.345640 15.605467 12 1
66.478607 124.849790 35.106339 21 1
15.726233 107.861050 7.296515 0 0
133.798030 193.782150 51.033257 1 1
56.971191 281.112920 135.081070 38 1
-72.748260 316.176540 -23.642662 7 1
75.789612 138.241070 -43.306995 20 1
-92.650284 166.285510 -62.788395 14 1
-106.854890 143.765840 12.483148 47 1
-10.647490 116.749670 60.803860 64 1
16.820505 182.821820 -4.821507 0 0
-39.484814 387.357420 71.455635 2 1
16.156004 341.031920 21.731194 0 0
-26.126184 260.524660 77.338387 57 1
16.177904 331.297090 15.695310 0 0
83.255432 271.327300 82.917198 0 0
45.087189 224.753310 114.329810 32 1
56.576355 419.994290 36.870308 55 1
119.008600 208.374110 67.352409 23 1
-86.542236 143.948590 3.148396 61 1
-33.047775 140.858280 -92.294449 17 1
16.331854 105.522330 21.105288 0 0
-98.231026 250.870130 103.853000 29 1
98.256042 287.098080 60.458794 41 1
-113.999600 237.970180 53.587299 30 1
9.057407 215.208710 4.957679 0 0
54.451298 279.402980 147.366240 38 1
-86.500008 164.613950 -57.793732 14 1
-10.652887 277.817410 63.737133 69 1
38.953949 162.288220 -1.625093 0 0
10.328168 212.511180 122.497570 35 1
-58.386459 308.030610 -63.800667 11 1
40.358589 280.197200 142.542630 38 1
5.027506 155.686200 17.825583 0 0
-0.524694 287.201810 61.180080 54 1
-115.000940 132.793850 37.458740 47 1
77.299217 124.082180 3.602346 22 1
5.304016 242.312810 35.676174 0 0
-75.582794 308.837190 -0.545415 8 1
114.392380 272.774720 111.257710 43 1
60.292439 223.696230 30.372383 0 0
-35.959263 153.304990 22.443523 63 1
-83.094299 250.857040 54.801735 30 1
-87.287766 292.557250 7.363553 8 1
9.613406 344.678070 14.118107 0 0
-14.360968 158.948900 -65.267593 0 0
113.841130 294.963680 68.179680 41 1
92.804543 414.569580 62.182457 34 1
16.493710 221.757020 119.725710 35 1
-70.453995 297.208590 -62.205425 11 1
16.416367 332.858460 142.007690 3 1
112.884400 228.928940 29.556110 12 1
-90.442467 250.421390 17.242262 49 1
99.389534 68.904816 14.098821 24 1
108.712270 286.884640 66.041397 41 1
78.041275 300.549530 74.004089 42 1
2.037414 212.214650 129.482880 35 1
-32.157909 164.520800 29.864223 63 1
51.576714 404.525510 80.228523 45 1
-27.715574 394.904170 77.827103 2 1
-114.644830 150.230190 -12.502942 15 1
54.016865 290.028110 113.552350 40 1
-14.728005 154.583790 -75.863625 0 0
139.149460 223.344860 -12.724927 12 1
-12.664983 308.396970 -117.256720 10 1
25.248333 349.709410 29.572401 0 0
70.654381 291.765290 116.910280 40 1
8.331800 104.239680 16.461357 0 0
-99.066772 160.773820 -56.638885 14 1
-29.788446 156.909520 -83.731979 17 1
51.554977 97.088829 34.570518 19 1
20.235083 333.847290 135.759220 3 1
43.379887 215.383900 109.613270 36 1
115.042370 289.842560 72.551788 46 1
7.785897 132.886980 -33.680592 0 0
58.161213 141.934740 36.649368 21 1
-9.104567 266.615420 122.836650 39 1
-48.938442 206.058170 42.691597 0 0
54.964241 404.664860 55.279800 45 1
89.923157 422.074740 65.060280 34 1
34.709095 276.842250 147.045060 38 1
124.905600 311.506200 46.969727 41 1
14.723289 147.141540 8.465927 0 0
-73.552544 305.011440 8.215894 8 1
65.462723 149.492390 21.457464 21 1
-23.528669 307.566560 -79.355896 10 1
-123.008920 230.188250 119.875430 29 1
8.524826 260.393800 131.118640 39 1
-4.778076 190.044560 84.493462 0 0
-70.668159 310.965850 13.767446 0 0
-48.693035 395.049350 41.650642 75 1
-66.333260 302.889590 -103.293650 9 1
-1.258031 190.839600 -1.536976 0 0
15.711833 324.423740 9.246698 0 0
4.632014 269.894740 51.516567 70 1
-95.119545 249.006200 122.572170 29 1
-17.448921 177.901720 136.361080 37 1
94.944153 268.719790 103.151970 43 1
-42.556065 271.534060 26.677647 58 1
-59.049347 150.132100 -3.612323 63 1
16.858547 320.377410 23.283859 0 0
31.289892 149.952910 2.907891 0 0
-11.612065 261.799530 14.925918 70 1
57.435825 413.223750 45.576355 55 1
52.517609 127.615960 40.144363 21 1
-98.912872 197.990570 114.092740 27 1
-108.530510 312.741060 -22.124018 6 1
-49.722275 275.028350 100.522480 28 1
63.849457 122.750820 14.679158 21 1
140.717030 222.625240 7.679098 12 1
11.174255 121.460580 -6.815402 0 0
52.723984 295.242920 41.244522 54 1
137.431660 171.621810 43.741562 1 1
-98.654938 150.881960 32.486828 47 1
67.741241 420.003140 60.097343 34 1
-4.986812 193.461870 132.450780 37 1
-30.462887 161.022290 -71.015686 17 1
-62.318062 307.751400 -124.731450 9 1
-41.121155 310.042510 -43.699341 11 1
-116.964020 204.846220 65.113358 26 1
-36.597324 402.685180 70.576874 67 1
29.731920 158.163470 -93.837982 18 1
20.899569 216.068370 111.716950 35 1
59.341019 285.147130 118.385330 40 1
37.969677 272.781590 110.802810 40 1
80.138855 272.197020 27.726772 0 0
-19.523426 73.475761 -21.872803 59 1
42.493477 153.865630 -9.615759 0 0
-115.732750 200.503970 77.401276 26 1
-14.826759 175.899490 -51.029972 65 1
30.412275 212.073940 135.398760 33 1
-96.354530 159.872800 -62.499184 14 1
37.376060 286.517270 60.626423 54 1
-4.505874 139.893170 -1.580092 0 0
86.648338 98.182945 -9.018548 22 1
-62.787594 158.101670 -7.624697 63 1
52.773258 283.209380 152.437180 38 1
85.640411 104.749490 -1.741860 22 1
-106.886360 165.190930 -18.426815 15 1
-7.208526 126.862140 40.532883 64 1
-31.559330 137.529110 -104.991170 16 1
-54.888630 310.378540 -105.548700 9 1
52.983501 227.759020 117.238110 32 1
22.867203 178.285400 0.189696 0 0
-5.167341 251.366320 -37.814342 0 0
-89.655380 247.155320 65.085686 30 1
31.850237 366.458070 30.244682 0 0
-37.918694 406.391050 51.212646 67 1
-13.606627 192.594310 99.621521 31 1
-48.690575 167.256530 -35.868343 52 1
-121.589970 155.277740 -27.212559 15 1
74.017578 100.048930 35.523415 19 1
18.175411 265.707120 57.951992 68 1
-82.610466 136.214550 -21.171789 61 1
41.730579 209.447950 122.185910 33 1
-89.760513 325.206760 -5.322922 6 1
-6.632380 144.959340 -41.638733 0 0
-26.620239 226.879440 34.141228 0 0
44.505653 132.392070 -6.041401 0 0
23.229584 107.608040 -12.801367 0 0
-32.605972 311.435000 -94.093040 9 1
55.048779 279.449680 120.632770 40 1
-12.003842 122.931400 59.992386 64 1
129.464360 221.865420 6.288047 12 1
49.865021 239.464290 104.077580 32 1
-11.388039 171.375110 -29.475800 66 1
29.367699 214.164730 110.419440 35 1
86.206650 102.476650 8.678896 22 1
-82.332306 148.686310 24.050619 63 1
16.500105 333.311740 26.883228 0 0
33.289513 203.136120 149.817520 33 1
41.452000 265.470120 167.796110 38 1
-44.656525 127.962330 37.549145 0 0
15.487659 161.809040 -92.627357 18 1
-78.303535 160.629470 24.034327 62 1
73.261986 300.795780 82.005157 42 1
29.347946 354.611330 29.642765 0 0
-78.405502 299.694400 5.520878 8 1
-147.292800 182.431410 99.461670 25 1
105.388630 214.382610 65.603249 23 1
51.764915 204.658040 20.943047 0 0
-7.225867 323.044740 -84.547394 10 1
93.478668 82.622444 5.092416 22 1
-0.699818 160.690460 30.233685 72 1
-53.889343 314.599850 -125.665120 9 1
-58.718891 119.897770 28.406866 0 0
-47.607910 128.651090 -79.104637 17 1
-0.215139 118.766010 57.797619 64 1
95.417381 283.374820 46.705059 41 1
-11.070112 282.939150 40.520069 69 1
11.809072 57.311378 -11.113187 0 0
-37.322811 68.188454 -20.926401 59 1
-103.813420 239.217860 50.072975 30 1
-40.333553 143.666020 -65.057365 17 1
-46.324139 394.700930 53.492207 75 1
-20.301357 130.289660 25.249819 0 0
22.656050 335.765720 111.786960 4 1
-9.113037 154.559970 -98.533493 18 1
11.487102 320.719730 -87.660858 10 1
-13.046456 129.338780 14.835737 0 0
126.750500 274.675810 94.167793 46 1
103.655530 274.391750 107.021400 43 1
-62.252258 306.009250 -46.345543 11 1
-64.531876 297.141820 -43.873688 11 1
-87.998543 142.009960 -12.201706 61 1
74.778549 262.549590 114.287350 44 1
-4.198048 280.699310 43.036861 69 1
71.736366 292.833800 101.985790 40 1
81.517181 116.455020 -6.717341 22 1
-49.884247 307.117430 -51.181862 11 1
39.004642 207.668120 144.161300 33 1
88.008698 79.573692 31.829437 24 1
146.992570 167.615100 26.614201 1 1
49.764587 403.956390 47.566833 55 1
20.831896 128.775470 29.245165 0 0
-103.772220 309.739690 -8.282906 6 1
-37.045078 266.711520 64.078766 57 1
-66.600502 158.572590 9.880149 63 1
88.937675 298.275150 84.254242 42 1
54.743385 208.689010 146.793230 33 1
-31.325300 71.883438 -31.203289 59 1
24.974319 271.117220 152.274580 38 1
25.137356 209.018310 98.923447 36 1
40.944283 219.783450 103.553440 36 1
20.735859 241.013460 13.197994 0 0
-106.015370 149.189130 -47.173935 14 1
17.852242 268.648070 30.431948 70 1
94.015244 296.431400 67.524582 41 1
47.489410 282.569120 140.410220 38 1
-33.267174 263.701570 45.243061 57 1
45.833858 285.703430 41.718971 54 1
67.806168 111.357430 11.507871 22 1
-42.800503 267.640930 108.522970 28 1
68.493256 280.931490 65.588890 53 1
-3.302283 269.209320 9.706153 70 1
41.598209 204.685440 23.494928 0 0
-8.785281 254.165050 122.582850 39 1
-66.594429 165.596360 26.726574 62 1
17.925234 263.908630 4.556341 0 0
-25.757866 143.210490 4.424254 0 0
-92.813805 162.706860 -73.596001 14 1
-60.988018 315.023800 -94.641541 9 1
79.531242 271.326900 111.003460 44 1
-53.411785 274.288120 90.700920 28 1
58.226864 126.061350 35.901760 21 1
0.522399 107.731090 20.190670 0 0
-54.297070 188.559570 80.817719 31 1
-111.978320 245.364550 51.732227 30 1
74.646332 146.664540 -24.963013 20 1
-6.229829 416.244750 45.048325 56 1
93.369377 90.214600 -11.566758 22 1
6.988198 264.533540 57.423443 68 1
25.183977 261.183930 78.020599 68 1
-39.646420 124.832900 0.747263 0 0
81.653511 272.067900 101.222920 44 1
44.976185 219.925460 95.843979 36 1
141.092410 226.450680 -7.318393 12 1
17.989403 210.578540 73.608734 36 1
12.982969 138.431550 27.865116 0 0
-35.562054 387.725100 55.266838 75 1
95.507935 295.401520 100.601060 44 1
77.553734 151.847730 -28.700687 20 1
-79.397781 121.842770 47.906021 0 0
-71.334351 249.997570 16.707365 51 1
29.829247 163.334590 -13.359511 0 0
-4.307132 114.967740 10.404406 0 0
-22.056662 123.503740 46.703163 64 1
85.870155 291.998260 53.588009 41 1
17.624739 259.150120 83.229263 68 1
-72.358490 316.598080 -6.163880 7 1
-18.683756 161.380170 -83.050209 17 1
66.361847 253.152880 51.138268 0 0
-23.891850 269.509920 32.820900 58 1
34.128872 288.108860 18.211756 0 0
122.985720 299.654540 65.831215 41 1
17.846725 177.242690 -14.359168 0 0
-9.015782 340.219150 119.643520 4 1
-121.323890 131.946730 12.445743 47 1
22.032187 316.095950 49.686069 0 0
31.213991 280.925020 45.937210 54 1
-56.116714 381.438720 70.590691 2 1
-125.922070 193.958080 102.228570 25 1
64.732040 353.485170 117.830500 5 1
-55.191193 324.980870 -39.098927 7 1
-85.115379 244.350710 91.830894 29 1
132.028150 199.866350 36.600449 1 1
0.308693 96.292694 -7.503915 0 0
12.036802 147.667140 19.465612 0 0
83.834442 98.360909 26.123188 22 1
-90.769058 309.544370 -0.849250 6 1
