-11.173145 107.791610 48.868904 29 1
-60.095432 219.284500 -23.787235 3 1
-61.514477 199.902050 51.273212 5 1
-41.173477 227.268080 33.075642 5 1
-90.661552 208.145830 5.188254 2 1
24.803942 142.100250 -39.051811 8 1
35.408752 94.036552 -62.450943 27 1
-57.005665 120.280010 7.634331 18 1
-21.818039 126.763840 -68.812004 9 1
26.386841 54.133411 35.310421 12 1
-18.730392 86.287132 -86.737961 46 1
-66.066299 106.609330 44.832443 17 1
-9.371505 91.856445 -50.354950 38 1
-55.698299 123.862080 4.885449 18 1
26.282495 215.806050 -36.520874 24 1
-21.665649 81.386269 -91.877724 46 1
-52.053932 216.838700 13.259659 5 1
1.393949 117.180270 57.220455 29 1
3.440117 30.229351 -15.529289 0 0
-17.159990 70.678894 11.643069 0 0
32.081791 188.818800 -4.276070 40 1
15.126059 196.439560 25.988539 40 1
-10.246037 97.105057 -41.095764 38 1
-14.679928 84.484077 -18.259430 37 1
50.008129 145.736190 -10.122344 7 1
75.430145 127.883190 -0.161707 7 1
-51.799191 220.397930 33.752880 5 1
50.962593 138.872910 -21.875584 7 1
-9.179038 174.361390 57.603004 39 1
-46.254868 224.598190 12.037544 5 1
-48.912712 128.845210 20.530502 18 1
-58.395653 146.789660 -49.595695 4 1
-87.372635 201.264190 -17.966217 2 1
-71.984673 105.534480 42.562271 17 1
-8.175185 215.708340 2.241995 0 0
-18.133713 112.470090 16.652388 42 1
-30.808449 142.179310 -38.018188 0 0
-28.964201 140.518770 -67.714638 9 1
-59.650478 208.364040 -32.294819 3 1
-64.945930 141.679600 -40.960934 4 1
-87.989540 210.820400 1.969197 2 1
0.981523 140.168960 8.542282 0 0
44.388084 195.904020 -19.110344 26 1
-61.650837 64.394630 59.300243 13 1
34.102066 191.836300 -65.198952 24 1
-72.255135 220.588150 -19.321186 2 1
-45.475727 224.105900 17.197668 5 1
-21.768682 180.789060 48.214935 39 1
-88.386627 204.975200 -8.850809 2 1
12.248650 213.234820 -32.901997 25 1
6.061408 207.585980 -15.014273 0 0
-5.279417 130.500780 33.139801 29 1
0.811066 73.576736 -67.547241 28 1
-5.257451 177.230870 54.237331 39 1
-24.477259 51.217133 23.263151 0 0
-9.413304 135.174840 -54.474968 9 1
47.664635 29.863937 73.822266 1 1
-45.345535 153.967540 -76.051788 47 1
42.425350 104.841160 -36.472809 22 1
57.443039 137.672840 -27.733528 7 1
-28.054739 109.832190 51.439827 19 1
-47.124165 75.736534 -59.469982 10 1
53.389053 135.177080 -34.760326 7 1
9.936844 5.766022 -4.580026 34 1
-11.401181 189.846410 44.298378 39 1
-30.524103 66.808434 58.700840 14 1
-43.975037 223.147130 40.369953 5 1
18.945087 99.761833 -50.883533 27 1
11.101495 32.266171 -53.678139 44 1
-40.721626 152.640110 -88.003502 47 1
-19.726175 78.110382 -9.370600 37 1
-5.652469 49.063221 1.559255 0 0
-23.968239 74.677956 -27.039326 36 1
-5.193836 195.064560 40.187729 39 1
-26.210194 84.748680 -67.995010 10 1
5.658491 212.151370 -37.357609 25 1
1.381047 185.327680 54.522076 39 1
-41.407127 95.753548 53.678841 19 1
-6.792881 200.385160 27.326269 39 1
-88.248871 198.212190 -7.850466 2 1
-45.818699 199.374680 -43.588715 3 1
-15.534406 137.838180 -55.673992 9 1
-51.834774 224.881770 20.713240 5 1
81.860855 121.661770 -14.614341 7 1
-6.985537 96.292221 19.475071 0 0
-23.068865 118.998950 5.257701 35 1
-1.697274 186.890810 -0.749545 0 0
31.352600 106.979010 -48.167385 27 1
33.041245 190.006530 13.951484 40 1
-6.039505 172.903880 2.422808 0 0
34.047089 117.389440 18.961651 31 1
-48.202641 68.298347 46.556042 15 1
2.693358 65.648132 -65.097397 28 1
2.255192 26.715277 63.613461 23 1
12.190906 33.207973 -31.321341 0 0
-14.453550 96.636436 -62.076500 28 1
-74.703262 132.779190 -34.616871 4 1
-9.630148 78.386269 -40.960388 0 0
-1.380824 79.735748 -67.405945 28 1
-95.930969 184.417500 -15.674726 2 1
37.633087 198.175720 46.232552 30 1
-3.237180 103.388790 22.544458 0 0
-3.343917 15.180110 1.667955 0 0
-53.037430 222.001590 5.487388 5 1
-8.790314 58.788746 -12.316454 0 0
31.698702 117.724090 14.933553 31 1
-49.574013 223.294910 -1.685206 5 1
12.633750 208.900730 -50.151840 24 1
-1.233222 198.998900 26.281727 39 1
69.466743 133.129330 -20.941687 7 1
41.434570 37.484184 26.384645 12 1
-8.053251 55.068989 -1.994179 0 0
71.599762 132.264950 -58.980309 6 1
-77.421371 209.887270 -22.122643 2 1
-54.951904 115.871830 42.161022 17 1
23.199986 195.094390 27.360397 40 1
-44.524143 224.400310 -9.944171 3 1
-50.209877 199.453700 -39.706696 3 1
2.926147 81.641441 -24.674175 0 0
-30.861542 70.840790 -30.074627 36 1
10.105970 65.540024 -53.939335 28 1
-7.463766 108.153500 12.993900 42 1
-41.578335 103.362110 54.434887 19 1
-57.325985 67.689911 60.504032 13 1
13.032350 198.404790 15.616062 40 1
-72.684341 146.232820 -76.591583 47 1
20.987700 202.563540 38.451771 30 1
-23.641844 134.834180 -67.500870 9 1
1.632174 38.665180 1.404068 0 0
-32.787258 226.065310 -27.951801 3 1
16.097841 96.423622 -48.088127 27 1
-59.289661 213.893740 13.302769 5 1
-38.326725 153.662690 -55.703968 9 1
-33.419083 96.432526 53.908901 19 1
-10.456274 94.998856 -62.383476 28 1
79.812401 121.294040 -8.907296 7 1
-0.077472 43.940243 8.855843 0 0
39.545433 195.567060 -13.761568 26 1
40.534962 138.382680 -39.526909 8 1
-67.706253 212.287290 14.805211 5 1
-6.769354 103.936780 6.586772 0 0
-38.133549 76.565895 1.949755 16 1
27.052788 84.650543 -69.774872 27 1
0.938121 129.851780 36.140968 29 1
-10.059505 28.489910 1.676464 0 0
-34.404949 210.768940 -39.304546 3 1
-31.191202 195.787200 5.844685 0 0
12.595064 73.006996 -50.717018 28 1
-52.347073 127.776470 7.665415 18 1
-51.894791 203.135330 -42.423431 3 1
-67.767525 200.477110 33.837795 5 1
10.097713 69.869179 -55.641304 28 1
-8.564012 98.092850 -45.086826 38 1
-14.116747 96.867004 -38.567043 38 1
-13.085474 36.725201 4.849239 0 0
-31.071711 55.268650 26.395058 0 0
0.516635 124.988260 43.192852 29 1
-7.014561 0.106232 2.594028 0 0
-33.291988 80.107651 0.672058 16 1
-12.278977 212.432740 12.583820 41 1
-66.526764 133.699300 -102.798910 47 1
8.422666 45.135822 55.738926 23 1
-48.567333 74.690086 -21.637650 11 1
10.634721 129.334840 28.038433 31 1
18.873589 124.000060 12.495546 31 1
31.411247 197.075300 28.213663 40 1
-31.640318 214.835890 -31.871836 3 1
-1.920247 46.222359 1.551051 0 0
-10.587399 97.636978 4.007768 0 0
8.016960 199.713870 22.742805 0 0
-9.558000 139.937390 -49.681328 9 1
29.700066 55.027382 46.401329 12 1
-90.242836 191.124020 -26.619682 2 1
14.623069 38.565079 -53.949272 44 1
51.593349 178.539690 4.159749 40 1
-57.693871 209.934430 -36.462936 3 1
-43.168060 231.462570 29.117613 5 1
-39.769508 204.207340 -48.366867 3 1
-42.086887 202.561250 -41.962433 3 1
60.033039 98.372963 -43.665337 21 1
57.183575 137.661330 -15.094282 7 1
28.248476 142.239760 -33.756718 8 1
-9.320342 203.903810 4.534822 0 0
8.802266 163.842160 11.053271 0 0
-8.871739 204.917800 -44.257339 25 1
34.010609 49.976871 27.536573 12 1
-48.597858 75.012360 -13.958464 11 1
24.038479 128.963960 43.144489 20 1
-28.314716 149.135150 -46.390770 9 1
-41.908913 81.287338 -60.096130 10 1
-3.206402 50.428799 -1.685304 0 0
62.636284 126.650220 -68.283653 6 1
-65.890892 100.770800 47.622021 17 1
10.784704 82.744431 -57.723190 28 1
-68.834389 142.374850 -27.219376 4 1
-69.386909 138.117420 -32.411613 4 1
0.376987 189.383010 41.331295 39 1
-11.870796 79.877197 -37.127022 38 1
2.578623 125.790850 47.759380 29 1
15.108168 78.802750 -55.022209 28 1
18.620724 42.818569 -44.251118 45 1
-12.501386 97.448242 -26.310204 38 1
-41.116058 75.108177 -65.791374 10 1
-9.606126 211.979610 -30.473623 25 1
-1.579518 196.212080 33.507484 39 1
-8.146608 9.840577 -3.794609 0 0
-69.652405 111.959640 38.400200 17 1
-22.238384 153.763890 -45.339966 9 1
17.365524 131.314030 33.278645 31 1
1.056708 90.393982 -60.061970 28 1
11.070696 212.029880 -47.221817 25 1
-14.864262 40.586372 6.069141 0 0
-9.887343 151.392530 4.108098 0 0
-6.665289 126.851960 39.992825 29 1
27.802822 199.866420 57.809738 30 1
-8.290978 110.301800 53.325279 29 1
84.242874 134.126660 -46.128292 6 1
-37.891109 230.876250 -16.225912 3 1
-8.792487 71.642120 -28.477919 0 0
-41.512371 65.807808 62.065048 14 1
-9.972621 74.358185 -100.465610 46 1
-44.236107 115.040480 48.096786 19 1
-81.139816 211.278840 -17.164631 2 1
-71.420509 137.178040 -21.407347 4 1
-60.160515 213.578720 -29.597198 3 1
-31.011999 118.165530 39.216076 19 1
-41.135994 79.840431 -13.597906 11 1
-18.357849 92.738670 -25.741077 38 1
-42.677238 221.548840 0.524993 5 1
32.040352 203.272320 -7.752606 26 1
-2.157977 58.237137 0.418792 0 0
65.093765 134.704010 -57.763649 6 1
25.841183 98.102921 -54.502171 27 1
-0.342962 36.683987 -47.403084 44 1
-0.902420 85.141365 -25.224634 0 0
-63.930714 144.266720 -87.167900 47 1
27.341866 102.808310 -39.606731 0 0
-13.308440 211.620880 -32.876808 25 1
11.448332 197.602430 45.286953 39 1
48.582817 144.786030 -22.583849 7 1
-4.688784 93.237099 2.895012 0 0
29.950081 38.978992 -29.578663 45 1
-58.464916 119.832310 25.872606 18 1
-27.362415 223.263810 6.848114 41 1
-27.883900 226.797810 -31.671021 3 1
1.834367 43.608299 52.591553 23 1
-22.354504 91.711273 -81.161362 46 1
1.317648 93.388618 -56.946014 28 1
-59.876263 203.213520 -31.470198 3 1
-18.237171 212.599430 24.880114 41 1
11.530261 35.132603 -57.895603 44 1
27.324465 192.351940 9.251464 40 1
5.667176 56.707642 -20.338278 0 0
-10.046041 74.634689 -33.587681 0 0
-4.279461 36.851070 -8.346308 0 0
53.930157 180.203400 9.655076 40 1
-65.916725 60.441830 32.221954 15 1
-70.925842 138.621990 -98.010094 47 1
-83.990257 212.631710 -4.336316 2 1
-44.976292 230.088180 17.537041 5 1
-5.414756 3.223046 -1.893175 0 0
-20.142920 79.985855 -21.672760 36 1
-47.003136 226.452590 30.804146 5 1
16.889822 196.357500 18.127876 40 1
-4.534079 210.105940 -43.387188 25 1
-14.934134 55.343575 8.121568 0 0
68.351204 135.384550 -10.523999 7 1
-2.762152 30.076635 57.466324 23 1
-13.726625 126.321400 15.772346 32 1
-82.438210 216.619250 -0.043711 2 1
-43.402683 204.637510 -37.445187 3 1
-23.746067 138.209670 -64.967392 9 1
-54.013458 146.916060 -83.383369 47 1
-68.540817 133.595120 -99.082458 47 1
-14.599915 211.367290 20.637587 41 1
-50.766060 208.031590 -28.615589 3 1
-0.928299 125.502490 50.098583 29 1
20.704683 90.288757 -62.677677 27 1
9.462572 191.668080 10.517881 40 1
-39.381248 83.364807 -17.408749 36 1
86.389267 123.710800 -54.046589 6 1
-31.440002 217.245650 -41.421120 3 1
25.134201 49.342194 50.948265 23 1
-92.977516 185.635820 -24.352341 2 1
7.214832 159.213590 14.177415 0 0
-31.307348 82.159241 -93.076340 46 1
15.868299 130.489200 52.213219 20 1
-34.394978 75.088326 -66.932320 10 1
-9.460795 64.938225 -23.388929 0 0
22.420368 201.649690 -53.537395 24 1
-6.843861 92.037590 -45.914070 38 1
-46.651230 149.287280 -83.245483 47 1
-26.803291 212.610240 10.710427 41 1
-53.629242 223.315320 0.292035 5 1
-32.098858 145.594360 -40.214767 0 0
16.303513 214.847460 -14.752692 26 1
7.156315 30.888582 -56.477867 44 1
12.300950 216.663910 -15.140682 26 1
-62.305725 141.097410 -49.910580 4 1
22.024597 129.340880 -51.491936 8 1
28.585585 39.551056 -39.209778 45 1
-21.621689 96.821594 -59.107651 10 1
-38.692883 113.626560 42.363693 19 1
76.072365 128.738010 -20.365768 7 1
-50.447685 126.799400 39.067120 17 1
-62.049000 147.365710 -37.242317 4 1
35.284439 141.818390 -34.650074 8 1
-52.513695 154.380580 -38.902355 4 1
23.429012 122.618420 -59.894882 8 1
30.572960 109.284160 -26.124426 22 1
0.075048 211.757860 -44.998661 25 1
49.628403 143.744900 -14.956221 7 1
24.304955 202.349990 33.839714 30 1
-56.146164 65.906792 -13.400108 11 1
60.708435 139.268330 -44.202141 6 1
-77.170952 216.409970 -16.626354 2 1
76.614334 127.257480 -25.883150 7 1
5.723176 35.766335 -52.478359 44 1
53.217846 102.001450 -47.363937 21 1
56.089916 91.483978 -50.506336 21 1
-16.200735 147.157040 -41.215332 9 1
-29.997978 86.400673 -86.188255 46 1
16.287304 199.377170 8.175152 40 1
-51.021343 226.488650 14.338764 5 1
-23.680067 146.205030 -64.391853 9 1
29.166126 122.637200 52.450951 20 1
-53.399689 66.742493 -20.124714 11 1
-3.897439 121.453140 6.900711 0 0
-53.413624 113.484920 48.747707 17 1
-26.582886 215.457020 18.155615 41 1
-25.421968 211.861370 27.152420 41 1
23.185217 106.932090 -44.155708 27 1
-10.114306 211.064500 -38.894161 25 1
-54.651913 220.451290 26.288931 5 1
68.202240 123.313820 -68.001579 6 1
48.142166 175.824460 -2.821349 40 1
-68.163872 213.762070 19.815096 5 1
-15.985910 111.153870 6.684819 42 1
-32.899399 154.646070 -59.524796 9 1
-6.918434 29.871445 57.741440 23 1
-13.729460 98.870590 -34.196327 38 1
-2.309996 109.782290 24.661098 0 0
22.994894 131.777250 40.248825 20 1
24.709431 32.521996 -57.565685 43 1
-16.489410 91.412773 -43.191303 38 1
34.323002 131.184770 -52.333286 8 1
5.502394 45.818283 -11.675299 0 0
21.549114 89.462822 -55.406769 27 1
-2.632823 10.322497 -0.064764 0 0
72.545418 131.532420 -7.586616 7 1
-55.200089 121.215700 20.173971 18 1
-13.899676 63.899223 11.866920 0 0
30.708595 55.080799 38.878582 12 1
25.629084 43.432541 -33.596622 45 1
-10.564138 211.205780 28.317312 41 1
-4.942399 9.013833 7.804692 0 0
61.418839 134.146270 -23.373163 7 1
-6.012396 118.243890 52.413731 29 1
-62.136238 122.574770 38.781013 17 1
-17.464764 83.514641 -89.999519 46 1
-61.234505 220.461120 1.821511 5 1
28.054131 48.020111 58.541924 1 1
34.805779 194.603240 -3.154382 40 1
-42.687778 74.616837 49.066730 14 1
-58.954182 149.531910 -76.273544 47 1
-45.591084 152.634290 -41.832245 4 1
-83.614143 205.221300 -6.921882 2 1
14.116858 35.211483 -39.402016 0 0
-13.059519 104.642010 4.656614 42 1
27.552620 122.769970 27.031740 31 1
46.600094 104.347530 -31.497774 22 1
53.865231 102.648610 -43.068954 21 1
40.937027 136.215850 -43.402794 8 1
-31.186186 220.287980 13.099071 41 1
23.911259 125.271820 49.013153 20 1
62.528732 128.600420 -63.905842 6 1
-46.297058 123.230740 39.679249 19 1
-8.702630 90.371490 -85.616455 46 1
-57.542740 203.048000 42.463406 5 1
19.709129 201.003330 26.753696 40 1
-4.444136 34.701313 53.014767 23 1
-66.345001 109.209220 38.415089 17 1
1.210719 41.493626 -9.291965 0 0
7.161546 193.093640 19.008085 0 0
82.896889 122.173230 -61.434364 6 1
-26.003719 88.793015 -68.904099 10 1
-7.219084 117.863530 3.898793 0 0
83.387184 116.927580 -65.571198 6 1
-64.832024 142.465790 -33.691486 4 1
2.152939 209.831880 -40.749832 25 1
42.191959 186.491650 -7.324980 40 1
-4.543065 184.691680 44.548283 39 1
-13.781386 91.442162 -19.281319 37 1
-44.513325 120.812980 30.015530 18 1
-8.411756 63.131863 -16.759296 0 0
25.453629 121.378150 16.105314 31 1
-20.191549 172.884340 2.784465 0 0
-28.672834 78.736824 -71.239349 10 1
22.290970 37.442150 -54.873852 43 1
36.309376 48.976463 59.330189 1 1
-96.195801 181.330370 -23.922613 2 1
-58.739326 147.612050 -31.741451 4 1
-52.287231 149.141340 -42.340462 4 1
-12.884172 200.464890 29.286169 39 1
-59.563354 111.318190 42.730751 17 1
46.287247 182.458400 -5.018022 40 1
-4.814705 113.533930 56.273678 29 1
1.222095 116.483740 27.390043 0 0
2.202165 221.561950 -21.259686 25 1
-4.371094 83.847260 4.889726 0 0
28.888681 133.047880 -46.673679 8 1
-21.812342 77.020615 -96.016350 46 1
8.714338 195.880720 14.049346 40 1
-68.382965 196.880570 50.098854 5 1
27.237722 208.440600 -22.580105 26 1
-1.675404 86.329498 -64.997742 28 1
-56.222641 212.195050 -23.711380 3 1
-20.096985 94.339577 -73.819092 46 1
1.227767 8.745096 3.530331 34 1
10.357430 85.219810 -49.886642 28 1
21.001066 125.796250 60.284264 20 1
19.625769 198.286090 -59.743748 24 1
-67.013481 144.298230 -80.883240 47 1
-12.305738 121.711480 40.253540 29 1
-7.759439 188.399730 2.308269 0 0
-2.207841 54.329277 3.801817 0 0
-72.217873 136.990570 -40.545864 4 1
-12.884799 107.019530 8.433955 42 1
-24.020475 142.308170 -60.874397 9 1
-18.508228 122.579010 9.692315 33 1
-45.648907 159.212220 -72.292732 47 1
30.605928 139.641880 -41.040951 8 1
0.027346 217.557450 -21.253853 25 1
-55.419762 149.538240 -19.838816 4 1
-6.383557 106.980450 57.576862 29 1
-43.010601 77.562920 -18.198547 11 1
81.489861 124.148380 -11.353063 7 1
23.335022 50.068375 45.010193 0 0
23.160591 214.882370 -47.006622 24 1
-56.275311 223.711840 -7.152875 5 1
53.975746 140.439150 -14.220919 7 1
35.470020 210.722580 -28.930323 26 1
-91.136154 196.703430 -14.072692 2 1
-21.477486 215.638110 23.431778 41 1
36.533352 124.361740 52.271999 20 1
-4.107611 72.408951 1.169079 0 0
-19.171598 132.312850 -64.256439 9 1
-19.709681 90.182159 -30.729218 38 1
17.162649 118.389660 -61.177547 8 1
-43.919624 230.927440 6.973885 5 1
-31.729118 77.683296 -19.908016 36 1
44.570503 188.982640 7.152592 40 1
24.063238 98.789810 -39.511398 0 0
20.056664 210.822590 -8.074317 26 1
-56.281929 147.567630 -41.640762 4 1
31.144936 123.338110 59.032986 20 1
-48.238892 152.924100 -36.422283 4 1
-84.392136 209.147130 -11.355474 2 1
25.019348 103.029470 -49.341824 27 1
-15.357945 127.553410 5.190767 33 1
-1.936436 126.791400 37.555241 29 1
-45.150162 156.098020 -25.165243 4 1
63.734730 132.326250 -29.702345 7 1
-62.562691 210.640550 31.455252 5 1
19.866236 197.733020 1.239671 40 1
-50.956467 158.549070 -66.840599 47 1
-10.163350 179.225590 49.034821 39 1
4.707171 146.690630 10.725540 0 0
75.102066 126.794000 -6.987704 7 1
30.941767 205.252930 -16.573664 26 1
64.121605 133.871150 -18.844843 7 1
-29.271891 149.551420 -53.135887 9 1
69.753700 133.048320 -53.600685 6 1
-43.293270 66.134644 40.688763 0 0
4.578802 190.894590 57.619286 39 1
-22.609421 103.664050 14.606110 0 0
31.158909 203.850370 -50.981586 24 1
-46.141094 69.521347 56.310684 14 1
-94.369789 200.154720 5.759478 2 1
-28.430954 143.763180 -64.283905 9 1
23.546204 194.647720 12.774450 40 1
-29.487795 216.979450 -36.940720 3 1
28.763037 187.674390 22.453913 40 1
-21.272541 170.362850 6.237296 0 0
-30.034239 187.944380 4.071352 0 0
28.462563 211.085750 -49.539371 24 1
-12.659123 93.906677 -71.429077 46 1
13.274574 43.322376 62.561863 23 1
-51.244938 123.546750 46.251648 17 1
-24.511251 219.799710 17.159321 41 1
29.557663 189.660230 -65.060661 24 1
-69.077728 204.501920 25.548870 5 1
69.539131 134.934710 -3.593426 7 1
30.978212 122.964870 20.282419 31 1
-18.910477 93.359459 -34.176941 38 1
7.789534 129.602570 23.666901 31 1
57.208145 142.925090 -12.750792 7 1
77.041855 121.442290 -64.837616 6 1
34.160805 134.538850 -41.903381 8 1
-51.164143 153.305070 -43.217979 4 1
33.169777 110.474400 -41.652092 22 1
15.286234 209.783550 -41.561253 25 1
-8.103537 179.205460 2.458437 0 0
-47.976006 155.716480 -68.105949 47 1
-54.211178 228.648010 -3.627810 5 1
47.366169 105.776790 -47.821499 21 1
30.262060 204.626050 36.376221 30 1
-14.139329 122.183370 18.495863 32 1
49.030151 185.118970 6.305440 40 1
20.491409 124.431630 52.196548 20 1
32.272366 40.513680 -46.650646 45 1
-85.548485 202.268920 -22.121632 2 1
-42.077824 223.749160 -23.024071 3 1
-63.790695 206.070690 21.893429 5 1
0.856779 40.239456 55.544395 23 1
-44.736946 155.437290 -57.065296 9 1
1.556898 194.923420 -9.493190 0 0
-57.175835 208.040950 21.135483 5 1
-3.701748 -1.233126 0.410243 0 0
14.547430 210.153820 -53.511993 24 1
-57.760860 201.066970 -36.168800 3 1
-43.965141 152.566450 -46.158291 4 1
-48.479298 71.475891 -24.704840 11 1
3.916839 8.708275 11.028927 34 1
-67.731018 197.708040 38.302528 5 1
-38.748539 80.761787 -10.270821 16 1
-60.949158 226.751250 -2.587154 5 1
-34.410915 152.374470 -49.170990 9 1
-35.171524 57.125965 30.893272 0 0
-60.102970 228.398070 -7.202063 2 1
11.463531 40.284485 56.299675 23 1
-59.863808 221.610240 -19.362946 3 1
-8.517761 160.717680 3.844259 0 0
-49.254440 218.919240 42.010300 5 1
54.407337 142.000350 -9.380407 7 1
9.964412 184.373430 18.114698 0 0
-43.500263 230.951230 24.945263 5 1
-5.952225 220.058240 -22.961889 25 1
-5.002277 109.313700 6.860151 0 0
-36.728321 154.215160 -41.970528 4 1
-42.408974 149.758440 -90.312454 47 1
-4.686809 188.463840 50.122093 39 1
-28.889677 87.723740 -61.486217 10 1
-44.040886 222.446030 -5.082481 3 1
13.261076 70.973625 -25.371107 0 0
-39.184200 209.513410 -32.449165 3 1
36.179470 105.379010 -45.106701 27 1
53.486374 137.873340 -49.236572 6 1
32.242527 194.700130 -59.503559 24 1
25.299862 202.085890 46.274143 30 1
40.266380 120.277070 57.405724 20 1
-49.017700 229.154420 1.417710 5 1
-17.794147 118.411080 -15.473590 0 0
0.460358 191.562940 52.241470 39 1
-43.211098 152.424910 -82.805374 47 1
-11.505452 156.275190 0.921855 0 0
39.966530 192.503040 7.862153 40 1
54.729103 177.267910 1.677631 40 1
-72.731697 222.201350 -12.229271 2 1
72.905640 131.111680 -14.162902 7 1
-24.080847 176.770070 6.529419 0 0
22.608757 133.122280 -46.753021 8 1
27.619585 89.999741 -66.457016 27 1
18.119930 48.720573 39.186111 0 0
31.367146 214.405150 -46.303928 24 1
12.857403 191.151210 19.451811 40 1
-59.516254 65.952583 41.132019 15 1
-5.533863 38.116325 47.347019 23 1
36.284084 103.763760 -53.907551 27 1
33.177830 114.958530 64.080330 20 1
-2.757803 118.782100 49.712509 29 1
53.823494 139.368550 -27.224388 7 1
-69.293327 137.030990 -47.804085 4 1
-4.835389 91.584099 -33.963825 38 1
77.737564 122.174490 -5.114101 7 1
44.043091 97.470993 -24.795870 22 1
25.112511 194.014720 -2.237824 40 1
21.952980 221.683110 -36.091568 24 1
-67.483574 140.001110 -35.550797 4 1
15.726278 37.680038 -49.418751 44 1
46.174515 38.652782 37.292534 12 1
-44.797245 78.394669 -61.396496 10 1
-83.292046 201.914720 -31.329802 2 1
29.418873 199.169430 16.240669 40 1
13.325695 200.615420 32.709248 39 1
-49.184776 127.854840 12.049874 18 1
28.256598 90.060852 -43.798958 27 1
38.625454 184.320020 -1.752275 40 1
37.673870 195.006970 50.413834 30 1
-18.888527 151.990890 -43.450226 9 1
-4.488464 200.005680 -48.109146 25 1
-83.229851 211.735820 -8.178829 2 1
30.866028 49.879128 56.354969 1 1
27.202543 135.650540 -40.707016 8 1
-33.794300 123.796230 36.871128 19 1
-13.538324 208.381260 9.448690 0 0
-32.743202 79.491402 -7.780582 16 1
60.976410 140.576340 -12.869200 7 1
-28.069164 104.555410 17.016592 0 0
-24.122110 112.105170 18.484377 42 1
14.509809 127.325170 -51.114136 8 1
8.740870 198.998280 37.625641 39 1
-45.145123 125.075030 29.586668 18 1
-62.385399 116.235970 37.315556 17 1
-46.447334 69.359650 63.276936 14 1
22.962084 56.723389 35.413010 12 1
-1.570141 120.996300 54.121120 29 1
-57.719048 219.656780 -14.327915 3 1
-12.909010 141.070740 -53.715939 9 1
-11.287584 84.694244 -49.696537 38 1
48.913963 141.195100 -28.400011 7 1
-0.884516 97.319344 -55.257256 28 1
-38.732651 61.178185 36.750790 0 0
23.224998 92.574707 -59.267971 27 1
29.064169 203.369510 -56.660221 24 1
-28.916159 209.439210 21.055305 41 1
-37.340679 82.363197 -63.460697 10 1
-36.713806 89.211250 55.159515 19 1
69.088753 131.740260 -17.208412 7 1
-12.019492 43.563244 9.152441 0 0
5.592644 195.408360 35.226048 39 1
-54.710209 67.815865 42.337353 15 1
29.225693 200.682100 47.793583 30 1
17.940456 34.223392 -60.284580 43 1
-47.385708 213.829770 20.371134 5 1
27.520718 118.736150 59.822517 20 1
40.760410 202.710160 -19.128231 26 1
80.387650 123.988780 -58.912083 6 1
39.293507 107.708850 -47.159672 22 1
-28.836666 150.398360 -64.788742 9 1
-52.660511 151.328480 -31.840654 4 1
-17.962555 216.291900 9.283076 41 1
-34.497940 221.292220 -34.284977 3 1
-19.320530 111.112850 8.876976 42 1
46.181740 44.017052 41.554337 12 1
-2.753645 27.927742 63.154530 23 1
-11.565579 86.699905 -14.171699 37 1
77.538025 126.936290 -11.469260 7 1
-10.508713 89.481964 -65.262062 10 1
-16.963400 148.391560 -49.722683 9 1
-12.874131 110.562950 14.659447 42 1
29.602657 120.221310 65.893631 20 1
3.501264 45.182098 13.804673 0 0
-10.836700 169.988420 56.765228 39 1
37.172100 116.859310 66.464684 20 1
-18.216772 88.015297 -38.480431 38 1
35.670399 208.210460 -51.178787 24 1
15.636724 222.215440 -22.871782 26 1
-1.878724 6.426223 0.285827 0 0
-85.412971 200.964100 -10.683882 2 1
24.998013 40.656868 -40.541134 45 1
-53.254539 209.464220 27.868856 5 1
-64.459999 215.201170 11.387227 5 1
6.699080 219.937590 -38.159492 25 1
-75.885109 220.018810 -7.765613 2 1
-11.933544 124.444330 -61.700905 9 1
-6.484160 7.658148 2.275082 0 0
29.020445 92.305206 -56.989540 27 1
46.595932 94.212425 -23.991631 22 1
13.971396 121.334630 -55.913162 8 1
-1.229800 178.624180 57.019772 39 1
-54.543758 70.153847 -12.948578 11 1
-57.759426 212.016600 35.815113 5 1
22.025484 207.053010 -6.066868 26 1
0.932554 196.301270 20.043535 0 0
-47.757660 217.005940 -34.773277 3 1
-10.821573 100.974200 -2.348753 0 0
-41.533302 153.818360 -51.691906 9 1
15.224191 126.654580 24.588413 31 1
28.456976 51.230534 26.019331 12 1
-24.996672 108.453410 47.699699 19 1
35.417019 126.263070 -25.062983 0 0
-54.340656 157.184910 -64.756134 47 1
-26.282921 82.434959 -71.273560 10 1
-29.045649 84.180931 -4.401861 16 1
24.287979 218.049880 -27.181637 26 1
18.244432 50.934532 46.549103 23 1
-40.251472 226.645170 -10.811936 3 1
35.407890 204.982880 -27.529673 26 1
-41.419815 156.614070 -38.085659 4 1
-8.997501 12.875417 -0.850098 0 0
33.134373 37.850307 -34.636189 45 1
27.237938 99.466484 -41.932617 27 1
-9.870514 49.375206 -8.147796 0 0
41.106907 136.171140 -36.056038 8 1
-18.604141 60.868378 7.168447 0 0
6.761377 42.149662 59.107170 23 1
-50.316048 156.150860 -71.268021 47 1
-37.378414 148.501650 -30.245390 4 1
-57.625187 218.022030 8.412559 5 1
-20.073889 121.423820 6.143227 35 1
0.009258 187.163600 49.546482 39 1
64.685410 137.901930 -52.721748 6 1
-46.390415 128.933590 23.584238 18 1
-91.114265 202.358920 3.400771 2 1
-39.356754 209.457170 1.621164 0 0
-57.409393 61.166031 -17.269621 11 1
-51.213425 211.140610 39.945728 5 1
44.631378 138.034410 -28.590839 7 1
-35.021580 116.859730 49.527164 19 1
22.992466 100.691970 -45.043571 27 1
24.833775 127.208770 55.726849 20 1
-44.015419 209.472470 -43.093803 3 1
4.226010 91.864174 -30.257242 0 0
11.151120 187.571180 21.254797 0 0
33.783421 39.376419 -42.136101 45 1
-12.960613 128.427640 -61.338234 9 1
40.485966 189.335820 -5.200878 40 1
-14.248169 214.034450 23.561939 41 1
-93.055695 199.829100 -2.094994 2 1
13.975224 49.213604 46.345142 23 1
-40.216217 71.467438 51.756069 14 1
-27.678413 155.850250 -51.088177 9 1
-81.039665 208.472110 -8.907588 2 1
3.652376 124.231040 53.680569 29 1
-60.977558 148.593580 -80.601608 47 1
-87.582947 197.412730 -11.697874 2 1
21.634201 86.163284 -67.874451 27 1
50.196617 194.474820 40.805805 30 1
27.987577 207.437910 -18.743320 26 1
-12.913173 176.862850 54.093166 39 1
-45.708580 79.380981 -7.150233 11 1
-3.052644 124.099780 2.282512 0 0
-20.489004 93.465027 -66.211929 10 1
-19.375170 119.464160 0.443516 35 1
-17.011827 87.180244 -19.907600 37 1
-55.177895 203.132640 -32.677509 3 1
-15.762139 89.369972 -51.429924 38 1
-21.425127 114.125270 15.172060 42 1
54.530693 138.490360 -39.071423 6 1
30.403561 47.405716 22.329988 12 1
-10.033677 125.896460 34.421913 29 1
-38.766445 65.432114 56.092930 14 1
-26.310640 113.264070 44.667862 19 1
-10.435596 91.420738 -15.002613 37 1
5.653105 197.713970 25.628073 39 1
-55.696903 149.150560 -34.808456 4 1
18.486589 201.396210 30.457371 39 1
34.351383 187.591310 7.518080 40 1
29.576540 198.263470 -56.769897 24 1
-14.778526 180.653990 51.467758 39 1
17.120804 123.873970 19.661739 31 1
-51.368557 72.386200 42.424973 15 1
-15.910765 183.515880 45.861645 39 1
34.684296 201.620610 -14.786451 26 1
-78.980217 212.916810 -2.934901 2 1
-82.421204 199.913480 -27.798254 2 1
-52.763416 140.236650 -97.546555 47 1
18.379267 37.812279 -55.260841 43 1
-29.110725 82.059387 -17.752789 36 1
-56.744648 155.249450 -67.619331 47 1
-59.766617 67.318390 37.213882 15 1
13.068165 197.131480 29.421488 39 1
-15.382277 113.073600 -12.593411 0 0
43.483444 188.176450 1.067732 40 1
-46.060318 225.815870 37.767632 5 1
-71.414185 99.804054 44.922489 17 1
-61.106194 120.149770 7.997269 18 1
16.803164 130.708820 -50.813877 8 1
-14.663752 95.433746 -55.393444 38 1
-30.527475 113.027590 51.316689 19 1
7.154285 201.393950 29.467815 39 1
32.429680 217.032010 -40.666405 24 1
-55.906151 216.703220 -16.230314 3 1
5.768606 131.157240 34.558701 31 1
28.435514 42.501598 -45.113823 45 1
-8.264586 106.985460 4.227046 0 0
-18.563866 165.758290 5.575434 0 0
15.750929 53.486584 48.309509 23 1
-46.461842 220.349460 -29.481197 3 1
-14.708881 170.416530 53.750130 39 1
-66.307632 209.636320 17.295891 5 1
-23.069818 99.420876 14.818587 0 0
-18.744438 80.465889 9.850516 0 0
19.364031 133.395140 40.228638 20 1
50.143810 30.754326 70.953056 1 1
-55.585758 203.329160 47.965702 5 1
-46.825432 225.321200 -16.395550 3 1
-4.941692 97.404732 3.395973 0 0
10.250858 40.933430 63.515495 23 1
-56.068428 118.019120 47.581829 17 1
22.486170 203.923900 48.759262 30 1
17.291752 213.066650 -50.200161 24 1
-87.089050 204.716580 -0.477586 2 1
-30.540236 75.539970 -26.483212 36 1
21.818552 199.837420 6.179899 40 1
-16.244280 83.707672 -40.948406 38 1
9.356081 43.642963 48.205639 23 1
35.072430 195.028810 14.689396 40 1
-42.809303 117.965820 38.757980 19 1
3.428248 44.167145 45.688457 23 1
-81.811081 204.779680 -15.798640 2 1
-48.987209 117.586150 40.942169 19 1
-7.398698 183.112270 -0.217623 0 0
-65.882294 138.647020 -91.314018 47 1
26.029011 96.506020 -49.059319 27 1
-27.105564 219.314540 6.369330 41 1
7.054515 46.472321 45.545841 23 1
-4.092479 114.620170 3.130410 0 0
-47.384987 194.031620 -52.410686 3 1
-37.728363 211.586750 -28.230343 3 1
35.972431 200.531880 -58.735844 24 1
41.686100 43.270649 35.429039 12 1
-25.614674 70.734337 -29.861708 36 1
-13.107739 87.013451 -26.158865 38 1
-29.716785 100.480890 50.045780 19 1
-2.529667 214.495350 -27.387423 25 1
41.394165 47.830555 40.654163 12 1
-10.175253 142.887250 -43.087418 9 1
19.041224 129.029430 53.893536 20 1
-70.074829 142.183620 -88.096237 47 1
47.677292 178.630910 0.634487 40 1
-73.320892 133.357620 -27.081089 4 1
-47.733013 228.511250 14.654563 5 1
-55.259727 121.187480 24.144381 18 1
-22.169628 152.478500 -50.095913 9 1
-60.009647 113.352160 46.318676 17 1
6.238284 82.079887 -56.042969 28 1
44.943291 98.205368 -21.082546 22 1
27.969563 122.005010 22.557673 31 1
44.900246 196.996550 42.020210 30 1
-61.074501 144.129930 -44.214161 4 1
-49.097984 225.050990 27.588690 5 1
-19.054819 96.873390 15.824117 0 0
-8.133211 146.088670 3.687620 0 0
27.847952 208.855480 -7.503687 26 1
25.554668 220.443740 -38.836380 24 1
-9.098035 213.149140 6.727636 0 0
57.801750 135.186460 -24.794216 7 1
43.808891 193.119960 45.147991 30 1
-83.155945 206.700730 -21.284061 2 1
38.628696 205.930770 -25.607735 26 1
-46.607761 213.408140 -22.875772 3 1
-51.464836 122.896810 26.450027 18 1
-4.256814 59.967991 3.159121 0 0
44.987495 104.144420 -54.632500 21 1
22.502529 53.801689 47.355984 23 1
-6.304128 172.803770 -1.811771 0 0
-33.652168 77.572281 4.412192 16 1
13.777578 75.046333 -54.886501 28 1
-17.200247 144.097490 -44.135860 9 1
15.341166 130.569380 39.218784 20 1
35.502495 187.976100 -6.087957 40 1
40.197712 203.067990 -23.102776 26 1
35.740299 35.887123 77.497681 1 1
-47.852081 222.443470 -10.485106 3 1
-7.188933 79.130508 -96.597603 46 1
-34.738754 101.078580 54.569141 19 1
19.461657 136.964260 -42.117767 8 1
-2.603188 85.091156 -92.210602 46 1
-18.214622 81.213791 -16.981279 37 1
19.553482 214.548260 -29.970219 26 1
-81.594063 207.438420 -27.806870 2 1
-36.405521 226.108990 -18.148039 3 1
-7.531756 200.384030 31.108627 39 1
-53.145737 149.747670 -50.901661 4 1
-27.984415 79.204933 -94.241676 46 1
-2.233579 209.049070 -37.951439 25 1
-22.924650 123.116640 -22.179321 0 0
-36.937325 203.568660 2.368729 0 0
-43.025826 212.504200 -25.449379 3 1
5.866980 216.974120 -42.865368 25 1
-2.225692 53.801579 -0.011745 0 0
-54.221191 149.368870 -38.357513 4 1
-18.752041 211.423170 19.331553 41 1
10.181930 211.636140 -52.296700 24 1
-10.782494 188.170500 40.517899 39 1
-43.693100 225.873840 20.298155 5 1
-61.643398 119.152180 14.259244 18 1
31.812820 43.358986 65.740204 1 1
38.428139 204.826840 -53.002636 24 1
-56.328640 216.402570 11.721761 5 1
41.463680 188.817600 23.390846 40 1
-39.361858 83.329041 -56.257332 10 1
12.052426 195.704160 36.378983 39 1
12.095139 126.714710 15.524449 31 1
-82.976860 208.601320 0.776660 2 1
1.308387 195.975980 52.493279 39 1
-51.235149 225.521880 -13.144869 3 1
6.331675 30.097298 -22.558935 0 0
-14.983445 68.620438 -103.337600 46 1
45.695290 183.657730 10.030884 40 1
22.287832 139.588780 -37.408367 8 1
-44.817696 109.798160 50.420448 19 1
27.941616 50.699970 61.992325 1 1
4.021335 37.014503 -45.552402 44 1
-59.956043 105.685520 48.135002 17 1
-53.258789 70.660187 -9.048495 11 1
38.590408 185.729000 -5.432325 40 1
33.047871 199.031620 54.812454 30 1
-9.222055 85.951744 -91.782875 46 1
-83.894554 208.587020 -15.114493 2 1
26.130375 197.840060 -62.181190 24 1
-15.701326 87.830757 -84.883240 46 1
-66.489784 138.179320 -98.890961 47 1
6.733102 73.100891 -62.453987 28 1
23.688011 212.633880 -28.232201 26 1
-46.082348 78.761711 -55.781506 10 1
4.340144 32.951992 68.096344 23 1
-7.003972 195.109760 34.553028 39 1
-57.132885 108.097790 49.653103 17 1
17.241989 48.801121 31.674479 0 0
-46.535603 228.123210 -1.657906 5 1
33.633965 211.621410 -44.209095 24 1
-7.383338 112.975050 46.672699 29 1
-78.587280 211.718230 -26.658314 2 1
-11.617851 83.611282 -30.171190 38 1
24.731030 41.084900 -48.307369 45 1
-54.525894 221.128100 -25.183464 3 1
-30.366711 113.429800 22.283718 0 0
57.148743 97.966225 -48.465973 21 1
36.545887 191.218250 -8.570503 40 1
33.983021 204.311520 35.178787 30 1
-96.253250 188.441150 -3.229228 2 1
1.614871 193.126020 -5.438855 0 0
18.690004 221.408250 -29.799627 26 1
2.957013 91.874626 -53.829098 28 1
57.058689 140.635150 -44.419109 6 1
-2.218521 191.057920 20.375381 0 0
-0.581812 191.825450 38.125954 39 1
-0.558689 79.114609 0.045657 0 0
-76.485550 218.513150 -12.461720 2 1
-45.114902 203.632480 -46.771309 3 1
-65.067680 65.408348 39.574707 15 1
-14.413108 113.682960 45.891174 29 1
-41.602718 229.264560 36.300144 5 1
-7.726396 139.734040 0.626356 0 0
-60.029545 146.259370 -21.389437 4 1
-6.413745 88.117592 -32.665955 38 1
32.092785 193.412610 27.188856 40 1
9.087439 181.025250 20.042883 0 0
11.514152 6.406283 3.268895 34 1
39.451771 204.103790 -28.935923 26 1
-58.480984 150.637310 -26.810225 4 1
-71.655869 136.371370 -92.260033 47 1
-42.349976 230.875310 13.226907 5 1
51.471596 177.087570 -4.178451 40 1
48.144905 138.410550 -36.541348 7 1
25.540447 193.100230 5.504046 40 1
4.712421 201.467380 -11.774887 0 0
-46.517944 79.073151 -18.079735 11 1
-45.921028 223.183140 1.665928 5 1
-28.246880 142.480240 -35.206642 0 0
-21.452000 141.852040 -63.779026 9 1
-61.190639 118.621110 19.175734 18 1
24.803699 214.405010 -11.321355 26 1
24.231163 137.936390 -44.890583 8 1
-51.367130 145.695280 -90.218811 47 1
7.247719 191.047710 40.775471 39 1
-53.027611 207.204030 45.642925 5 1
-56.756954 225.971880 3.341304 5 1
7.569919 37.030399 66.745483 23 1
-5.697751 43.771027 1.115341 0 0
-17.838751 53.220566 6.758480 0 0
-58.879406 150.097150 -21.789494 4 1
-53.374016 196.799580 -44.009106 3 1
-13.922014 55.605034 -9.053605 0 0
14.585805 47.449291 26.966089 0 0
25.494997 216.326860 -19.635078 26 1
22.248583 119.598960 -62.275108 8 1
9.430204 90.613426 -2.388486 0 0
17.585670 47.573215 53.164818 23 1
52.381439 99.804756 -52.247623 21 1
-54.330254 207.239810 37.429096 5 1
-15.807358 193.265560 38.157551 39 1
-70.781372 221.680980 -8.851033 2 1
29.689882 138.008680 -36.263596 8 1
-70.821487 152.264010 -71.607925 47 1
34.535492 187.243820 20.544701 40 1
-27.608593 182.676250 4.313334 0 0
29.221674 215.230040 -38.899441 24 1
-14.446063 77.370468 -98.139328 46 1
-14.488082 47.548576 9.981693 0 0
-1.515352 40.910702 6.681149 0 0
32.965240 206.096210 -53.433907 24 1
43.891937 110.587260 -42.861534 21 1
20.044872 198.500400 35.536690 39 1
-35.077450 226.851640 -22.350801 3 1
16.217602 47.451412 58.208710 23 1
-35.149277 63.755428 64.994385 14 1
15.905322 80.523956 -51.430843 28 1
-16.435406 176.446980 52.787689 39 1
18.551466 129.952480 47.466183 20 1
3.616371 72.468681 -25.872875 0 0
-37.013336 208.047930 -39.923069 3 1
16.151356 221.123140 -18.899988 26 1
3.686807 37.287590 61.972301 23 1
-8.691779 127.627940 -55.615597 9 1
-66.680046 149.815690 -76.003479 47 1
23.615225 196.250520 -59.433201 24 1
-32.875908 154.530590 -44.088490 9 1
23.531376 36.135517 -51.256264 43 1
-8.844718 213.599030 25.218822 41 1
33.959591 52.502213 34.448845 12 1
-81.572800 214.591660 3.019632 2 1
-65.506859 141.505600 -29.860092 4 1
63.942787 131.003300 -59.237179 6 1
-16.124651 88.315704 -45.836304 38 1
45.000237 34.174625 25.368004 12 1
11.936460 218.219470 -43.774548 24 1
1.455456 194.580700 45.277908 39 1
-12.621530 102.843700 1.214217 42 1
-47.201809 148.906230 -87.328918 47 1
34.292797 98.705109 -57.826042 27 1
-52.855381 126.264560 17.105183 18 1
24.369617 51.189030 56.648792 23 1
45.232376 179.382110 -6.918048 40 1
-7.515800 181.670730 54.550083 39 1
16.229914 203.039950 -57.525692 24 1
-41.699486 67.379883 58.065002 14 1
-48.469849 226.308930 23.665327 5 1
33.504578 121.023900 60.987614 20 1
-1.656393 216.515820 -39.076088 25 1
-50.371826 220.080510 11.832196 5 1
50.054401 99.356941 -56.594650 21 1
-94.233009 189.364730 -19.433407 2 1
28.344120 131.025590 -50.307335 8 1
-12.168448 96.823112 -57.914379 38 1
10.278361 88.782410 -54.087193 28 1
-22.133919 87.757202 -87.373177 46 1
-16.669140 66.621696 11.849352 0 0
-62.264053 210.002560 -27.822657 3 1
-58.529144 123.449820 38.180748 17 1
23.349155 200.751800 -60.756790 24 1
2.080807 196.458400 41.386272 39 1
40.408329 192.602400 -17.750973 26 1
-3.493353 90.505005 -58.119728 28 1
-60.549484 143.433900 -90.320869 47 1
-24.910498 85.199409 -90.372742 46 1
-4.758909 89.186081 -85.958824 46 1
64.850464 134.783080 -9.303465 7 1
-14.608107 161.260250 4.339743 0 0
-79.349068 214.385480 -14.103040 2 1
-66.629524 140.540330 -24.523035 4 1
25.619617 127.648260 -55.842194 8 1
49.961987 97.977524 -27.007971 22 1
-6.426605 43.842194 -9.021140 0 0
1.362171 132.371730 5.902637 0 0
-16.604679 118.083110 40.027008 29 1
22.536795 210.809910 -22.770248 26 1
22.136929 125.501720 31.155674 31 1
27.076990 92.781158 -60.691437 27 1
23.769146 122.677990 62.876133 20 1
-0.589312 12.424840 5.626820 34 1
46.038368 189.606460 12.354876 40 1
-49.237762 125.641030 35.237499 17 1
13.552244 39.776897 -42.112476 0 0
6.435444 196.432480 47.628841 39 1
-17.684818 110.966860 20.069513 42 1
-64.979538 147.956500 -80.045624 47 1
-33.786640 82.997063 -6.291911 16 1
16.974895 88.362579 -56.452702 27 1
14.861682 194.333510 42.872532 39 1
10.949510 74.778069 -57.907661 28 1
-17.243387 61.447292 -10.084188 0 0
40.366711 97.028786 -22.296206 22 1
-40.354130 122.205620 36.212723 19 1
-12.281889 129.569210 4.496331 33 1
-22.630777 129.510590 -24.405859 0 0
11.545400 194.377170 23.253008 40 1
3.349185 196.933470 32.637737 39 1
-55.528076 64.599274 -16.937469 11 1
-15.345221 141.307010 -48.272213 9 1
-10.661410 111.950230 50.260845 29 1
23.606224 198.379620 0.796668 40 1
-35.662910 108.985080 54.148376 19 1
-43.758430 197.788250 -47.916687 3 1
-59.781830 149.805510 -35.544479 4 1
31.108889 214.367920 -28.770828 26 1
-53.138321 223.023190 -20.741779 3 1
28.121420 192.854130 -4.127515 40 1
-8.788957 85.789917 -45.149792 38 1
-30.422787 146.734240 -48.484585 9 1
-60.014736 227.054550 -12.202504 3 1
-45.229515 130.936650 15.612772 18 1
39.359310 196.205950 -17.472559 26 1
-9.306291 167.222700 -0.025662 0 0
12.568996 222.400100 -28.593578 25 1
29.038656 51.694767 30.084948 12 1
-57.965534 221.382630 19.193157 5 1
69.755074 129.076050 -59.576752 6 1
-34.770058 67.547585 60.390270 14 1
10.276854 220.857100 -17.431097 26 1
1.582847 47.039150 11.198516 0 0
-52.392517 215.562270 40.100689 5 1
-45.733784 111.685780 44.033554 19 1
-49.218369 214.953600 37.398884 5 1
34.022507 103.984630 -20.384058 22 1
-62.975800 143.712720 -37.571949 4 1
-63.206318 222.299820 9.075097 5 1
28.657938 212.522950 -15.394984 26 1
-65.667442 65.185936 49.699467 13 1
-1.614799 34.730526 59.497910 23 1
40.901535 192.873000 19.649891 40 1
5.065734 8.142669 4.308642 34 1
26.509367 191.972930 0.967041 40 1
52.146790 181.990370 13.890905 40 1
-65.629791 115.563770 13.874962 18 1
-3.796448 187.489090 41.957699 39 1
-13.038866 85.608498 -54.487087 38 1
-3.417767 37.607727 50.678280 23 1
23.921907 205.866390 41.166473 30 1
62.530025 140.051620 -5.298415 7 1
-65.006332 221.571040 2.213120 5 1
-55.804104 221.958910 -11.625157 3 1
54.848278 134.820140 -56.497009 6 1
-3.412706 70.465851 4.559292 0 0
5.902226 36.242939 56.981628 23 1
-29.389507 121.154660 40.718323 19 1
-46.057060 158.206070 -33.072117 4 1
-30.012054 207.697160 24.280458 41 1
-58.970497 66.916565 30.868092 15 1
-2.809409 35.117420 -4.978717 0 0
-2.725951 203.063840 -45.213596 25 1
26.084362 112.238820 -15.492504 0 0
-52.131767 71.816719 -15.734900 11 1
-4.795082 181.245360 48.544064 39 1
41.826801 34.223225 73.452721 1 1
78.173447 126.650320 -17.662395 7 1
-45.082329 72.634911 -59.487762 10 1
-36.929955 222.188020 -21.281418 3 1
31.872999 100.626550 -43.624088 27 1
-48.262100 72.098518 52.458454 14 1
-6.746494 86.846169 -67.727432 28 1
-4.939450 39.645771 2.743425 0 0
8.972339 79.667725 -60.001408 28 1
-15.727082 66.338264 8.271303 0 0
-18.818947 90.883324 -68.380402 10 1
-22.803095 96.593277 -54.144295 10 1
10.254775 171.976440 14.116786 0 0
-4.954626 203.811460 3.432495 0 0
9.168700 37.962189 -50.755123 44 1
24.308336 199.935790 20.573471 40 1
-6.542162 89.806572 -61.915565 28 1
-21.841234 117.180340 18.607271 42 1
-14.603512 122.359870 10.315558 33 1
40.727440 201.866120 38.115131 30 1
-86.195190 195.210690 -21.826406 2 1
-28.472538 74.960220 -11.512629 36 1
71.519226 131.803340 -3.161272 7 1
56.262203 134.319430 -31.483990 7 1
7.347460 68.156418 -60.849373 28 1
60.779137 135.033690 -32.326180 7 1
-60.267696 143.916470 -48.148960 4 1
40.763062 200.733810 -28.146545 26 1
43.247589 28.649494 77.962357 1 1
-7.947588 93.434074 -20.982029 38 1
10.619198 192.889010 47.386490 39 1
13.245420 189.589680 42.519615 39 1
-14.002634 127.060360 9.896561 33 1
31.973177 98.514809 -50.597324 27 1
-61.255310 145.784790 -25.900867 4 1
-50.097992 200.686840 -44.790680 3 1
-37.760513 156.791670 -53.814674 9 1
47.391518 44.166206 59.442184 1 1
33.415161 199.252350 -56.000286 24 1
-25.578667 76.581276 -9.614126 36 1
9.287803 66.033173 -22.782293 0 0
-6.023687 98.833473 -35.401134 38 1
-41.814774 226.550200 -4.315939 3 1
-31.316778 156.711940 -52.098183 9 1
-64.792015 143.020000 -83.575806 47 1
31.394474 42.301022 -42.853516 45 1
11.246851 81.109161 -50.668655 28 1
-95.771561 197.286070 3.908734 2 1
-10.882958 193.568440 40.166061 39 1
-53.366180 71.861954 51.334652 13 1
4.697448 8.534619 -2.436801 34 1
10.507212 7.024963 9.159918 34 1
29.072084 33.488613 -55.267559 43 1
-100.140320 178.024140 -14.430288 2 1
28.254948 42.732250 -37.377048 45 1
-60.184628 148.045330 -40.633099 4 1
-1.682778 43.991909 48.826279 23 1
31.751534 38.040825 75.650116 1 1
9.332099 190.150650 18.549435 0 0
13.457374 198.741740 41.861572 39 1
14.218351 129.080230 27.218908 31 1
-39.381535 217.104170 -23.214670 3 1
-8.098640 124.397350 42.336971 29 1
6.577418 219.068850 -17.062893 26 1
14.363688 42.015469 -46.339619 44 1
-19.384075 42.137936 11.113785 0 0
-91.493217 198.457120 -9.588790 2 1
-5.192701 90.843826 -26.271429 0 0
-88.689903 193.511380 -17.635595 2 1
-22.172945 87.745934 -70.505112 10 1
-3.130802 221.078200 -29.372679 25 1
19.554762 83.053162 -29.303331 0 0
-47.442924 149.656460 -51.765945 9 1
21.108622 42.502110 -38.189735 45 1
3.650763 40.089973 58.619537 23 1
3.965178 79.431412 -60.390625 28 1
32.998695 126.349360 -57.170963 8 1
-29.306133 94.313683 -56.866928 10 1
-33.310520 211.824300 -34.304550 3 1
-15.099708 143.349270 -55.667484 9 1
19.789021 106.155380 -14.858932 0 0
39.456093 202.240100 -12.112419 26 1
7.207061 63.128262 -59.582741 28 1
-82.851311 200.283860 -23.793242 2 1
12.942985 214.538620 -26.671730 26 1
-5.573952 64.515785 2.297836 0 0
3.823786 130.392680 39.022728 29 1
-1.464677 37.309948 -0.032368 0 0
2.642505 11.207208 -0.555458 34 1
36.086163 118.152550 61.776257 20 1
34.502552 102.687290 -49.987103 27 1
10.135480 222.795960 -33.382370 25 1
51.984192 143.748380 -21.635288 7 1
-29.409456 80.438446 -21.102835 36 1
-1.313776 41.314423 52.200207 23 1
-16.179880 82.682678 -34.080822 38 1
14.944819 77.417900 -28.750809 0 0
35.962376 49.553219 55.724731 1 1
-60.573051 211.075380 15.972094 5 1
-93.825783 193.034850 -9.681711 2 1
43.344536 192.270710 -21.065702 26 1
-35.744774 82.856400 -17.074469 36 1
51.323650 141.302190 -17.139788 7 1
28.247341 42.371147 75.246674 1 1
-8.516083 214.146970 -27.553497 25 1
82.761780 126.921610 -56.693859 6 1
40.890690 105.477960 -40.368221 22 1
-13.607953 94.628098 -65.047539 28 1
2.050112 212.597890 -33.676144 25 1
46.693611 143.782410 -26.065308 7 1
-62.310444 111.876510 40.376610 17 1
29.888815 100.287450 -54.300030 27 1
-80.930367 210.420500 -20.763342 2 1
23.992987 207.396160 -54.073536 24 1
0.787192 79.431793 -64.476212 28 1
-3.260481 82.628151 -94.833099 46 1
47.311687 200.406020 36.390518 30 1
2.194252 51.676033 42.832424 23 1
19.740646 53.247791 49.835911 23 1
21.687433 210.725420 -17.856806 26 1
-48.626770 211.290970 16.798382 5 1
-49.475403 151.152910 -81.580139 47 1
37.953617 130.807250 -52.518604 8 1
3.036996 219.945720 -36.367813 25 1
-62.835045 119.698710 3.896526 18 1
41.009415 140.092010 -33.790871 8 1
50.896477 138.680790 -31.094715 7 1
-9.922357 0.591744 0.401400 0 0
3.550791 71.747894 -69.310326 28 1
-25.397198 76.444763 -23.904959 36 1
7.040321 74.587151 -57.670887 28 1
47.750340 141.190660 -22.412239 7 1
-23.029366 82.253761 -19.038074 36 1
-11.120306 124.166990 17.711353 32 1
-55.408386 143.020650 -94.116730 47 1
4.599071 68.782043 -65.688095 28 1
-41.161331 226.038830 -17.393301 3 1
5.420503 32.311295 -51.338028 44 1
-17.591494 211.285260 15.092933 41 1
-29.098463 157.164760 -44.787525 9 1
-56.350967 69.676743 57.135277 13 1
-1.612201 28.709726 -0.048554 0 0
-21.385565 120.221460 -20.353024 0 0
50.322899 137.106810 -42.317570 7 1
-37.288845 80.031372 -5.847259 16 1
-22.652527 221.538650 4.694710 41 1
-42.157001 226.797330 24.396276 5 1
-22.425917 71.164612 -101.596790 46 1
14.359640 55.847263 45.222870 23 1
-53.828308 226.554860 -9.843678 3 1
18.468517 129.343570 60.686905 20 1
-4.511284 98.171021 -30.714161 38 1
-75.197914 220.079760 -1.101034 2 1
17.754980 213.341740 -17.731829 26 1
10.208012 131.278210 36.194561 31 1
-7.545789 136.851150 4.319908 0 0
29.021765 204.817640 -6.441536 26 1
-39.023441 158.143860 -45.972404 4 1
3.126221 189.968800 -9.023570 0 0
6.081717 75.386902 -23.094887 0 0
8.444747 197.710860 29.435839 39 1
-15.303604 119.841870 14.368649 33 1
-13.135859 214.767330 19.391315 41 1
-101.604420 175.849730 -21.476559 2 1
3.229179 209.700530 -44.240952 25 1
32.912983 90.278114 -62.056259 27 1
20.985542 195.534760 18.197540 40 1
-86.452499 196.062060 -28.526819 2 1
33.293533 137.925750 -42.882591 8 1
-88.047470 200.644170 -4.079064 2 1
-15.977238 213.106060 9.062274 41 1
-2.974562 18.637787 0.629633 0 0
-96.482712 185.245970 -22.831978 2 1
-53.805927 153.436370 -29.118368 4 1
-51.785172 212.447830 15.439106 5 1
-30.079266 223.811810 -35.320457 3 1
0.060022 27.826305 68.577591 23 1
44.819111 95.515831 -18.456034 22 1
-12.579294 86.963509 -87.057587 46 1
73.226540 130.909790 0.354853 7 1
35.614243 199.463230 52.140438 30 1
-8.788879 201.366420 -43.154118 25 1
-49.912197 217.204610 -15.459992 3 1
7.558558 33.021217 65.366714 23 1
-32.194893 146.924000 -65.138542 9 1
-79.613579 205.613920 -24.117136 2 1
-6.303525 203.973110 27.429461 39 1
-18.371552 142.133010 -61.302803 9 1
-13.789318 90.740990 -58.060787 28 1
-27.665617 97.962906 53.034756 19 1
-61.051201 139.698460 -92.073410 47 1
36.889263 136.454350 -37.543060 8 1
19.720741 38.924767 -49.593819 43 1
33.565788 206.751790 -11.665268 26 1
-6.596882 172.700470 61.048344 39 1
-30.853905 112.434010 44.470131 19 1
47.677498 106.628670 -44.209476 21 1
88.746223 115.253220 -61.311047 6 1
-89.435738 190.377610 -23.173588 2 1
-72.599274 137.569470 -29.182409 4 1
66.014290 141.715450 -43.955830 6 1
13.530071 133.381640 44.062687 20 1
14.158642 45.171539 47.602249 23 1
32.191364 31.364113 -55.835815 43 1
3.927054 87.431862 -32.402611 0 0
-19.160252 79.853142 -96.041199 46 1
-49.191051 155.425510 -24.796425 4 1
16.139866 196.467760 14.592791 40 1
70.543434 134.834080 -50.486103 6 1
25.862419 54.190151 29.353661 12 1
-4.107917 183.199710 -1.763048 0 0
-53.053112 153.407410 -72.312561 47 1
-61.724754 158.467320 -64.485649 47 1
-18.418316 72.167450 -98.774399 46 1
