-14.576264 24.160118 -2.035948 5 1
-16.833740 24.409494 -1.057020 5 1
2.934061 1.608583 -14.221299 7 1
6.086566 25.331394 -2.161812 8 1
-17.649265 13.614785 3.468831 3 1
-9.113125 19.473984 9.884111 3 1
-8.812066 26.091295 -2.990740 6 1
-6.262291 21.876877 14.587808 2 1
8.609229 27.982609 6.592458 9 1
-5.729302 21.511543 15.635156 2 1
-16.844690 11.783110 9.383550 3 1
16.545927 11.667510 -2.523063 7 1
9.651300 17.220221 -4.692302 7 1
-3.040074 32.246212 3.864808 9 1
-16.802998 12.741728 4.842199 3 1
-4.876740 15.674650 4.998359 0 0
-14.175393 17.071682 2.691940 3 1
-13.899316 28.754030 6.225847 4 1
12.109514 26.757427 1.394644 8 1
13.948243 7.926779 -3.843124 7 1
7.105352 -0.597980 -16.083904 7 1
-18.303370 12.620687 -2.780372 5 1
10.635340 30.368895 1.175625 8 1
-19.256565 16.592962 12.067986 4 1
9.252978 24.065996 -1.396877 8 1
0.493778 29.549011 1.823692 8 1
-12.369383 16.353201 12.347757 3 1
12.141031 10.086074 -3.182472 7 1
-18.250727 11.886778 4.020370 3 1
-15.314501 5.660930 25.312502 3 1
-17.488190 25.120928 10.286067 4 1
-5.142955 21.049473 4.308227 0 0
9.421582 9.690396 -6.713909 7 1
-10.730308 18.461693 5.680933 3 1
-8.743371 12.683713 -10.113097 7 1
-1.783315 32.150711 0.071955 8 1
-8.218578 28.942247 12.851662 2 1
-6.570299 24.891586 3.617942 0 0
-9.986512 11.777856 25.227022 3 1
-4.386622 17.047522 -8.206720 7 1
-6.649655 30.002071 0.759442 0 0
-16.211685 6.406009 20.983229 3 1
6.454991 5.612189 -7.687649 7 1
-8.510659 29.301176 -1.459119 6 1
9.985540 25.871326 -2.724633 8 1
-11.219460 11.375866 25.776176 3 1
-13.815926 28.501717 -0.783717 5 1
5.503776 0.134182 -15.481552 7 1
1.045380 2.594136 -13.882042 7 1
-15.999503 27.899889 6.124019 4 1
10.285907 15.167399 -4.848920 7 1
-14.775164 8.247006 21.961731 3 1
-19.319241 3.190820 21.638891 3 1
9.912346 8.151537 -6.981058 7 1
-10.667192 18.672352 13.191737 3 1
-6.236732 19.764496 15.484516 3 1
-19.200615 25.352762 8.666992 4 1
4.370967 8.914450 -8.440210 7 1
-14.574633 26.417860 9.292418 4 1
12.317872 13.244610 -1.906429 7 1
4.861085 15.010897 -3.282631 7 1
-7.532175 13.417315 -8.606490 7 1
1.973070 33.195183 5.996130 9 1
5.140576 13.830585 -3.658839 7 1
-16.821548 27.067719 -4.364994 5 1
-2.472893 17.720623 -5.719426 7 1
-6.394562 28.059330 -5.501085 6 1
17.038839 4.371336 -3.808779 7 1
8.788956 26.134296 12.483949 9 1
6.219975 31.035465 6.893058 9 1
-19.711823 3.841216 23.763227 3 1
-4.658525 27.377880 13.474733 2 1
9.100514 2.472566 -11.232930 7 1
-4.761035 22.709990 4.211812 0 0
-5.859392 19.818373 18.238035 3 1
-5.504700 10.572742 -12.204370 7 1
-16.267220 6.418786 24.638271 3 1
14.651119 9.872400 -2.680183 7 1
-22.031212 0.385970 20.325937 3 1
-4.034579 11.606564 -10.763596 7 1
-9.627244 26.787537 -7.585909 6 1
-22.483036 7.948141 3.391148 3 1
-10.728698 14.826627 12.507766 3 1
8.196378 23.075085 -2.200681 7 1
10.909452 24.070240 0.128785 8 1
-20.744795 4.699716 17.280449 3 1
-23.941128 2.626086 8.019090 3 1
17.078598 6.296969 -3.586460 7 1
-4.549013 13.661008 -9.435325 7 1
-15.858624 21.033688 9.086648 4 1
-7.781461 20.550545 14.212709 2 1
7.458798 14.137588 -5.863784 7 1
4.062346 17.199425 -2.667309 7 1
-16.621374 22.379593 12.274591 4 1
5.568696 2.869273 -12.468788 7 1
11.286633 15.176846 -2.387789 7 1
-11.858521 12.150576 19.484386 3 1
3.641320 27.915758 7.952560 9 1
-19.657738 5.062336 15.920624 3 1
-15.097439 10.866459 11.510803 3 1
-16.475710 11.618724 7.684369 3 1
-12.853075 26.293142 4.247400 4 1
17.509266 7.416037 -4.451733 7 1
-15.293692 22.710657 -5.381033 5 1
-3.499845 11.169593 4.895437 0 0
-13.841525 10.819366 14.781855 3 1
-7.016758 25.131697 -9.081841 6 1
-17.420233 7.276517 18.751352 3 1
-2.679763 19.611338 -1.381535 7 1
-4.095067 8.431113 -10.922551 7 1
-6.142237 30.988823 6.012262 2 1
-9.271117 21.146112 17.147526 2 1
-12.651327 9.827345 23.751951 3 1
-5.934543 32.231155 8.124413 2 1
-4.596536 24.200977 2.775585 0 0
-4.476092 12.500032 3.769268 0 0
-10.601366 14.149723 18.389017 3 1
-5.616110 13.463627 -7.924466 7 1
13.231319 25.036928 -1.105662 8 1
10.458664 24.056187 9.831217 9 1
-5.437975 7.095115 -12.165434 7 1
-4.806210 7.767191 -13.294048 7 1
10.789371 5.844188 -7.220866 7 1
-18.103401 19.184166 11.149231 4 1
-7.747102 11.150899 -11.075871 7 1
-4.687409 26.784224 1.778162 0 0
-5.207301 5.028169 -13.059450 7 1
4.194193 30.791975 0.400845 8 1
17.981655 6.114253 -4.410851 7 1
-9.191886 15.674380 19.324276 3 1
-18.446835 26.193905 -1.306746 5 1
-6.913142 29.046917 14.518202 2 1
-5.389007 27.592054 2.641826 0 0
5.691097 25.779917 9.483932 9 1
-11.723573 16.822803 13.892577 3 1
-4.203944 32.798325 2.855099 9 1
1.942661 21.162470 -3.701927 7 1
12.666579 7.206969 -4.472814 7 1
-17.940552 6.080449 22.116310 3 1
8.747029 24.234447 8.484561 9 1
-15.600916 12.662943 7.144885 3 1
-20.653929 4.788550 24.569542 3 1
12.848161 10.405663 -5.165879 7 1
15.502929 2.865774 -5.020330 7 1
-9.042665 27.325048 0.834080 0 0
-15.662431 19.342203 -3.828753 5 1
-0.634749 7.788209 -9.216833 7 1
-19.124508 19.185343 -5.601737 5 1
-22.386242 5.520193 9.804074 3 1
-4.964464 25.995493 14.195458 2 1
4.339438 26.950876 7.720246 9 1
-6.731005 18.106491 -8.138390 6 1
-16.974934 27.633116 -0.703968 5 1
4.895775 7.687734 -7.036173 7 1
-17.018208 9.233230 11.408866 3 1
-24.625332 1.097641 9.383521 3 1
-12.041305 13.484577 11.803719 3 1
3.531735 10.630987 -8.190291 7 1
6.302299 8.426422 -5.946306 7 1
-14.386785 16.909399 -1.164553 3 1
-9.129406 25.623343 10.845964 2 1
-9.269568 24.641520 7.524520 1 1
-15.055609 27.622318 8.413330 4 1
-17.343763 27.162918 5.690693 4 1
-9.731664 16.433168 20.456343 3 1
-18.411308 14.488466 -4.605425 5 1
2.013256 12.233135 -5.166693 7 1
3.576072 4.066841 -11.623692 7 1
11.259503 5.766865 -5.279347 7 1
1.681525 29.395798 5.959442 9 1
7.159529 26.354767 2.158194 8 1
-2.785819 16.794662 2.362275 0 0
13.603280 19.377668 -3.085895 7 1
-5.675393 23.514952 18.278921 2 1
-7.787637 32.388584 6.493606 2 1
-19.258478 19.616503 13.657829 4 1
9.927188 23.251200 -3.428658 8 1
8.719889 24.870951 12.767569 9 1
-2.060692 4.450097 2.255807 0 0
-2.305888 33.824947 6.106271 9 1
-14.631507 29.363533 7.500031 4 1
6.202694 29.849232 4.966505 9 1
-10.204027 26.168934 15.211566 2 1
7.024679 26.233187 12.806241 9 1
-20.688538 18.706985 12.244982 4 1
-16.295641 14.262628 5.126050 3 1
-13.646813 10.785259 19.085131 3 1
-0.495393 3.981093 2.859306 0 0
-10.638861 28.354086 -4.404032 6 1
8.959794 9.672291 -4.338624 7 1
-5.656605 31.450518 12.856053 2 1
-11.689423 11.315799 21.670073 3 1
-4.329771 10.076032 -9.344733 7 1
-23.490732 -0.872665 19.170012 3 1
-3.933591 29.743368 3.701443 0 0
-11.128726 27.843012 11.388438 2 1
-9.830645 28.229269 9.641698 2 1
-13.371557 16.717016 5.101540 3 1
13.408646 9.018657 -3.433298 7 1
1.793317 6.286179 -9.171074 7 1
-5.507722 16.360321 4.267919 0 0
15.849055 0.901703 -8.579624 7 1
-16.753019 21.301031 12.000133 4 1
-0.920485 30.512125 -0.186117 8 1
-25.349604 0.161420 13.944753 3 1
-5.851053 23.902227 1.843338 0 0
-21.538145 3.920875 22.635437 3 1
-6.499183 27.449802 9.260578 2 1
-17.603951 4.908395 21.115150 3 1
3.843762 11.664694 -4.891861 7 1
-12.132277 9.122770 25.675707 3 1
-6.322776 28.404795 -0.216059 0 0
-0.478646 8.237507 -10.945337 7 1
-20.876587 10.232012 2.205345 3 1
8.371469 0.386634 -12.787776 7 1
-15.492953 7.183333 20.730495 3 1
-5.325332 23.880764 -6.195866 6 1
15.625358 17.080475 -0.916160 7 1
-8.170723 24.968084 17.551825 2 1
14.282336 0.029751 -14.892697 7 1
-5.436448 27.677231 9.491887 2 1
-19.758238 22.925083 11.771116 4 1
-12.238074 12.241971 16.883955 3 1
-19.571896 22.000471 9.419586 4 1
-7.354689 31.171448 9.273129 2 1
-10.565924 14.516869 16.145926 3 1
-0.205618 20.686932 -0.775105 7 1
13.667861 17.585951 -1.820137 7 1
-3.786123 19.694395 4.597100 0 0
12.423069 24.612244 0.961891 8 1
-1.902474 1.452893 4.388292 0 0
-16.581436 29.430597 -1.110082 5 1
-18.092432 15.976516 -0.953557 3 1
7.954170 28.165113 2.183719 8 1
3.468307 -0.473848 -14.836641 7 1
-5.950976 27.020786 17.321306 2 1
8.563036 3.848365 -8.844062 7 1
15.276777 19.131475 -1.712104 7 1
-13.076901 30.381330 2.740953 4 1
6.065870 27.113325 -5.000398 8 1
-15.220472 28.157789 -0.511701 5 1
-8.469122 23.357435 18.723524 2 1
-7.273425 8.213945 -12.714290 7 1
-6.254420 12.892693 -8.588902 7 1
12.061218 3.724571 -7.336408 7 1
1.754712 29.308111 2.343880 8 1
10.246224 24.990522 -3.439588 8 1
-15.198988 20.773390 -2.724027 5 1
-22.832693 1.180690 16.590687 3 1
-0.737013 0.497056 4.031906 0 0
18.586882 6.224164 -3.419625 7 1
-0.907800 19.028099 -2.411684 7 1
-2.727698 19.660080 -2.854991 7 1
-8.587014 15.277279 24.747551 3 1
14.636179 -1.081193 -13.274009 7 1
6.841197 25.336914 -4.922985 8 1
-19.310728 12.692142 -0.333544 3 1
-1.424061 4.747878 -11.976045 7 1
6.508328 28.214550 5.860898 9 1
5.094845 1.529571 -14.114663 7 1
9.646067 30.484095 1.611770 8 1
12.405705 28.742046 1.130411 8 1
-3.926456 30.916527 9.884526 2 1
-3.620403 8.772535 3.204822 0 0
3.700076 0.460085 -13.265170 7 1
-19.299154 6.248497 16.705666 3 1
-17.284605 20.012890 -1.485019 5 1
-10.567203 26.650002 -5.575033 6 1
-8.028203 19.701145 8.439431 3 1
-0.010656 1.694203 2.759039 0 0
-3.239976 13.440483 -9.458157 7 1
13.391139 21.031296 -2.729445 7 1
6.294178 5.667554 -8.772478 7 1
1.082187 12.775531 -8.193174 7 1
6.949547 24.409447 -3.952839 8 1
-5.094534 28.870548 8.681653 2 1
-7.573717 32.133808 7.742641 2 1
-3.614287 15.020619 2.599148 0 0
-15.215568 22.162977 8.558684 4 1
11.174396 1.513085 -8.632546 7 1
-6.936068 24.514849 18.631250 2 1
-16.650322 26.469063 -5.243322 5 1
-19.798075 18.062979 13.641242 4 1
10.676462 28.585114 1.913477 8 1
-15.925742 14.014266 3.740522 3 1
-9.096986 27.483854 14.401071 2 1
-13.586395 7.014236 25.505611 3 1
-1.804532 9.222395 -8.769869 7 1
0.935579 19.204235 -1.604220 7 1
-15.079693 10.815794 15.486714 3 1
-24.839039 0.491418 10.634675 3 1
3.284252 32.043953 10.353122 9 1
-21.335684 8.403180 5.955306 3 1
-1.903418 4.107357 -13.793105 7 1
-19.013069 5.406948 24.415037 3 1
-3.348076 14.767097 -5.962111 7 1
-16.165478 14.735448 1.739319 3 1
-6.254460 22.805597 3.397611 0 0
2.717441 3.979474 -10.893754 7 1
-7.542171 21.592827 19.926937 2 1
-18.593466 26.081518 6.700752 4 1
-17.474251 6.559396 21.277653 3 1
-19.059782 20.795839 13.740752 4 1
-20.161325 18.086061 -4.140994 5 1
-18.002558 6.008358 16.645052 3 1
-7.567395 30.589697 10.401149 2 1
-16.722727 27.796083 5.048893 4 1
-22.649378 0.790220 22.839705 3 1
2.560658 31.575056 2.563948 8 1
14.808190 5.664744 -5.671493 7 1
-2.340153 14.369271 -5.716517 7 1
-11.515840 13.067274 17.663586 3 1
-0.245849 14.306685 -7.961085 7 1
-5.127963 31.987675 9.931810 2 1
7.639464 30.050961 2.474204 8 1
-24.153978 1.802126 13.917593 3 1
-17.199701 25.004776 11.358472 4 1
-21.876923 4.113023 24.382200 3 1
-10.013139 19.396385 11.640306 3 1
4.494085 33.201504 5.383272 9 1
4.346496 26.733582 6.403906 9 1
2.379497 28.016914 -0.154967 8 1
-11.002861 15.476939 17.342764 3 1
-10.315063 16.241226 8.713066 3 1
-6.966586 27.966513 16.503403 2 1
11.203600 1.877880 -11.180233 7 1
-5.376805 26.805853 -6.997127 6 1
2.377879 32.075371 7.507063 9 1
-10.627082 12.279124 23.340073 3 1
8.427147 18.758043 -4.842578 7 1
-2.133432 16.048433 -4.522572 7 1
5.055733 4.001403 -10.848616 7 1
-2.010329 -0.294264 1.889607 0 0
-23.504543 3.735145 9.184988 3 1
-16.070402 16.863619 -2.715913 5 1
0.136629 11.257930 -9.413412 7 1
-24.786293 1.302791 11.323500 3 1
-20.307177 4.909745 19.144531 3 1
-7.121694 23.929501 -5.234072 6 1
-23.882187 -0.253599 15.385645 3 1
-7.249062 28.910612 -3.797333 6 1
-9.075257 29.495722 8.542012 2 1
-3.871396 31.238335 5.611071 2 1
-16.003206 15.629304 -0.276978 3 1
-6.068362 32.802994 6.306335 2 1
-17.036037 15.104279 -5.185040 5 1
3.234339 32.652328 1.070561 8 1
13.748248 17.184992 -3.426444 7 1
-8.907795 18.894682 14.187940 3 1
-18.189978 14.166030 -2.108721 5 1
6.405972 28.615873 2.309694 8 1
-6.042724 24.868690 -9.421275 6 1
-20.706270 17.571594 -1.528817 5 1
-14.015158 14.349023 9.995822 3 1
-7.057926 30.798054 6.518156 2 1
8.695498 -0.435947 -13.953320 7 1
18.264242 8.121672 -3.924280 7 1
-10.766419 16.405846 15.777422 3 1
-17.927401 26.866669 7.160549 4 1
-16.125433 26.536505 9.967146 4 1
-2.873202 4.625081 3.205950 0 0
-8.125399 14.865951 -9.177937 7 1
9.659187 22.514643 -2.606163 7 1
-14.917162 24.537539 -0.858130 5 1
7.432200 10.578601 -4.453005 7 1
-5.903409 27.561979 -4.583064 6 1
-11.733912 17.927229 5.308906 3 1
-18.897812 9.990784 8.446654 3 1
-2.073761 32.473362 4.243410 8 1
-4.730020 18.623085 -10.114879 6 1
-19.487249 11.416488 2.200082 3 1
4.346223 31.219097 11.373627 9 1
-2.230062 12.115460 -9.959839 7 1
-23.449352 4.239957 8.178170 3 1
-4.330333 23.615747 -7.294499 6 1
7.013813 12.617871 -3.811220 7 1
-23.379194 6.801569 4.316336 3 1
4.711107 0.604815 -14.961507 7 1
-8.318381 28.439524 5.248264 1 1
13.358883 23.384823 -0.484049 8 1
-6.593300 20.538071 13.855876 2 1
-19.039236 18.768272 -1.277212 5 1
-12.039727 8.562944 24.344336 3 1
-0.346417 4.709521 -12.701954 7 1
-12.024261 16.659533 11.374115 3 1
10.324515 3.216360 -8.554432 7 1
-21.182556 9.205946 4.140025 3 1
1.343480 7.872067 -10.228337 7 1
-11.501757 25.926815 12.298645 2 1
-10.736650 27.105150 10.743758 2 1
17.256735 7.856833 -2.922259 7 1
-14.890482 7.058324 25.529041 3 1
-8.727708 19.071178 12.986769 3 1
-14.560885 17.562246 0.399638 3 1
-16.348074 10.746042 12.631303 3 1
-20.701147 19.802868 12.829790 4 1
-13.810310 15.237519 4.852968 3 1
-15.131886 10.022209 13.216931 3 1
-17.199785 10.606844 8.418755 3 1
-22.626575 -0.328635 22.348879 3 1
6.429311 8.009558 -8.047748 7 1
-15.484729 22.853292 -1.300687 5 1
5.514618 27.908978 1.984464 8 1
-4.709135 20.163811 -11.453585 6 1
16.375584 0.112302 -7.657779 7 1
8.063778 30.477139 6.634770 9 1
-5.853374 17.733242 1.922400 0 0
-3.250181 12.654033 4.885653 0 0
-17.239044 19.481216 11.880834 4 1
-4.034714 6.606119 -13.520189 7 1
-6.995380 18.057901 23.273760 3 1
13.801635 0.053574 -9.703780 7 1
2.448020 1.745567 -12.924652 7 1
-15.334789 26.496399 5.242703 4 1
-20.300625 8.573577 7.718892 3 1
-9.697404 25.020369 -4.600175 6 1
2.334895 17.811083 -2.393881 7 1
-6.257248 16.583212 -6.318299 7 1
8.925796 3.071051 -8.236731 7 1
14.549065 3.867325 -5.891269 7 1
-8.886835 17.205832 22.345747 3 1
-5.575440 26.289211 4.538441 0 0
7.329674 1.386089 -11.758279 7 1
-21.946764 8.835407 2.551543 3 1
-18.157925 20.135069 -7.169229 5 1
-17.475918 12.058364 7.339645 3 1
4.437876 7.922814 -8.777870 7 1
-6.418368 22.551661 -11.457063 6 1
-18.681265 14.519747 -0.278900 3 1
2.069094 5.214190 -11.307324 7 1
-17.540577 20.818851 13.405620 4 1
0.497023 21.054564 -2.685934 7 1
3.012636 28.206137 6.967685 9 1
-16.270489 16.713638 -6.137852 5 1
-22.860409 7.022080 6.234379 3 1
4.849343 29.503372 -1.046233 8 1
-2.114404 12.521494 4.039993 0 0
-12.741363 16.557623 6.834670 3 1
-16.293682 13.811231 6.170182 3 1
-2.847168 31.798738 2.398777 8 1
-24.022449 4.988058 6.285219 3 1
-8.332802 25.981361 6.791004 1 1
-5.140555 33.068443 4.589362 2 1
10.861252 10.156881 -3.523846 7 1
-3.933036 18.357716 1.997799 0 0
3.204293 19.321161 -1.867892 7 1
-3.723109 9.943027 4.651149 0 0
8.115974 27.887276 9.829732 9 1
-0.830971 12.586628 -9.093443 7 1
-16.807365 5.793115 22.776546 3 1
8.515089 1.902653 -13.207990 7 1
2.080462 29.159641 7.338622 9 1
10.246436 19.949884 -4.462186 7 1
8.642774 29.088110 0.325629 8 1
-12.161879 15.940103 14.240795 3 1
-2.594980 2.580828 3.109290 0 0
6.210704 18.366676 -5.382056 7 1
-23.196970 0.039188 17.687208 3 1
4.963327 28.381294 13.097141 9 1
-14.067691 16.670298 3.824227 3 1
-2.015030 11.258067 -7.534401 7 1
-11.163949 27.478287 12.367159 2 1
-6.289131 13.844256 -9.549998 7 1
-22.085478 6.639966 8.108322 3 1
10.295203 25.183638 10.105698 9 1
-15.044844 14.228327 8.115028 3 1
-7.501779 28.725721 1.334941 0 0
-18.857944 7.841083 13.198326 3 1
11.039021 11.213718 -5.562563 7 1
5.940322 26.677887 6.925749 9 1
-4.205711 30.893610 11.563543 2 1
-16.219048 10.218686 14.070901 3 1
-10.086468 30.150137 1.652917 4 1
-2.566764 7.131151 2.528417 0 0
-22.635771 2.595270 22.434107 3 1
10.466680 13.180336 -2.723780 7 1
-22.728203 5.666557 8.693993 3 1
-3.456641 23.625494 -9.034784 6 1
-19.586857 3.087012 19.611443 3 1
5.190559 29.815624 2.797696 8 1
-4.358829 29.176008 12.648799 2 1
-21.641756 18.802629 -2.701859 5 1
-10.275923 28.862331 -1.923030 6 1
-9.259504 13.734697 25.349051 3 1
3.459310 27.311052 -0.435765 8 1
-14.663310 9.985161 18.251192 3 1
-9.943214 27.221514 10.069221 2 1
-15.016325 12.401482 12.227219 3 1
-4.404619 18.490211 -5.471364 7 1
10.289518 25.045368 8.367492 9 1
-12.477268 14.763050 8.290931 3 1
-21.336924 20.203749 11.181246 4 1
16.911331 1.731593 -4.667056 7 1
-9.294789 22.784916 13.065506 2 1
-11.322903 18.235468 12.514688 3 1
7.923929 28.819252 8.519642 9 1
4.568228 19.806061 -2.172553 7 1
4.357035 14.222892 -6.707999 7 1
10.212400 27.755119 6.868969 9 1
0.652180 32.508942 2.650959 8 1
2.067091 -0.156526 -14.041380 7 1
-2.941954 33.352028 3.874559 9 1
0.644851 17.605949 -5.250508 7 1
-8.340645 30.361544 2.161696 0 0
-7.407655 25.632381 9.766629 2 1
16.167410 15.226343 -0.157189 7 1
-5.780278 20.719749 20.293781 2 1
-9.006109 17.763720 19.738060 3 1
-5.271496 18.097046 5.984030 0 0
-9.652653 21.133499 15.093553 2 1
-10.804069 23.680363 13.122294 2 1
-4.156515 14.218746 -6.722180 7 1
-20.577370 2.692065 22.594341 3 1
12.203087 15.615715 -4.125195 7 1
2.570253 29.624168 10.219306 9 1
-20.751225 21.901440 -3.507372 5 1
-11.675844 14.617242 10.051186 3 1
14.488754 20.075567 -2.129970 7 1
-20.228249 16.828524 13.081724 4 1
-3.351210 15.223771 -8.588809 7 1
-14.001804 16.054619 5.587055 3 1
14.636963 6.559102 -4.028443 7 1
-20.016079 15.743443 -1.824882 5 1
-4.012969 11.276978 3.073613 0 0
6.843020 28.967279 10.261789 9 1
-4.854532 18.494520 -11.329157 6 1
-12.384783 17.234962 3.480972 3 1
-8.762778 27.868107 2.334565 0 0
-16.633272 25.839800 11.683551 4 1
-18.103050 6.968967 17.772261 3 1
9.517353 7.040626 -7.337239 7 1
-4.048660 33.144558 3.842013 2 1
-5.309535 24.332411 4.161097 0 0
-24.626587 2.219304 10.550621 3 1
-12.196509 12.592557 14.812000 3 1
-0.606961 33.234375 7.789126 9 1
7.949111 25.625319 0.928457 8 1
8.054759 23.825294 -4.341925 7 1
-16.462976 7.722472 16.060230 3 1
-5.913538 19.433655 0.983883 0 0
-1.180905 10.635809 -7.525391 7 1
13.204648 1.234725 -11.974319 7 1
-6.978611 25.848394 -4.065434 6 1
-6.421104 25.918280 3.646641 0 0
-3.359314 18.700449 -4.777909 7 1
1.865405 28.232241 -1.167215 8 1
9.160421 6.366942 -5.922291 7 1
6.876586 3.016806 -11.472284 7 1
-5.270290 15.177289 -6.671854 7 1
13.042562 26.137064 0.991669 8 1
11.205930 21.699022 -3.655054 7 1
-14.798980 11.798145 14.021783 3 1
-12.250834 12.651438 21.727531 3 1
-4.362547 17.856367 -6.821529 7 1
-16.176788 9.288429 12.741398 3 1
-17.668165 9.510311 12.176425 3 1
12.774553 0.631718 -8.942387 7 1
1.720734 8.637139 -7.703841 7 1
9.799904 24.100895 -3.994904 8 1
18.851084 7.282024 -3.107134 7 1
-12.406350 9.855930 21.945164 3 1
3.754074 21.301762 -1.990726 7 1
10.954131 11.957109 -2.779871 7 1
7.575377 17.955011 -5.071203 7 1
11.820286 -0.206352 -12.270167 7 1
-11.252883 13.980263 13.669610 3 1
-17.201778 14.875317 -0.679450 3 1
-12.516584 15.724442 10.321823 3 1
-3.373355 20.134045 -2.095434 7 1
-7.309091 18.430199 -12.773807 6 1
11.680077 18.499359 -3.834889 7 1
-20.765022 23.268309 10.586212 4 1
-5.544790 22.106949 -7.257631 6 1
-10.784636 30.288347 -0.493498 5 1
-12.489646 12.393115 20.302147 3 1
10.006096 -0.712479 -14.917244 7 1
-7.094395 14.735509 -7.783280 7 1
-10.430459 25.379667 5.656565 1 1
13.652006 10.716171 -4.609894 7 1
-1.046872 32.459957 6.100210 9 1
-18.758032 21.009436 -6.225924 5 1
14.582450 0.589061 -11.779473 7 1
15.505643 -0.491055 -10.166667 7 1
-1.107874 33.928673 4.594972 9 1
14.871637 14.964882 -2.723997 7 1
6.289385 1.769084 -13.713847 7 1
-12.149844 27.383162 4.873229 4 1
-2.378722 16.321831 4.088871 0 0
-20.008268 5.493036 14.410666 3 1
-6.244944 8.089095 -13.987905 7 1
-14.049406 29.727634 4.196347 4 1
-18.013643 23.627863 12.531216 4 1
-15.227275 8.479098 17.524183 3 1
-16.282824 24.532080 6.345076 4 1
-0.396460 31.539076 5.043784 9 1
-6.055986 23.905766 13.540757 2 1
-10.048150 15.632270 12.674640 3 1
-14.328482 29.472029 -2.289721 5 1
3.274537 6.916633 -8.176832 7 1
-16.961704 21.405357 8.507058 4 1
-9.928832 15.033669 18.089962 3 1
-11.291080 17.691614 6.571269 3 1
-18.148800 17.774002 -1.541714 5 1
5.519309 1.386363 -12.529588 7 1
-7.513303 17.994280 6.709717 3 1
13.883715 24.644827 -0.135773 8 1
-13.622867 27.073992 -1.897741 5 1
-16.227039 19.733402 -5.914508 5 1
-21.620054 3.569387 18.785885 3 1
10.582300 0.834913 -10.712643 7 1
-14.615451 24.054680 -3.921067 5 1
-15.974673 17.540108 -3.580441 5 1
9.664056 27.231632 -1.041482 8 1
7.000692 16.392679 -5.421367 7 1
3.459014 13.342715 -4.035098 7 1
-6.945011 24.069191 12.134309 2 1
-10.815445 24.620560 8.942718 1 1
-14.163922 24.648693 9.381028 4 1
-15.190250 28.988775 -3.322317 5 1
-5.324808 25.402195 0.928600 0 0
-3.293795 3.926959 -14.467706 7 1
-13.725253 27.895998 8.044777 4 1
10.968292 22.622213 -2.719070 7 1
-11.278493 14.114834 20.778500 3 1
-20.280239 21.097929 12.605361 4 1
-15.006432 12.240323 8.986769 3 1
-8.180204 19.419498 19.413254 3 1
-17.432121 21.636511 -7.563151 5 1
-15.452538 9.041026 18.631794 3 1
14.953208 13.756656 -0.528913 7 1
11.160920 25.387987 1.353196 8 1
2.306285 28.806292 5.418424 9 1
8.956683 -0.184293 -15.924237 7 1
-5.399007 26.705193 10.753727 2 1
-1.949063 5.313730 4.482474 0 0
5.497657 20.346882 -2.201687 7 1
1.506153 0.251670 -14.895588 7 1
16.532307 3.499658 -5.255905 7 1
-20.758045 17.099342 -3.117301 5 1
-5.958515 28.988865 1.388389 0 0
4.888969 31.443813 4.515105 9 1
-22.273664 2.654926 19.138659 3 1
1.711725 30.362474 9.517954 9 1
-2.883932 6.398316 3.709090 0 0
-8.624317 20.225718 -7.769346 6 1
6.393798 27.014748 12.558488 9 1
-11.951613 16.606646 8.767851 3 1
4.179923 30.411716 2.859137 8 1
-19.003143 23.663597 -4.716369 5 1
-6.257566 27.462564 -7.311776 6 1
-5.720368 16.876245 2.561110 0 0
-8.517499 21.581238 -11.685983 6 1
0.062996 16.239958 -6.609180 7 1
-4.801810 3.811347 -13.650367 7 1
-10.127258 21.749880 15.844258 2 1
-12.309698 16.391165 5.060199 3 1
-19.105448 7.173145 14.415597 3 1
0.304094 16.519526 -3.260964 7 1
-18.711075 12.397622 1.771166 3 1
-9.390128 21.751345 -8.163539 6 1
-17.712292 22.865965 7.889531 4 1
-18.763969 23.070950 -5.544745 5 1
-7.888687 19.571211 -8.087402 6 1
-8.206452 29.570797 12.063149 2 1
-9.454983 14.870865 21.081139 3 1
-18.821985 16.723957 -1.479870 5 1
-15.559970 15.485239 1.087433 3 1
7.764459 2.472375 -9.811060 7 1
-10.840681 24.222479 16.072277 2 1
-16.750948 15.859786 -6.373337 5 1
-2.891233 9.420028 -11.619285 7 1
-8.291277 16.414564 20.663422 3 1
-17.238380 14.650022 -1.695662 5 1
5.840127 25.352785 -3.222210 8 1
-4.506326 30.369768 4.544820 0 0
-5.426865 19.454277 4.816346 0 0
-7.445675 16.407183 -8.218985 7 1
3.478549 27.232710 -1.623497 8 1
4.377344 26.706726 -3.351664 8 1
-15.845350 11.906100 11.381292 3 1
14.041368 12.222521 -1.255697 7 1
-5.516267 20.995417 -6.361331 6 1
-8.628157 13.882487 -8.738578 7 1
-15.823966 26.267263 11.177949 4 1
-9.481097 30.313932 10.964091 2 1
-12.870133 26.686157 6.271372 4 1
-6.963480 28.418026 8.356944 2 1
1.928172 3.523613 -11.696984 7 1
-6.506659 26.120501 18.000385 2 1
-16.040277 25.908901 -0.478317 5 1
-1.012123 6.588440 -11.956265 7 1
-4.182002 19.700825 -3.754539 7 1
-10.245798 18.010155 8.202056 3 1
-10.993605 9.826496 25.531540 3 1
-13.936409 9.325757 21.299116 3 1
-3.120907 2.703839 -13.550911 7 1
-18.609261 21.923738 9.053528 4 1
-19.454866 20.506828 -1.578037 5 1
-7.104043 26.635389 3.442619 0 0
-7.924121 13.301587 -9.947638 7 1
-0.602169 3.978456 -13.404456 7 1
-5.716990 17.041389 -8.023251 7 1
-5.241383 26.483494 -6.034867 6 1
-8.748723 22.364124 18.655931 2 1
-2.733284 10.194708 2.528676 0 0
12.064612 24.708519 -1.670654 8 1
0.274967 32.369415 8.474490 9 1
-15.427584 9.275184 14.733849 3 1
-2.682917 16.856176 -7.568541 7 1
-4.898111 29.709227 3.438205 0 0
-13.701189 16.654678 1.883089 3 1
-13.157496 16.626783 3.301835 3 1
11.597279 1.911667 -7.814134 7 1
-5.873235 16.972279 6.214234 0 0
-5.631535 16.985737 -9.609779 6 1
-8.255318 26.865589 4.740674 1 1
13.249919 13.777115 -3.738982 7 1
-9.746009 24.848104 -5.647539 6 1
0.762778 31.117405 -3.331175 8 1
2.665353 32.181919 9.466154 9 1
1.703448 3.112009 -13.268467 7 1
-7.956696 18.331846 9.184048 3 1
-0.592866 1.921804 -14.715740 7 1
3.535817 33.173855 5.029714 9 1
-15.613742 29.587996 -0.756433 5 1
12.275586 19.316252 -2.546383 7 1
-11.554956 14.193182 18.676180 3 1
-2.657767 10.619029 -10.841372 7 1
11.990072 28.120012 -0.016913 8 1
9.735134 25.324986 11.045903 9 1
-6.958346 20.005201 -6.689610 6 1
-12.199598 30.775824 0.368638 5 1
-12.445966 15.597694 13.349465 3 1
1.537586 4.661978 -12.002401 7 1
-13.337097 24.935707 8.518416 4 1
-8.463230 17.058397 16.048925 3 1
7.270145 29.843019 0.522736 8 1
18.640825 9.077894 -1.758564 7 1
-9.018049 31.451141 7.899112 2 1
-16.533789 7.308718 16.979143 3 1
-19.836817 14.195196 -2.178138 5 1
-8.627606 19.884365 -10.681578 6 1
0.406975 17.764919 -2.613530 7 1
-13.667904 15.542829 7.638667 3 1
7.795654 27.562437 11.411081 9 1
-9.120422 26.787575 1.917261 0 0
9.090405 28.976810 7.197504 9 1
4.750715 27.970121 11.961812 9 1
-4.441006 31.549841 6.642102 2 1
-1.446994 3.235029 -13.142381 7 1
1.727427 10.015951 -9.253758 7 1
7.898014 23.637600 11.519712 9 1
-15.998981 10.695980 10.300226 3 1
-8.037684 25.120043 10.605304 2 1
8.625227 25.754303 7.528469 9 1
-13.939371 31.117180 -1.827186 5 1
-19.258150 8.328810 9.805677 3 1
-9.521565 23.875639 -6.047375 6 1
-13.457193 14.012004 12.286288 3 1
-8.462718 17.810759 8.115417 3 1
-12.759900 13.211290 10.938076 3 1
5.875379 29.601452 -0.120744 8 1
-17.292994 8.655690 15.183551 3 1
2.855553 14.601865 -3.613212 7 1
14.543883 18.240475 -1.588509 7 1
-13.417798 29.922436 5.917440 4 1
-7.519751 27.991129 -2.687274 6 1
-21.555225 21.985785 10.339382 4 1
3.641305 22.361065 -3.315143 7 1
-0.832915 7.940084 4.487350 0 0
-9.808027 30.440386 9.158112 2 1
-9.466394 15.917091 23.900158 3 1
-2.139668 10.960439 2.800705 0 0
12.191896 12.261140 -2.102746 7 1
-23.309338 3.011343 13.560992 3 1
-2.312162 13.133413 -6.503823 7 1
3.794079 28.113575 10.002407 9 1
9.741983 1.312819 -10.399379 7 1
-22.351744 3.247140 13.841741 3 1
12.105044 7.270294 -6.520779 7 1
3.896196 29.702614 12.111520 9 1
-14.898211 24.748140 -5.360903 5 1
-17.724089 7.783734 13.256968 3 1
-4.532066 28.093380 11.638667 2 1
-7.886983 28.700483 -5.062711 6 1
-7.279490 26.632006 -3.541625 6 1
14.980393 0.840620 -7.205432 7 1
-5.249849 29.092390 15.012713 2 1
-8.435502 15.797448 -8.924510 7 1
16.813307 12.137989 -0.271997 7 1
-11.721141 15.843339 7.297582 3 1
-14.880768 23.136742 8.777932 4 1
-12.535007 14.300728 15.030567 3 1
5.558070 22.449118 -4.402411 7 1
-6.339133 18.647533 2.592890 0 0
-17.658234 25.749935 8.553370 4 1
4.554634 22.761787 -3.004606 7 1
-10.401170 28.990286 11.921763 2 1
4.093849 15.128613 -6.414579 7 1
-14.316924 23.574232 5.953618 4 1
5.279537 8.374820 -6.439762 7 1
-21.332090 1.797328 19.344854 3 1
-5.926278 16.984932 3.568835 0 0
9.566614 3.817058 -8.356760 7 1
-19.042900 26.282898 -2.550980 5 1
-8.472336 19.556049 -9.697728 6 1
-9.075541 30.400723 0.239189 0 0
9.401861 29.130684 2.156178 8 1
-16.373526 21.069946 10.838741 4 1
-8.358881 22.935841 12.794208 2 1
-11.391733 28.987598 2.059996 4 1
-24.642796 1.022868 14.469078 3 1
7.113862 21.556108 -5.026337 7 1
-18.266260 22.282057 -6.903745 5 1
4.884561 5.081671 -9.894209 7 1
4.517935 31.765007 6.596798 9 1
-20.371454 9.087744 6.559908 3 1
-9.886964 17.200798 7.217770 3 1
-21.868448 20.654686 -2.338935 5 1
17.520050 0.800604 -5.708317 7 1
-20.043196 2.494203 21.456686 3 1
-5.353524 27.307783 0.921132 0 0
-5.325714 18.693077 -5.065616 7 1
-17.006073 9.925583 10.079159 3 1
0.232908 6.278884 -9.937336 7 1
-17.350393 9.209127 13.574532 3 1
-15.360741 13.323683 9.463507 3 1
9.822770 24.777088 0.824112 8 1
-3.101197 16.790735 5.687687 0 0
-0.398324 29.872711 0.472882 8 1
-16.990257 19.527050 10.461473 4 1
-20.083691 24.020025 -3.157353 5 1
5.089264 28.293606 5.420674 9 1
4.896830 28.629751 -4.358507 8 1
14.067906 13.517622 -0.972993 7 1
-3.621102 13.232151 -7.096425 7 1
14.497136 1.829694 -6.567779 7 1
17.604628 11.074639 -2.198985 7 1
-17.819469 8.868699 10.894175 3 1
-8.946132 22.090914 -6.273564 6 1
-16.820265 16.559837 -1.328643 3 1
-18.410803 24.665989 7.392925 4 1
-10.011271 25.456564 -7.165447 6 1
-4.802151 18.889277 -8.379750 6 1
2.234135 28.328974 -3.161746 8 1
-18.940569 4.323838 24.398371 3 1
16.600014 5.567037 -4.847320 7 1
-8.957963 30.686050 -0.697714 6 1
-10.909654 12.945092 21.347122 3 1
11.892984 -0.053777 -15.223151 7 1
-22.500042 3.181518 16.170216 3 1
3.470536 12.636681 -7.540809 7 1
0.520325 20.385084 -0.120165 7 1
-7.392678 19.610256 24.440727 3 1
7.184560 26.959402 -4.092711 8 1
-16.480999 12.458842 8.772037 3 1
7.874022 0.729040 -14.761270 7 1
5.975698 28.610737 -1.827643 8 1
-11.481338 13.602298 22.500584 3 1
-7.263403 25.462004 1.168536 0 0
-6.488658 17.739925 -7.187541 6 1
-8.283008 21.430922 14.105216 2 1
-8.474700 26.025040 -8.443733 6 1
-5.555476 23.241947 16.156481 2 1
3.229791 0.666209 -14.896056 7 1
-6.018902 15.481731 -11.306909 6 1
-9.103820 26.561979 10.106353 2 1
0.486322 31.323400 -0.044418 8 1
-19.645676 21.816755 -4.930440 5 1
-2.417096 31.276176 1.626807 8 1
-10.117783 14.840975 25.314863 3 1
-19.064444 13.449309 -1.193156 3 1
2.654518 29.618500 -4.390938 8 1
-16.688126 13.150380 6.774462 3 1
7.612354 25.162327 -0.993369 8 1
10.747376 29.574816 0.615548 8 1
1.326860 31.931870 0.936799 8 1
-14.941572 24.607929 5.522068 4 1
8.624678 5.590209 -7.913309 7 1
-13.941134 27.761782 -3.105216 5 1
14.802259 17.712660 -2.990537 7 1
-20.851292 22.871199 9.382294 4 1
-17.825066 13.898851 2.463024 3 1
-11.484242 30.979555 -0.326104 5 1
-17.395029 23.589659 7.298551 4 1
6.321778 31.150661 0.878385 8 1
-19.136276 8.153956 11.631941 3 1
12.374022 4.560556 -5.217199 7 1
-19.236975 21.641378 -1.476578 5 1
-1.802249 4.042391 -12.589342 7 1
-5.762404 11.550207 -11.050510 7 1
8.992231 20.977367 -4.392375 7 1
-9.477808 17.703842 17.012602 3 1
-2.979739 19.259144 3.039553 0 0
12.021081 2.525654 -7.107160 7 1
-2.645975 14.255799 4.955444 0 0
14.321367 -0.982965 -14.205897 7 1
9.404900 22.678751 10.899807 9 1
-17.857828 5.679997 17.865932 3 1
-4.324443 26.028158 3.498358 0 0
-1.492563 3.086019 4.333461 0 0
-6.199718 29.529528 2.674473 0 0
-8.250244 20.380322 -12.083830 6 1
-15.153788 16.325350 -0.823955 3 1
-13.147345 10.648087 20.742088 3 1
-9.878367 24.873014 16.650732 2 1
7.117864 15.943083 -3.172848 7 1
7.918458 27.280514 6.733060 9 1
-1.019294 32.322548 -0.744541 8 1
-18.870970 4.672637 18.039677 3 1
1.630083 13.466243 -7.666098 7 1
-7.188744 7.404115 -13.415899 7 1
-6.340483 10.183732 -10.499163 7 1
6.196229 15.221192 -5.819307 7 1
-18.259172 17.840223 12.795181 4 1
-21.593487 2.693146 16.848803 3 1
-19.889698 16.028173 -3.928556 5 1
-4.118502 28.099291 3.488890 0 0
-1.283541 19.435255 0.092903 7 1
6.360158 22.101139 -2.257145 7 1
-21.250435 19.466951 -3.339223 5 1
-2.869227 33.341389 2.288496 8 1
3.203774 29.641180 2.981850 8 1
-9.785360 23.115667 17.172562 2 1
6.813342 25.419460 11.161738 9 1
-24.627865 -0.930912 19.043299 3 1
3.422163 9.249442 -6.621768 7 1
-12.954085 14.141937 13.926501 3 1
7.931792 8.324486 -7.541165 7 1
-4.710811 30.784578 13.307282 2 1
-20.188917 11.657746 0.426147 3 1
-3.178915 7.353349 3.281373 0 0
-15.082545 16.489628 2.300157 3 1
-1.070433 4.663073 4.423581 0 0
-21.306082 4.352076 16.499929 3 1
13.701940 16.618538 -1.680219 7 1
5.610964 16.855019 -2.862477 7 1
-15.190721 15.375576 2.187789 3 1
-11.721638 9.451056 24.123772 3 1
-12.972806 17.917034 3.028208 3 1
-19.317036 26.045645 7.814471 4 1
-19.319248 4.872183 16.826126 3 1
-11.137869 29.259697 3.184035 4 1
-11.715466 14.730206 16.768152 3 1
-13.563704 10.104794 17.777306 3 1
18.228456 10.368245 -0.977732 7 1
-24.338610 -0.799940 14.633858 3 1
4.808056 30.638865 3.911064 9 1
-0.440145 15.899383 -3.780221 7 1
12.206867 29.447906 0.463433 8 1
-4.467052 28.596069 13.458700 2 1
-8.435630 11.819812 -11.268304 7 1
15.279687 14.996381 -0.460450 7 1
-5.078685 25.361174 13.340305 2 1
-13.142906 11.937718 18.354214 3 1
-8.784360 14.944887 23.810209 3 1
-8.982409 19.371363 6.598693 3 1
5.531618 30.117981 10.091915 9 1
-4.400224 11.975822 -8.299627 7 1
12.463357 9.147142 -3.580425 7 1
7.513518 27.576904 12.772150 9 1
-10.151787 15.284496 22.332088 3 1
-9.356204 22.195387 17.627163 2 1
-5.293785 20.174810 0.847216 0 0
-16.441549 11.202728 8.554268 3 1
-18.202469 10.753389 6.493968 3 1
-6.285396 17.185596 5.231852 0 0
7.892960 10.130928 -7.050675 7 1
1.871243 30.682997 -0.594881 8 1
-13.232385 8.570627 24.914454 3 1
9.166167 8.754595 -7.073323 7 1
-18.866341 12.381114 3.467635 3 1
15.122847 10.856888 -3.724055 7 1
-15.873426 21.194088 -1.488754 5 1
-24.393896 1.933807 12.943747 3 1
3.339844 31.528772 7.973074 9 1
-20.561039 22.123383 -1.766769 5 1
-7.538761 23.715921 -10.334299 6 1
0.196868 13.118429 -8.352405 7 1
-0.471666 3.019321 -12.984512 7 1
-3.533559 31.413979 3.932856 9 1
-17.120897 18.955385 -7.441613 5 1
-13.653850 28.970278 2.451903 4 1
-21.578835 7.776168 7.347540 3 1
-17.770327 24.192516 -6.150007 5 1
1.952662 33.759750 4.733495 9 1
7.185550 22.504526 -3.907802 7 1
-15.907467 25.067312 -5.833287 5 1
-11.766614 13.312840 23.537260 3 1
-17.109686 12.941978 3.892890 3 1
-22.709646 2.176205 14.834436 3 1
1.815386 28.468904 0.604597 8 1
12.162651 23.234350 0.004261 8 1
-6.659878 16.315603 -11.059570 6 1
-19.405392 13.033812 1.402678 3 1
8.850777 22.796452 -3.122396 7 1
-4.392822 23.161398 2.958077 0 0
6.003708 26.070314 10.952580 9 1
-9.044031 25.182913 6.653815 1 1
4.491149 32.459202 1.057475 8 1
-18.411995 7.329502 15.876436 3 1
6.039799 2.597102 -10.796214 7 1
-2.484179 7.559086 4.672213 0 0
-8.248377 17.834080 11.129036 3 1
-8.309721 19.852709 14.718275 2 1
5.032726 30.819145 8.046395 9 1
-0.413423 19.688745 -0.363335 7 1
-18.511444 4.490298 19.346354 3 1
7.720928 3.660902 -8.376397 7 1
-14.184243 9.980890 19.398724 3 1
8.297069 3.408136 -9.653962 7 1
-2.891102 9.308734 4.765679 0 0
-4.062463 17.006809 -4.993479 7 1
-17.168968 10.618140 11.010601 3 1
-18.083643 14.311318 1.316612 3 1
14.372391 6.944630 -5.518552 7 1
12.919653 18.542721 -3.439388 7 1
-3.449075 5.160980 -12.366767 7 1
0.310234 32.873783 3.835010 9 1
-17.986094 26.151648 -3.745730 5 1
-11.037712 29.286514 0.586105 4 1
11.955552 14.118634 -4.381474 7 1
-4.414081 29.337934 10.089405 2 1
7.856417 26.604664 13.096137 9 1
10.904184 2.290362 -10.019596 7 1
0.964177 14.640709 -7.351970 7 1
12.283265 26.384609 -0.718904 8 1
-17.535322 7.450116 14.230164 3 1
-24.236923 4.032987 7.549603 3 1
-8.389091 30.413883 -2.126179 6 1
6.039306 18.032848 -2.712785 7 1
6.982376 7.766857 -6.066826 7 1
16.231342 8.901545 -4.359258 7 1
9.922662 21.835583 11.573920 9 1
7.279592 23.495392 -2.872366 7 1
-20.183369 10.577233 2.928812 3 1
4.572074 2.843968 -12.879709 7 1
-23.373806 1.576287 17.939528 3 1
-11.391572 14.167789 11.655109 3 1
-12.486823 13.940115 9.983867 3 1
-0.395142 20.768770 -3.025778 7 1
-8.090273 30.168926 -3.577126 6 1
-4.222572 25.394047 -9.256628 6 1
7.748350 28.104677 -1.056953 8 1
8.863800 31.148863 0.552872 8 1
0.356973 33.956245 2.090957 9 1
-12.937063 12.606886 17.632690 3 1
-14.116081 26.620815 -1.073496 5 1
-4.303411 20.626562 -8.905550 6 1
-8.256631 26.774027 0.781010 0 0
-9.266907 23.462210 -7.410359 6 1
8.922865 16.685587 -4.995921 7 1
-20.134350 22.311562 -4.263717 5 1
-3.803190 9.725938 3.712753 0 0
2.937390 30.060003 -2.140319 8 1
-2.732363 3.913216 3.877311 0 0
-24.338268 0.911847 16.290579 3 1
-5.423992 20.940300 16.785505 2 1
-2.889575 6.962253 -12.719334 7 1
-5.495069 15.306173 -9.141477 7 1
-16.451839 26.770634 7.554080 4 1
9.238359 30.196213 0.775541 8 1
11.975618 1.251408 -13.898721 7 1
-7.577178 23.265718 19.171926 2 1
-1.320890 1.081529 1.811882 0 0
-13.766654 24.712347 5.449785 4 1
-7.080824 17.784672 5.454119 0 0
4.891110 10.000612 -5.542307 7 1
-14.800565 27.340853 9.312703 4 1
-2.313176 0.692252 2.872209 0 0
-14.559150 8.020119 20.384539 3 1
-15.390975 26.472778 -4.755394 5 1
-23.630796 6.110140 4.962223 3 1
-10.788174 14.450345 14.596890 3 1
-9.362274 24.897110 -8.683803 6 1
9.414609 28.553228 0.108643 8 1
-7.913744 17.832638 -11.002578 6 1
-10.864558 18.204388 4.752908 3 1
2.740714 20.262358 -1.519514 7 1
-15.749280 23.261356 -6.045551 5 1
-10.001156 29.340002 -1.033774 5 1
-3.488210 8.114398 3.889197 0 0
6.810679 0.115258 -13.615805 7 1
12.971219 3.523815 -7.045284 7 1
-18.867954 24.850199 -3.728905 5 1
-6.734542 32.468624 5.398138 2 1
-12.435377 29.712257 -0.629654 5 1
-0.395421 3.285412 3.499040 0 0
-2.602838 2.080492 4.152637 0 0
-4.087832 31.914892 8.240570 2 1
2.838492 3.549536 -12.461952 7 1
-6.452857 28.487165 3.561660 0 0
8.083383 0.077026 -15.666548 7 1
4.613779 21.728577 -4.742238 7 1
-9.492488 28.273540 6.904483 1 1
-12.038218 27.773878 12.108929 2 1
-7.936277 31.090391 2.609391 0 0
5.917606 32.268047 1.423486 8 1
-17.169569 15.667731 0.568226 3 1
0.422725 1.911674 -13.531531 7 1
-10.307717 28.948786 10.068914 2 1
-21.086876 1.008168 21.922773 3 1
-15.899026 9.667234 16.139713 3 1
-23.106440 5.105112 8.013482 3 1
16.438469 10.960305 -0.959518 7 1
-2.512690 18.827824 -3.345969 7 1
-16.805212 26.504885 -0.354032 5 1
1.069399 33.280247 6.256304 9 1
-2.777432 14.172606 -8.813838 7 1
12.972873 6.667361 -6.255479 7 1
-5.203210 27.302725 16.347614 2 1
-8.188415 25.734983 1.191298 0 0
8.122593 15.535176 -5.381755 7 1
10.370642 2.708300 -9.348317 7 1
-15.785121 8.431811 19.433580 3 1
10.637891 0.410920 -14.946469 7 1
-5.717061 28.955187 7.978048 2 1
2.259487 13.052546 -4.604038 7 1
-13.254507 9.294412 23.140326 3 1
3.940432 27.496532 1.170159 8 1
-1.454310 14.712404 -8.140676 7 1
-2.472233 17.639870 2.636500 0 0
-0.479652 30.521992 -1.086773 8 1
-16.171926 13.455797 4.457942 3 1
14.931781 -0.941515 -12.366762 7 1
-18.029890 22.943085 -1.320411 5 1
-4.417337 18.033648 5.466361 0 0
-5.490676 23.300795 4.140101 0 0
-9.536984 15.614994 17.251907 3 1
-6.110286 30.474257 14.383567 2 1
13.386662 10.757996 -2.422150 7 1
-9.427743 27.539646 5.425622 1 1
-5.296694 25.681086 16.548141 2 1
-7.269563 31.595675 1.801994 0 0
-20.007339 15.158793 -3.304573 5 1
-0.674165 6.072314 -10.584724 7 1
-6.720440 9.452497 -11.832657 7 1
-8.268894 15.911551 22.529638 3 1
7.934645 2.308916 -12.537295 7 1
-11.472949 30.813822 3.436136 4 1
-20.599472 19.207615 -1.798112 5 1
-18.100418 5.610273 24.674730 3 1
3.791057 21.626020 -4.267663 7 1
-17.071001 8.263278 16.907961 3 1
-3.202997 5.432708 2.847794 0 0
-13.299291 9.638952 19.648149 3 1
-13.429570 27.762033 3.035252 4 1
-4.706485 16.402435 5.571152 0 0
-13.254133 30.819439 -1.257633 5 1
8.219134 11.462903 -6.522202 7 1
-7.476969 29.070827 -2.253031 6 1
2.601386 12.248985 -7.884326 7 1
-15.700561 20.900839 -5.312410 5 1
-7.372212 17.374590 -11.621420 6 1
-6.110134 5.172440 -13.613290 7 1
-5.259947 28.892353 3.725884 0 0
-2.858410 12.010378 2.618978 0 0
-8.342240 29.904411 7.783602 2 1
-6.317558 23.445950 -6.024528 6 1
-7.717981 31.460012 6.605723 2 1
-5.681009 18.656395 7.316327 0 0
-17.065437 11.195060 10.100809 3 1
-11.601360 16.677923 5.683493 3 1
-8.561546 28.124207 13.825623 2 1
-12.672607 15.542887 6.222510 3 1
1.963984 16.598413 -6.002395 7 1
-4.436399 10.330570 -11.863834 7 1
11.644213 19.879488 -4.037595 7 1
-12.781556 11.606318 16.399334 3 1
0.226957 29.900557 -1.390799 8 1
-3.977799 21.393824 3.356883 0 0
7.876635 14.036155 -3.334285 7 1
-10.080003 16.317364 18.843071 3 1
-12.586809 12.088455 22.548601 3 1
-15.328354 8.071774 21.226526 3 1
8.376122 15.412089 -3.081623 7 1
-12.709621 28.302229 -1.800258 5 1
2.060660 20.728468 -0.603677 7 1
7.214985 4.626447 -7.927173 7 1
-5.294081 18.704643 1.536499 0 0
-16.129896 8.699291 14.354079 3 1
-7.736323 29.442993 3.671330 0 0
-9.588872 13.471566 24.486986 3 1
-18.725748 5.558438 23.416590 3 1
-16.599482 20.102932 -6.725736 5 1
-1.923842 32.682449 0.949727 8 1
-10.307959 17.362776 6.398056 3 1
15.859962 2.861904 -5.883461 7 1
2.339515 17.914911 -5.554830 7 1
-9.113639 23.076342 -9.026494 6 1
-7.487608 19.789471 22.650711 3 1
-19.870842 10.298663 6.032633 3 1
9.485793 26.523542 9.558804 9 1
-14.013324 7.520092 24.085306 3 1
2.022258 9.923941 -6.755321 7 1
6.820235 28.796282 11.187655 9 1
-20.094933 12.109532 1.954107 3 1
7.295579 13.225453 -6.237171 7 1
-4.549867 21.801886 4.337613 0 0
-17.447922 17.206743 -7.553584 5 1
-7.212977 29.299503 13.382100 2 1
16.328413 4.409287 -5.280425 7 1
-14.957960 23.136951 6.898728 4 1
-17.030571 7.329453 19.596701 3 1
-12.210020 27.771284 3.093784 4 1
-17.077908 28.534187 -1.148625 5 1
-8.460470 26.495771 16.056934 2 1
19.401037 6.592236 -3.982970 7 1
3.460263 4.228591 -10.335338 7 1
-5.331170 22.461559 2.295278 0 0
11.354263 3.888993 -5.985140 7 1
-5.371512 29.829315 7.004990 2 1
8.317944 7.465753 -5.680611 7 1
0.246993 30.497015 3.532623 8 1
-9.049789 28.351475 4.223429 1 1
-8.431118 30.883123 7.441126 2 1
-8.005477 22.711275 -5.463451 6 1
8.790832 1.266299 -11.023101 7 1
11.490860 23.583277 -3.208570 8 1
-4.984127 26.311819 15.090622 2 1
-7.962919 26.376204 3.167394 0 0
-5.241306 9.642841 -10.448976 7 1
-15.273924 11.691679 13.130301 3 1
-19.033880 24.886196 -1.254673 5 1
-13.388159 17.993189 2.081079 3 1
1.111501 3.019363 -12.397865 7 1
-22.627424 0.119829 19.663391 3 1
-1.439018 34.687565 7.000678 9 1
-23.035004 1.402318 15.465375 3 1
8.071420 19.613060 -4.924810 7 1
12.797841 1.660807 -10.127106 7 1
-1.404855 9.266702 3.491107 0 0
-15.738445 23.123262 6.375392 4 1
-18.460732 9.928649 9.530052 3 1
10.451020 0.290527 -13.860051 7 1
-12.312653 30.375174 3.507795 4 1
-11.800415 25.073080 13.590175 2 1
-12.734286 30.564438 4.685315 4 1
6.479218 25.007599 7.800549 9 1
4.724279 27.492485 12.971913 9 1
13.064600 0.127686 -10.754470 7 1
-10.189918 24.686357 7.657701 1 1
9.012639 26.955051 -2.015483 8 1
-17.786230 20.761862 -7.755849 5 1
-3.544823 9.529552 -9.505285 7 1
-15.650046 16.822971 0.216083 3 1
-8.529508 17.142502 14.840807 3 1
-11.967902 29.177061 5.512969 4 1
-2.723352 17.770529 3.965460 0 0
0.486506 4.817266 -11.092325 7 1
-6.963447 16.202036 -7.009435 7 1
-20.505501 5.058539 25.444736 3 1
-13.134665 25.826191 5.008574 4 1
-15.328032 14.406935 7.044854 3 1
-8.594740 28.113876 -5.771410 6 1
-20.203970 5.185352 17.855625 3 1
-7.793324 16.584463 23.964964 3 1
9.034074 27.310730 1.946475 8 1
-16.674690 15.042086 2.449085 3 1
-4.371613 32.599270 5.596835 2 1
-17.549324 11.167103 9.081826 3 1
-5.278758 24.688618 -5.681057 6 1
-8.804309 24.252447 11.899525 2 1
-21.281530 10.429696 1.021057 3 1
-0.259846 11.454944 -6.553815 7 1
-19.141792 7.199337 12.306661 3 1
-7.735052 25.055017 2.579125 0 0
4.796619 26.608173 -0.177833 8 1
-4.053335 20.163239 -10.722134 6 1
-3.003265 12.620295 -9.902629 7 1
-10.946687 13.814864 17.598999 3 1
7.709793 22.036587 -2.322325 7 1
3.295122 30.304522 -0.626875 8 1
-16.090084 12.748961 6.126140 3 1
9.819711 11.790299 -5.842899 7 1
-4.273151 30.425764 12.565084 2 1
-16.453009 24.341539 12.296713 4 1
-11.405826 13.030803 25.241812 3 1
-12.423542 17.850399 4.197092 3 1
-13.232977 16.469107 6.057354 3 1
-17.485430 27.524145 6.655547 4 1
7.906498 24.566561 11.866434 9 1
10.628767 4.999591 -5.803590 7 1
-5.558540 19.632038 -6.781751 6 1
-23.892401 2.796030 8.990170 3 1
-0.092855 32.502758 1.405330 8 1
8.816887 25.367575 -4.354375 8 1
-20.673134 4.444418 20.881351 3 1
9.849046 1.866027 -12.474764 7 1
-19.915134 21.395338 10.026281 4 1
-23.038317 2.199463 13.972320 3 1
2.895574 6.983067 -9.840532 7 1
3.846143 32.433128 1.932713 8 1
15.369538 4.605898 -5.950688 7 1
14.402629 0.259543 -13.156112 7 1
-5.122163 17.326679 -11.766688 6 1
-14.512552 24.481543 -3.043678 5 1
-7.717653 18.994675 9.902742 3 1
16.603109 9.489354 -2.104027 7 1
-14.271415 6.802621 24.707064 3 1
8.688190 2.381073 -9.255691 7 1
13.145223 0.948921 -8.145639 7 1
-20.445374 3.303087 23.616940 3 1
-16.805428 13.554560 -1.888952 5 1
8.486743 28.917322 2.340155 8 1
-18.719994 9.151754 10.491730 3 1
5.521734 28.389610 -3.648023 8 1
-2.312717 5.359980 -13.309996 7 1
15.932859 0.954659 -5.794263 7 1
-9.300652 29.642426 11.566827 2 1
-6.410003 30.322081 11.961303 2 1
-15.734187 18.652950 -3.223513 5 1
8.938383 23.194641 11.766530 9 1
5.426537 3.278374 -10.375342 7 1
4.512787 26.911682 -4.994378 8 1
-4.948393 31.436167 11.590062 2 1
-15.940186 15.979653 -1.680367 3 1
-17.233595 11.636193 6.353075 3 1
11.976798 22.829647 -1.175090 8 1
6.736273 28.740269 -0.887315 8 1
-3.687926 24.112753 -8.158042 6 1
-4.225039 31.739361 9.604437 2 1
-20.282366 13.077728 -0.251514 3 1
-12.134809 28.579033 -0.881091 5 1
-14.618946 8.335575 19.421009 3 1
1.241156 19.963945 -0.598478 7 1
-8.518176 17.604973 24.234127 3 1
7.395954 25.717079 7.517906 9 1
0.686970 31.548698 8.452995 9 1
2.144659 6.928525 -8.616439 7 1
-2.176376 8.009355 2.529735 0 0
-8.813679 20.182178 16.270683 2 1
6.544482 11.825018 -6.917581 7 1
-2.619461 19.314501 0.678650 7 1
-15.755009 29.459652 4.623809 4 1
1.956946 32.565731 8.977166 9 1
-16.466681 18.385683 -6.068801 5 1
-3.443025 28.183540 4.499288 0 0
8.900515 16.731552 -2.844943 7 1
-7.204028 18.483120 17.503448 3 1
10.910845 17.973660 -2.615238 7 1
11.041775 27.613609 -0.283989 8 1
-21.674410 1.798025 18.422382 3 1
-12.742214 11.525333 17.321396 3 1
-22.754110 1.504599 20.753292 3 1
-13.072756 12.804841 16.738276 3 1
-23.389042 3.358707 10.606231 3 1
-5.414096 32.199154 4.676508 2 1
5.256331 26.720798 0.635783 8 1
-4.573955 13.185683 3.105914 0 0
-5.524193 33.462063 6.875027 2 1
-7.451061 29.529957 7.542824 2 1
-7.632717 26.447874 -7.690231 6 1
4.838477 26.748571 9.345965 9 1
-10.249995 15.577302 20.544147 3 1
5.853329 25.885817 -0.921949 8 1
2.656719 5.658466 -10.681723 7 1
-20.964584 23.514048 -1.767012 5 1
-0.782231 13.143132 -5.730037 7 1
-15.908770 27.655970 4.607888 4 1
-20.643587 5.079742 16.364859 3 1
-6.517624 26.195463 9.475444 2 1
12.921134 21.567272 -3.616725 7 1
0.887458 30.270864 4.956994 9 1
-13.651158 11.392179 17.792891 3 1
-10.137196 13.730558 22.060329 3 1
1.278675 7.472317 -8.622936 7 1
-6.027834 18.082548 -6.477273 7 1
-2.311379 5.884104 -11.546066 7 1
0.028695 9.287896 -10.310497 7 1
-8.603979 16.645691 17.588625 3 1
-4.356397 14.390840 2.519642 0 0
8.070454 11.079519 -4.035540 7 1
-9.084866 29.126059 0.337315 4 1
-20.067553 6.980681 12.323853 3 1
-15.183639 27.870165 6.882458 4 1
-13.902641 28.953987 7.135766 4 1
-10.087467 25.584820 -6.200860 6 1
10.250913 9.969196 -6.296296 7 1
12.571257 6.298522 -4.687017 7 1
1.139777 14.999638 -3.803364 7 1
-18.357267 24.839247 10.037061 4 1
8.273478 27.131737 -2.518184 8 1
0.928801 0.949922 -14.798691 7 1
10.635840 3.099238 -7.216091 7 1
-8.863763 16.614380 25.451981 3 1
-1.254248 30.872524 2.809996 8 1
-8.673235 20.646049 17.979567 2 1
6.548614 24.973230 9.505138 9 1
-9.155691 17.766535 18.840305 3 1
-5.060979 20.545059 2.501430 0 0
-13.160095 29.709076 4.624097 4 1
-1.378841 17.351263 -3.381650 7 1
-22.476786 4.231525 13.010472 3 1
3.191491 2.287956 -13.673697 7 1
-11.293163 17.304914 10.148563 3 1
6.768878 -0.836133 -15.013691 7 1
15.460772 12.358606 -2.793351 7 1
-16.100702 12.075072 10.470775 3 1
5.826224 9.911270 -5.257145 7 1
8.890745 26.553045 10.423575 9 1
5.366939 29.847008 12.901242 9 1
-6.565095 6.701312 -13.076821 7 1
-19.297031 9.998546 7.611892 3 1
-22.962557 3.956761 12.254374 3 1
11.141046 12.794544 -5.024257 7 1
4.397424 5.227526 -8.963654 7 1
-2.397484 15.577231 4.997272 0 0
-6.000135 21.167482 22.057741 2 1
6.403214 1.311737 -12.333781 7 1
13.245308 15.328044 -3.620934 7 1
-6.866221 27.984831 0.611886 0 0
3.769278 3.408247 -12.424939 7 1
9.115404 23.147303 -2.208210 7 1
-21.470526 3.838911 17.711691 3 1
3.484807 30.648163 11.775290 9 1
1.194545 28.785540 -1.727301 8 1
-3.045986 33.424751 1.401856 8 1
15.953929 19.037781 -2.309596 7 1
10.414097 13.331304 -5.133266 7 1
-4.677846 26.666307 4.857511 0 0
-6.364744 23.433895 -10.778058 6 1
3.410025 31.398212 8.868172 9 1
-5.874047 17.172455 -5.735680 7 1
-6.878297 21.314056 21.831514 2 1
-13.341343 15.105743 9.438771 3 1
