18.991096 80.456657 -40.631214 18 1
11.029131 80.048409 -35.748169 0 0
36.687717 123.137700 25.707014 14 1
51.089149 211.410450 76.782509 3 1
33.564693 256.994450 -7.610084 27 1
43.349831 249.131480 -48.609928 17 1
37.595875 114.585160 28.204058 14 1
37.922749 241.242100 35.233170 29 1
5.569186 160.513320 -1.851134 0 0
-42.357006 165.527970 -3.286965 0 0
39.677792 239.965900 -54.219158 17 1
1.339138 100.078690 -3.973072 0 0
-80.693581 216.960130 -11.693394 39 1
25.765944 263.684270 -65.303078 17 1
54.279785 220.988220 41.433887 29 1
10.199832 250.764110 -8.774103 33 1
-4.294760 58.054230 -10.565350 0 0
-79.703552 213.733730 -33.460636 39 1
47.723553 225.359010 41.211220 29 1
3.079662 201.858800 -103.045100 42 1
-4.361323 64.307159 -20.946657 0 0
97.086937 150.881010 -30.313471 23 1
-9.876322 119.775780 -4.583072 0 0
46.639763 241.283630 -56.573883 17 1
-72.551598 214.621890 -8.522087 40 1
-23.041763 88.682556 -76.838539 9 1
0.465178 126.489270 -7.652968 0 0
-101.786400 207.758360 -15.962962 39 1
18.502367 130.517780 10.116429 32 1
7.964427 242.173610 15.919019 30 1
12.329659 226.192210 -93.274651 42 1
2.145360 262.103000 13.799207 25 1
-27.010586 121.520970 19.842419 21 1
11.239690 84.425720 -22.947472 0 0
90.502678 141.784560 -35.628307 23 1
2.999196 219.538940 -104.533860 42 1
-125.821030 174.209140 -13.302348 39 1
-3.201907 72.014099 1.052154 0 0
15.877914 238.350680 -92.596466 42 1
-74.825874 211.173840 3.577593 40 1
1.144475 249.394930 -90.873619 42 1
59.076836 224.908250 -53.160629 20 1
-5.768684 135.903200 44.927387 22 1
52.053566 232.442550 37.201572 29 1
13.857221 268.021360 22.820644 26 1
-129.360290 157.732250 -14.759849 39 1
-55.810711 207.317350 15.966150 40 1
-49.437458 178.988680 -7.951813 0 0
79.274094 207.591140 -32.483978 15 1
17.202288 117.071420 -42.197746 6 1
8.198256 117.943200 -49.015186 6 1
36.163776 240.862950 27.468138 29 1
88.718765 203.895170 -38.170334 15 1
80.619476 148.612060 -34.861073 34 1
62.280327 223.397080 -38.827522 15 1
-33.097130 144.529450 54.286346 4 1
107.418830 98.134056 -51.419197 23 1
8.257752 262.677890 17.229904 28 1
-60.817238 181.356780 -56.062378 41 1
-16.278017 233.392400 31.930405 25 1
19.776985 256.488650 -54.093388 17 1
-8.868228 216.226870 13.637774 30 1
-18.358389 142.421520 23.850672 21 1
66.668556 223.552800 -71.324524 17 1
49.183556 264.428380 42.515129 3 1
3.632457 264.794160 -63.608257 17 1
6.761659 130.682070 -37.651745 6 1
-1.485215 242.132340 21.709173 26 1
25.461838 262.530460 23.192968 27 1
46.630421 243.814390 6.699755 27 1
-39.255619 82.088249 -61.924068 11 1
-112.095650 186.568830 -31.273672 39 1
-1.348345 220.709340 51.060013 26 1
-98.479027 203.304150 -22.532856 39 1
-68.651985 211.113070 0.253179 40 1
-2.372117 12.386093 -2.744085 0 0
27.785082 250.713840 -15.948957 35 1
-23.269962 77.945335 -81.040375 9 1
-115.506070 176.970860 -30.496868 39 1
-70.730690 161.071400 37.271980 40 1
9.793277 196.763000 10.882362 0 0
-10.415587 140.357160 51.999249 22 1
34.426384 222.730580 -75.542435 16 1
11.996564 220.229280 -0.126962 0 0
-16.243855 118.407600 45.176495 24 1
14.686652 198.797000 -2.598332 0 0
70.787331 229.760740 -88.913689 43 1
-9.308487 77.078201 -76.238625 10 1
30.428528 256.123260 3.908034 27 1
37.177639 117.487110 33.728195 14 1
2.514391 104.506910 8.856631 0 0
5.285333 153.640030 -9.485339 0 0
37.351673 216.166060 -72.207001 16 1
4.469218 242.418840 52.695187 26 1
1.863249 65.791527 -4.529797 0 0
-103.994710 191.769300 -35.402763 39 1
41.857349 117.625340 57.158180 13 1
-131.220320 166.032470 -11.224623 39 1
85.507851 219.326260 -83.367538 43 1
24.760002 253.084270 -48.110806 17 1
2.518273 258.772220 31.956161 25 1
2.693104 132.215640 53.040207 22 1
10.837820 149.722210 -12.838938 0 0
72.067245 222.882550 -82.097870 43 1
-66.592300 171.859800 39.955135 40 1
-2.989582 42.583435 1.688669 0 0
-42.985950 185.952900 -51.635719 41 1
52.523556 251.914990 57.691719 3 1
27.462374 245.530620 20.668022 27 1
100.903050 190.976210 -42.666920 15 1
98.250656 185.052750 -34.899525 15 1
-63.435692 208.247910 -27.352974 41 1
9.291327 204.287980 13.467795 0 0
92.929352 137.695190 -8.981036 12 1
28.519051 265.680210 16.716530 27 1
45.692444 110.556870 36.390202 14 1
-114.676510 196.926450 -15.542827 39 1
-75.940880 171.910780 36.279999 40 1
27.735992 118.173250 6.674384 32 1
45.235069 234.590740 31.996281 29 1
42.856613 264.046910 62.517220 3 1
64.151649 215.893200 -76.563271 16 1
11.118320 97.511757 21.805889 0 0
-30.978054 82.828514 -60.464848 11 1
-1.324563 66.376755 -89.495026 10 1
-76.057846 208.246290 13.855639 40 1
5.841562 238.877210 -98.442596 42 1
-7.770615 84.799919 -72.661362 10 1
94.426231 214.429840 -79.691322 43 1
16.031496 256.730130 23.907921 30 1
-6.867151 126.276640 -56.768475 5 1
-21.688219 250.136700 -47.122093 2 1
-1.681691 125.633320 60.203266 22 1
38.659290 240.098210 -60.893574 17 1
39.225914 247.338470 -3.132356 27 1
-55.200741 198.047970 -50.928043 41 1
-23.191204 245.862870 -55.920719 2 1
-51.195435 195.958130 -55.354286 41 1
21.603699 261.937930 10.166041 27 1
-68.747566 197.693700 22.383141 40 1
-0.358126 75.836456 -8.042163 0 0
82.818161 220.115910 -98.055595 43 1
8.541493 261.222780 39.916512 25 1
3.465980 259.196960 -60.772781 17 1
-6.344952 232.819670 8.181534 30 1
19.608047 178.187450 -95.214027 16 1
-27.709211 226.510970 -50.066311 2 1
14.931412 253.651200 -35.772926 17 1
52.508778 232.458240 -59.395859 17 1
32.238071 128.521820 51.723095 13 1
-6.127272 260.935240 -56.293442 2 1
77.251945 223.231410 -71.643036 43 1
3.361935 117.490180 18.503485 1 1
97.498383 189.762940 -30.531574 15 1
1.854280 225.052340 54.515282 26 1
16.794868 246.944030 -84.897514 42 1
30.117424 214.799120 -74.616875 16 1
-2.339806 75.243759 -39.789085 19 1
14.743982 168.252750 -93.377792 16 1
-60.326736 201.938710 -7.952028 0 0
60.471184 226.235490 -67.496742 17 1
-5.925856 135.014910 51.313416 22 1
28.628521 240.436750 30.183292 29 1
2.495690 112.378760 -6.686872 0 0
-5.636440 109.663550 12.016048 0 0
3.747287 240.700580 -89.086838 42 1
29.666035 252.593660 -41.941013 17 1
46.649174 235.018750 -70.429695 17 1
10.382694 264.612730 -54.498474 17 1
32.561775 131.532810 38.429565 13 1
84.443428 149.563110 -41.540024 23 1
41.846748 245.575180 28.176817 29 1
33.536209 113.640920 3.634862 32 1
45.390656 225.422040 -77.306458 16 1
-23.389786 76.342308 -95.035072 9 1
5.373673 205.795470 -109.777340 42 1
9.095165 259.664520 -45.011776 17 1
68.930321 150.265640 -21.409708 34 1
57.697502 230.857210 -47.140934 15 1
81.945747 212.922640 -31.520725 15 1
43.936588 227.595920 -15.722814 27 1
8.851111 251.053040 -46.287506 0 0
-0.409739 246.145050 30.984203 26 1
16.302448 259.572720 -44.561794 17 1
16.631264 255.647860 -88.648232 42 1
-85.279694 207.517030 -35.086700 39 1
50.931198 218.663740 70.201408 3 1
19.577963 135.639830 -2.556041 31 1
19.307590 241.849690 26.370508 30 1
-2.048781 110.290370 -14.991472 0 0
-5.141110 125.233080 24.226488 0 0
89.661110 135.866790 -43.949886 23 1
-1.696029 242.698880 -99.396187 42 1
-44.959785 199.985230 -43.409512 41 1
-16.984169 254.053310 -57.723804 2 1
4.054704 251.098690 10.558213 30 1
-110.490780 193.623960 -25.759201 39 1
74.396210 215.533290 -34.913921 15 1
-43.873650 192.926610 -45.141441 41 1
80.783615 220.478070 -52.066620 15 1
57.137352 217.883850 -0.398822 27 1
29.066074 129.996460 -20.181055 31 1
-26.691624 148.307360 29.484381 21 1
44.523136 255.220280 15.204926 27 1
-90.315895 211.416950 -16.436180 39 1
-2.523515 94.519730 6.399533 0 0
13.020073 84.227371 -52.204605 8 1
43.535412 230.944550 -61.780598 17 1
47.198326 218.252410 -68.631935 16 1
-30.690187 154.076460 -3.186541 0 0
12.782508 90.258072 -11.963384 36 1
1.660023 124.877900 9.359655 1 1
21.765549 209.600540 -80.769890 16 1
53.243469 218.277940 -58.507812 0 0
9.415389 132.645160 43.682896 24 1
7.899928 215.857880 -104.282550 42 1
36.265293 122.523340 55.422409 13 1
36.778839 255.380690 -63.893127 17 1
-21.361610 224.096910 34.295746 25 1
-13.158181 127.810930 -47.745823 5 1
48.394863 245.210140 0.748054 27 1
-22.528969 82.286041 -88.306076 9 1
26.032076 256.606870 -0.668922 27 1
7.588517 98.915787 -13.636930 0 0
-9.703450 128.121630 41.679165 24 1
-26.124868 87.749199 -84.150513 9 1
-1.121455 256.319310 12.948482 25 1
40.434982 253.298980 -44.831821 17 1
-80.732903 191.959560 25.081285 40 1
4.127146 39.298668 -0.511880 0 0
-26.339708 205.302720 -58.548756 2 1
2.018858 133.902400 -30.744429 6 1
10.652053 242.409090 -43.357124 0 0
16.275515 232.198460 -7.821240 0 0
34.529430 117.633690 65.767830 13 1
-11.214851 117.840680 -64.195740 5 1
14.558221 82.143433 -18.352993 0 0
26.255690 254.759550 -60.194683 17 1
6.273220 134.625790 -11.394670 0 0
-15.343930 225.808720 7.833030 25 1
-7.005972 200.545200 51.205780 25 1
-62.351952 194.121440 26.981407 40 1
59.003956 116.957340 -56.515976 34 1
83.687607 147.433690 -10.793454 12 1
-13.328121 72.194931 -37.117382 0 0
37.438171 247.532390 18.928499 27 1
-17.774242 242.035690 29.952698 25 1
32.641521 201.494370 -94.480087 16 1
-29.298609 217.195330 -47.160690 2 1
-20.649092 224.156040 -52.665493 2 1
36.433228 250.503910 -41.098930 17 1
101.577750 146.430010 -35.290455 23 1
-0.593043 72.444778 -82.333885 10 1
60.488804 209.878800 -77.790504 16 1
95.293549 212.349260 -85.436150 43 1
-43.330769 191.987440 -62.550911 41 1
-93.458710 203.020860 -31.124424 39 1
-15.110724 215.552840 10.605130 30 1
-2.565000 90.950058 -8.419758 0 0
0.941903 196.012820 -104.767280 42 1
-5.897319 261.551090 18.738787 25 1
-53.405273 212.308400 -10.786460 40 1
33.199516 263.173680 7.942753 27 1
15.162712 133.691860 50.743374 24 1
-54.626053 206.624590 -32.922188 41 1
108.368020 126.940990 -5.070327 12 1
76.514008 219.667300 -99.378525 43 1
43.385559 221.966060 -60.228249 20 1
8.846829 231.753740 -38.951118 0 0
-6.839287 145.079800 39.362396 22 1
23.310011 105.688580 -10.464189 0 0
-8.797315 141.334930 44.969467 22 1
28.261839 258.543580 -66.976990 17 1
26.255117 246.501850 -5.368482 35 1
-6.683960 120.460050 56.409161 24 1
43.233677 112.084510 -51.947720 34 1
-7.064925 131.847610 -27.020081 7 1
33.761616 123.195080 32.592945 14 1
-71.821724 213.052720 -17.115738 40 1
36.831871 242.970280 -13.141251 27 1
10.111979 94.609535 -8.864255 0 0
-66.137085 186.616460 -56.251560 41 1
-40.393032 141.848340 45.902020 4 1
99.993301 120.514790 11.396218 12 1
34.226147 258.578830 -1.984643 27 1
-20.690863 252.236590 -41.125366 2 1
8.873927 118.941960 -43.264095 6 1
4.002908 93.659729 14.284066 0 0
-7.575453 132.788070 60.609097 22 1
37.056198 215.373410 -83.695053 16 1
20.664028 85.555466 -8.817040 36 1
44.275547 106.192010 19.325638 14 1
-4.720317 231.353380 40.854366 25 1
11.798193 220.286000 -8.322468 0 0
11.781033 230.642520 17.375906 0 0
-15.042315 107.758550 54.438179 24 1
63.102081 143.476850 -28.604429 34 1
54.864635 235.657300 59.697311 3 1
26.407110 278.416600 38.582947 3 1
17.177206 208.542760 -3.944631 0 0
5.971487 224.734530 -101.174840 42 1
-0.125671 253.158940 37.574726 25 1
8.743918 176.977950 1.361714 0 0
0.726033 24.853741 -1.629605 0 0
-17.737768 158.533170 43.881680 4 1
-1.819084 80.403885 -68.101524 10 1
-14.393003 150.162580 39.261646 22 1
88.905579 131.020690 -48.196392 23 1
34.861202 125.831190 40.379112 14 1
-19.492371 123.350360 -50.476154 5 1
13.990631 239.936110 12.645571 0 0
-46.111271 77.100288 -62.113491 11 1
-6.661423 114.380390 -5.359575 0 0
44.282398 117.477430 31.788422 14 1
19.050186 76.143456 -35.341373 18 1
10.872176 246.049260 33.438511 26 1
110.507740 110.997010 -0.699545 12 1
-27.254015 90.737282 -50.838139 11 1
-13.932893 208.411910 43.673153 25 1
1.832341 228.605100 -97.251038 42 1
79.675919 145.258820 -19.087246 0 0
14.999206 190.585190 -6.141603 0 0
36.972157 240.254240 -19.203817 27 1
14.735088 137.341980 3.212463 31 1
-27.499269 210.757390 -55.139805 2 1
16.868101 102.969260 -8.767943 0 0
-62.453060 211.935850 -13.512652 40 1
-15.959782 247.356490 -59.787331 2 1
-0.085825 250.354580 4.172402 30 1
-17.524956 233.256910 -53.474651 2 1
-45.803482 204.795390 -27.537306 41 1
-16.447554 152.195020 30.742346 21 1
102.601810 126.625940 -46.224014 23 1
-102.017660 214.041980 -13.447937 39 1
52.013268 135.183560 -35.468807 34 1
83.694016 150.934220 -24.726656 23 1
45.837292 238.048460 -51.843510 17 1
-27.096836 239.877140 -43.850880 2 1
9.532328 245.107730 -9.787922 33 1
-117.399370 184.933990 -21.877533 39 1
-55.345634 198.713640 -6.621883 0 0
-57.000153 207.383440 9.761655 40 1
3.710326 109.209310 16.007290 0 0
30.877234 248.871600 17.044914 27 1
-108.368710 204.939680 -13.647102 39 1
17.315172 253.280060 -13.711037 35 1
-68.124008 162.635150 42.295616 40 1
18.765163 158.859910 -25.120558 0 0
-2.863198 105.202190 -17.761269 0 0
24.362532 125.135900 11.358254 32 1
36.556862 275.469480 45.433090 3 1
9.024370 74.998192 -23.595566 0 0
77.796143 222.120640 -45.722076 15 1
38.659069 232.022090 39.941372 29 1
-5.329707 259.745570 -41.665943 2 1
96.108658 140.479690 -35.758461 23 1
3.733852 260.018740 21.103157 25 1
-7.882007 142.994640 31.742422 0 0
-28.473347 135.803330 21.511606 21 1
76.469193 225.133530 -85.042480 43 1
49.298725 261.346860 50.756813 3 1
-10.456101 136.278500 26.712372 0 0
-46.722206 207.468430 12.108096 40 1
20.275494 263.097350 -81.669441 42 1
2.077629 253.413020 -16.587193 33 1
-99.509392 205.106550 -30.950285 39 1
68.434509 139.298050 -44.888622 34 1
23.315447 254.083450 30.030626 30 1
-21.299746 228.552400 -56.299419 2 1
49.469509 244.917880 64.295425 3 1
12.442235 176.882060 -7.311942 0 0
-58.442139 182.200910 39.540211 40 1
36.619942 249.351070 -13.568277 27 1
29.099609 220.624620 -75.311859 16 1
44.098007 106.857610 -54.136753 34 1
1.515014 247.329070 -97.734749 42 1
-38.175720 80.554893 -55.662331 11 1
39.289619 236.447720 32.266438 29 1
34.519684 250.234390 -65.538803 17 1
9.601852 261.410220 -59.500023 17 1
-50.968742 162.678850 -61.297794 41 1
16.627571 253.192000 -82.024010 42 1
-62.248993 205.100910 -38.502483 41 1
35.961178 195.171550 -41.653374 0 0
76.505386 142.535930 -43.993446 34 1
-2.108798 70.308189 -7.425180 0 0
-64.676765 178.911910 38.234760 40 1
-4.341716 136.997920 -37.583111 5 1
41.985615 251.579120 -0.505505 27 1
19.179113 118.241350 34.057331 0 0
-26.584820 140.300740 25.692245 21 1
-16.353231 156.608670 49.105766 4 1
1.601481 106.049300 -6.596564 0 0
58.473171 241.479930 52.569859 3 1
33.104759 210.036420 -88.421944 16 1
64.504616 206.256480 -75.867020 16 1
57.792557 214.721280 -71.914879 16 1
61.943165 228.178570 -62.203487 17 1
7.658896 138.565630 6.913539 37 1
26.091311 259.811830 -50.524788 17 1
2.523556 110.084720 -1.428838 0 0
36.251194 258.784760 14.973873 27 1
19.590687 270.100370 23.593191 26 1
29.423077 195.188860 -95.560104 16 1
40.808155 248.831310 -65.356728 17 1
84.045090 152.748320 -32.481911 23 1
24.408192 73.917290 -34.662640 18 1
43.908562 240.852310 -0.657179 27 1
-3.623475 74.476166 -72.377312 10 1
-79.268555 199.572860 17.447176 40 1
-9.261770 123.898150 47.032639 24 1
-44.902996 79.546722 -55.279881 11 1
-58.220619 186.064850 -58.266125 41 1
49.114590 115.356380 -50.948296 34 1
56.483025 260.875240 40.679779 3 1
-6.047682 38.841267 -1.274781 0 0
71.072220 224.782170 -45.964001 15 1
64.042747 138.936110 -36.678940 34 1
24.272449 260.921600 -42.265663 17 1
23.214361 185.667740 -95.234779 16 1
-27.144516 142.627370 -2.824902 0 0
-61.993271 191.996780 -50.395061 41 1
47.695168 211.235020 -86.876396 16 1
15.552392 204.740890 -80.372894 16 1
-38.177860 193.560970 -50.259460 41 1
98.246925 126.314920 7.186210 12 1
25.383615 215.301250 -77.805984 16 1
27.732491 201.650500 -86.456223 16 1
47.038971 235.025540 37.403023 29 1
-13.056305 128.510740 -4.199485 0 0
-91.108673 220.629230 -12.982525 39 1
-47.050434 174.125640 -6.373928 0 0
47.879921 88.110535 22.987814 14 1
55.370026 140.812440 -30.602547 34 1
77.352531 225.159760 -57.109661 15 1
0.894804 128.180130 45.299103 24 1
-56.609215 163.861620 -61.751266 41 1
22.854872 252.721500 19.000742 27 1
-8.945009 259.506930 -50.387081 2 1
6.195498 207.250200 8.831999 0 0
92.594841 200.206500 -40.454834 15 1
-7.134162 84.573357 -66.222198 10 1
2.995489 135.950870 -7.003868 0 0
93.858856 132.997760 4.448989 12 1
89.461357 194.090740 -27.705370 15 1
33.369362 278.137240 40.697647 3 1
-3.828820 126.109910 12.023558 1 1
11.136156 202.863300 -4.166013 0 0
94.744507 121.810700 -50.641689 23 1
48.915821 213.556730 -71.199135 16 1
0.368855 256.592740 -49.559841 2 1
6.851124 134.205540 36.170444 24 1
42.654728 116.050850 18.345135 14 1
75.645393 215.552290 -42.372360 15 1
-120.368840 178.734920 -21.337551 39 1
39.972858 269.814030 42.553802 3 1
109.050690 190.556920 -95.933990 43 1
93.923050 141.098300 -17.068830 12 1
9.263579 245.116390 -84.069351 42 1
0.362770 131.548660 11.065839 1 1
19.445391 269.238040 4.819386 27 1
-49.947193 210.139100 -0.822237 40 1
115.454840 93.102074 6.621522 12 1
92.671883 203.120910 -102.748700 43 1
39.030895 211.946030 -87.771889 16 1
-6.126896 127.449950 57.316383 22 1
81.313179 222.458620 -76.008682 43 1
10.602295 210.388470 -22.933422 0 0
46.870190 107.545420 30.479216 14 1
65.401352 125.812090 -54.638622 34 1
100.907750 153.286030 -26.993103 23 1
7.700348 229.818190 -92.383087 42 1
8.961412 211.678700 -100.387060 42 1
38.173771 255.114290 8.327551 27 1
-8.181409 77.051102 -42.213406 19 1
-7.367303 250.456120 22.942457 25 1
5.739511 170.484770 -5.446299 0 0
-7.953480 234.890210 17.293573 30 1
18.566324 236.495540 -5.099134 0 0
-57.853897 188.324100 33.188251 40 1
-4.041773 62.174541 -6.374043 0 0
-78.298653 211.339510 -10.490413 39 1
4.837471 125.571670 -43.433369 6 1
14.805367 268.236940 34.892612 25 1
18.090090 245.990880 36.782215 30 1
-72.635834 207.738480 -18.964527 40 1
-21.077202 147.622270 29.310602 21 1
5.877219 246.418850 4.549431 0 0
-90.591408 208.754490 -32.808788 39 1
102.829970 198.071260 -91.440971 43 1
102.243640 180.305980 -29.276150 15 1
-13.764503 132.166150 -42.334335 5 1
-25.329163 126.897380 19.639954 21 1
-14.815420 151.605740 44.609356 22 1
-14.040085 256.577000 -49.659199 2 1
26.431978 205.817960 -81.767906 16 1
89.617760 147.120060 -34.378693 23 1
13.012176 260.589600 -76.924042 42 1
31.460304 121.707650 24.375824 14 1
39.824970 128.909500 46.769768 13 1
-8.035050 249.346600 -51.936665 2 1
46.773232 97.124321 32.235855 14 1
102.675580 175.472270 -39.039574 15 1
49.111259 95.504723 25.605257 14 1
45.137386 129.483220 -40.311935 34 1
67.359085 212.869600 -69.204208 16 1
16.318937 262.626310 -52.997261 17 1
7.947278 248.937300 -13.481514 33 1
-3.459633 115.911300 20.611526 0 0
-0.850929 80.552124 6.134440 0 0
3.640671 79.368698 -38.649452 19 1
9.791884 200.465100 -105.388780 42 1
46.528210 253.728910 66.537025 3 1
47.832531 240.678220 31.091366 29 1
19.918968 258.315220 -10.256267 35 1
85.225693 201.845570 -25.441225 15 1
32.554298 211.554760 -78.507286 16 1
-9.932360 223.391980 47.379871 25 1
37.071617 244.616380 -50.462688 17 1
13.628644 217.250080 -97.506187 42 1
11.343102 187.709180 -9.100740 0 0
-1.635028 120.127840 23.727982 0 0
-50.481319 209.297230 6.268894 40 1
-49.582783 182.612670 -57.337116 41 1
45.027763 112.104190 26.236578 14 1
62.307110 132.708080 -46.877666 34 1
-13.418103 126.367430 -22.678141 7 1
-5.319140 226.542940 15.691728 30 1
96.898148 128.543780 -43.883259 23 1
-40.854622 187.156710 -61.324409 41 1
48.418159 237.479690 -60.122829 17 1
0.825084 237.566210 -96.015640 42 1
36.863522 262.104680 19.921385 27 1
-34.592323 147.932310 45.055195 4 1
-0.578140 215.336940 -102.065640 42 1
3.457510 231.758870 51.662125 26 1
-22.648811 236.052540 -61.721088 2 1
10.853788 151.988420 -18.218046 0 0
10.062606 220.755420 16.397812 0 0
92.117439 211.627790 -47.493401 15 1
85.067055 145.224850 -31.580923 23 1
53.388836 237.160060 0.331048 27 1
3.860174 234.957400 57.465603 26 1
30.599096 260.166500 15.278963 27 1
15.720099 260.000060 -38.252712 17 1
17.764387 201.884340 -84.591576 16 1
-57.366627 211.541370 3.037964 40 1
14.044258 225.432190 3.267734 0 0
16.266060 212.105740 -72.873138 16 1
2.402349 138.329670 -12.589334 0 0
-25.289206 113.352260 -17.749039 7 1
-54.126923 194.747380 -46.156994 41 1
11.012384 122.974850 -37.408012 6 1
74.449684 146.831670 -29.914112 34 1
13.469721 81.990173 -47.056358 8 1
-64.472351 196.520340 -48.221474 41 1
3.812164 157.908140 -6.308418 0 0
-4.658388 66.778069 -26.452414 0 0
23.975700 134.305250 -5.515806 31 1
48.623390 87.890305 17.596119 14 1
40.882626 251.303120 -54.578426 17 1
50.544949 230.751620 -53.416904 17 1
76.992676 217.830140 -29.264250 15 1
-73.186493 209.443070 9.241528 40 1
10.217134 218.698410 -31.043444 0 0
8.788016 130.169220 10.474889 1 1
4.868141 267.565310 -78.587357 42 1
-17.064659 147.028500 21.283405 21 1
68.999771 145.777830 -30.054260 34 1
46.095924 222.998750 -12.523723 27 1
88.808586 216.750610 -48.436337 15 1
-3.740533 241.363910 3.464824 30 1
102.993650 105.209810 -49.149624 23 1
-29.712959 151.048750 42.879181 4 1
-12.318257 243.169070 -53.333099 2 1
92.923141 149.378460 -27.116537 23 1
12.969963 112.366810 -52.776207 6 1
-23.913671 87.715164 -65.270676 9 1
32.134521 188.510250 -37.345600 0 0
88.190933 139.983810 6.782709 12 1
48.046612 248.615230 68.238708 3 1
38.746372 256.211850 0.372489 27 1
106.757420 141.710860 -39.332325 23 1
-2.385872 30.955997 -3.714558 0 0
60.186131 123.814220 -53.348701 34 1
-21.597530 243.410710 -39.920670 2 1
25.927984 173.979870 -29.283794 0 0
-125.091610 168.784260 -19.782305 39 1
39.036839 115.420770 63.115200 13 1
4.462479 72.408066 -84.819183 10 1
8.210695 264.815830 -71.047333 42 1
-28.098360 206.541410 -47.777443 2 1
11.694524 189.635860 -85.248749 16 1
13.003731 240.737790 17.890806 30 1
-1.764127 2.920006 2.308552 0 0
8.783548 258.001010 29.037220 26 1
-53.652424 186.738250 -52.524570 41 1
6.576944 246.391370 49.732498 26 1
63.986824 227.607320 -44.520248 15 1
1.647804 240.337490 17.719481 30 1
2.689469 77.589127 -76.617378 10 1
59.155945 223.559490 -58.702183 17 1
82.855103 214.597370 -36.978477 15 1
29.708277 204.210390 -90.885857 16 1
-6.627178 145.788770 47.601486 22 1
97.939133 112.508530 -48.550110 23 1
36.702705 230.362170 -62.455814 17 1
16.777391 114.623540 25.452499 0 0
-20.757385 93.870438 -69.442696 9 1
113.671880 97.522972 9.117436 12 1
-2.958133 82.105431 -73.061783 10 1
-87.454948 212.583330 -25.483267 39 1
91.778671 218.848360 -78.168541 43 1
13.946619 239.686550 -2.121951 0 0
-15.875888 123.887540 -15.079869 7 1
94.172577 195.955110 -110.529110 43 1
0.721440 145.770580 41.570011 22 1
10.811797 256.248230 18.445187 30 1
-18.194559 233.963200 -48.203835 2 1
87.037918 197.151210 -33.237843 15 1
-1.786462 83.165298 -3.471502 0 0
-61.934280 202.264680 22.942516 40 1
99.281693 182.522170 -108.786480 43 1
34.312050 101.280590 70.864960 13 1
56.926769 224.989060 -41.182564 15 1
-64.503975 210.156620 -6.338322 40 1
101.933360 193.354060 -102.577140 43 1
80.706863 206.032520 -37.393227 15 1
-26.653616 84.292656 -79.166168 9 1
-4.978873 249.192890 36.135891 25 1
-1.812054 257.067540 29.342165 25 1
16.146416 270.935550 -12.762020 35 1
52.440567 215.960050 -78.434792 16 1
25.879528 126.950050 42.421730 13 1
56.280064 222.703840 63.955833 3 1
17.186941 73.566826 -52.136627 8 1
17.612581 264.368190 12.772530 27 1
31.244167 133.684540 -11.743026 31 1
-0.277418 232.129750 -100.909120 42 1
90.011383 210.633160 -96.254967 43 1
56.980942 246.594600 52.600559 3 1
8.131927 84.283890 -40.285892 19 1
17.285326 263.894680 -77.333672 42 1
96.969666 134.638310 0.450192 12 1
8.316643 143.400500 2.534453 37 1
39.413799 120.040370 20.783075 14 1
-4.978837 119.640380 51.421947 24 1
-29.209539 144.923080 25.972179 21 1
30.504616 178.064940 -35.027348 0 0
20.603073 168.324740 -99.358765 16 1
18.414968 244.906050 -12.198582 33 1
14.801919 233.090410 10.910478 0 0
-0.930236 234.599580 12.646629 30 1
101.803830 139.800720 -15.256544 12 1
-97.334671 206.963560 -18.756670 39 1
-38.991173 160.681640 -3.032629 0 0
-13.571823 247.443660 24.772387 25 1
85.106384 145.928650 -1.380055 12 1
85.605370 141.787030 -48.349880 23 1
-72.069412 152.487760 41.126816 40 1
68.620262 226.169920 -67.136208 17 1
35.866566 205.687190 -94.915611 16 1
-113.693350 181.866360 -29.352863 39 1
31.403727 207.490230 -82.621048 16 1
54.068470 228.767260 68.571449 3 1
-25.874838 215.034670 -59.520191 2 1
12.710962 244.312040 9.887135 30 1
69.061607 227.614270 -77.726341 43 1
43.037258 230.899660 -70.951523 17 1
-102.742080 199.557240 -23.532274 39 1
8.558053 217.364750 -25.968410 0 0
-68.986481 213.020510 -4.681880 40 1
9.112335 252.441700 9.723284 30 1
-18.602316 137.552340 19.354605 21 1
14.988805 84.653854 -37.567200 18 1
71.739357 226.639220 -93.181351 43 1
5.336619 184.236660 6.009839 0 0
11.711341 108.551610 18.498070 0 0
85.920250 207.078220 -45.272591 15 1
1.520845 188.860600 -104.843440 42 1
12.732676 260.820560 -13.885342 35 1
-11.185737 259.057340 -60.229630 2 1
-12.106907 236.116700 10.286353 25 1
41.503521 272.792240 38.475502 3 1
9.717592 214.439830 15.143891 0 0
-132.067350 154.567990 -11.148267 39 1
-42.474598 195.914790 -53.506554 41 1
0.502797 136.203160 38.121159 24 1
8.156745 102.992840 -5.069922 0 0
41.898491 106.271980 65.572289 13 1
46.263592 96.099274 17.112955 14 1
83.085388 215.425640 -106.803630 43 1
-12.291508 215.945370 43.346382 25 1
33.084797 250.380220 -17.328737 27 1
48.592693 253.012790 12.576453 27 1
29.570475 188.890910 -100.074580 16 1
52.921520 225.351390 72.403214 3 1
43.472931 239.602130 34.193481 29 1
-6.068848 254.410200 15.883692 25 1
53.285870 235.536450 -49.841301 17 1
6.372940 243.902020 -96.781105 42 1
-23.513601 246.224690 -50.402489 2 1
104.901640 184.040860 -44.460602 15 1
93.727440 205.478130 -97.450195 43 1
-26.057135 78.347473 -87.875587 9 1
30.156382 258.584990 -39.617130 17 1
82.436424 220.551640 -91.575943 43 1
-106.718560 202.834240 -22.517241 39 1
84.785339 205.946400 -30.491821 15 1
-48.414318 192.343580 -58.085163 41 1
88.000854 202.441880 -43.157066 15 1
25.043541 263.703950 5.501165 27 1
27.929153 280.258820 31.801311 3 1
52.160892 208.226350 71.207901 3 1
-51.302261 209.099430 -29.714794 41 1
39.425400 99.529037 68.906128 13 1
21.574059 128.274290 3.336308 32 1
-8.933051 237.237230 33.737675 25 1
82.951836 215.684020 -49.805088 15 1
1.796389 112.075940 -19.770386 0 0
-28.368090 117.587140 -20.251251 7 1
46.263321 236.096360 -1.134159 27 1
33.353489 246.770810 -59.849541 17 1
34.338058 257.442540 -49.741379 17 1
-11.136696 224.368000 16.265062 30 1
-58.542347 169.367460 -59.667866 41 1
12.641625 238.158260 49.893913 26 1
19.046938 249.533910 11.910316 30 1
-20.170120 115.910560 -15.568383 7 1
-3.480073 108.197530 -7.433453 0 0
19.355545 261.955840 19.773035 27 1
20.312466 255.965070 -48.801670 17 1
7.875545 128.003230 -33.317745 6 1
6.925641 235.674930 -89.084885 42 1
-5.683662 211.048630 49.500034 25 1
64.236717 133.833710 -17.788435 0 0
10.748071 81.120819 -14.947668 0 0
5.756231 128.295500 14.274302 1 1
16.178173 194.947040 -81.808418 16 1
-77.876816 215.326690 -22.908447 39 1
-22.735453 157.696870 53.322968 4 1
78.818245 223.067840 -96.083755 43 1
-118.862500 189.052950 -13.596317 39 1
-71.127434 180.045230 34.880508 40 1
108.758890 136.911440 -39.136398 23 1
94.781563 128.488330 -48.636677 23 1
-59.413044 158.253710 -63.886425 41 1
-10.598157 219.164260 9.657269 30 1
-126.329670 163.404310 -20.369345 39 1
100.889020 125.764780 2.742122 12 1
-27.378492 150.159380 -4.023768 0 0
-50.615841 206.906560 15.618205 40 1
12.915803 101.497400 24.731983 0 0
-19.119225 155.048740 34.165424 21 1
89.242950 144.406010 -40.540611 23 1
24.190186 129.736790 48.115551 13 1
14.208462 243.345830 -92.224251 42 1
-2.933019 235.281170 49.234608 25 1
-25.529884 129.617480 13.647934 21 1
-0.334290 138.131330 47.149002 22 1
-2.320286 84.958733 -64.211327 10 1
-75.437019 163.432340 36.438728 40 1
-4.430417 242.990520 42.172497 25 1
5.829542 245.853130 25.728563 26 1
6.943795 148.486630 -8.762026 0 0
-70.523323 170.749970 36.244278 40 1
-105.177540 194.547320 -28.687729 39 1
2.280802 120.290640 -4.271508 0 0
113.956210 135.409880 -40.632374 23 1
-44.337402 177.365680 -57.735378 41 1
-53.692020 188.318410 -9.383989 0 0
-11.813084 150.145110 25.303347 21 1
-22.894920 146.744750 35.864967 21 1
54.241272 221.968050 -3.333992 27 1
46.397102 206.024570 -46.934784 0 0
4.287289 130.269290 7.757594 1 1
12.218255 253.190200 -12.869290 35 1
-43.146587 183.580140 -57.725491 41 1
18.776310 218.070920 -0.886205 0 0
11.597682 261.070310 44.149200 25 1
4.450634 146.659070 0.163127 37 1
20.881098 128.465500 36.056313 24 1
97.214790 197.789000 -101.034740 43 1
-11.399284 80.179153 -47.032608 0 0
15.005797 225.557860 -2.873343 0 0
44.303345 119.259540 -15.511534 0 0
-96.699432 216.728200 -15.290940 39 1
21.647781 65.701965 -60.707142 8 1
-48.418526 169.609680 -59.499470 41 1
-60.135483 200.217510 29.412046 40 1
106.813570 109.250110 9.772979 12 1
5.982232 269.467160 -73.619476 42 1
22.714933 167.910130 -25.975863 0 0
26.589523 126.034190 59.606228 13 1
13.561549 267.136260 -83.026207 42 1
28.395033 255.803960 -15.515041 27 1
-99.216484 209.013530 -26.517004 39 1
9.648008 236.028530 -36.125675 0 0
12.841136 255.777370 -79.694038 42 1
-6.793491 249.468480 8.508155 25 1
-11.892464 198.026280 45.798141 25 1
-24.700476 159.529450 38.483925 4 1
-21.531919 124.976460 -18.305126 7 1
-76.659615 203.245380 14.875848 40 1
41.091393 208.741070 -91.566322 16 1
23.310030 59.243248 -62.098320 8 1
39.759712 241.467240 -9.136582 27 1
-29.085585 150.666730 59.777103 4 1
53.410461 111.956720 -55.767532 34 1
0.216445 264.237300 -47.971756 2 1
54.812614 256.290040 48.023052 3 1
-104.438640 207.354430 -20.342255 39 1
53.272114 226.373840 2.614429 27 1
-11.985842 255.133990 22.622723 25 1
-3.188097 141.715500 40.920490 22 1
81.557693 222.496340 -81.542809 43 1
35.019146 250.361600 -1.750522 27 1
31.297672 254.225020 -65.513412 17 1
-121.822390 170.127210 -26.634851 39 1
-43.940228 81.653580 -59.854904 11 1
-24.775307 134.859450 18.086893 21 1
-2.432076 51.002663 -1.335128 0 0
-1.789348 116.699580 11.091801 1 1
1.023630 78.344452 -43.023323 19 1
10.859512 131.194630 48.386181 24 1
26.207052 261.796080 -60.176083 17 1
-43.396255 156.229000 -64.887253 41 1
60.090363 249.948910 46.197842 3 1
31.493048 246.804350 33.313076 29 1
45.520573 217.608200 -15.595005 27 1
10.993904 194.973890 -10.103446 0 0
39.070381 200.326290 -44.124641 0 0
73.440628 222.510180 -77.069458 43 1
53.504337 244.748760 61.107742 3 1
-40.476311 180.758210 -54.390835 41 1
-42.203354 167.845380 -57.967220 41 1
5.093327 97.366570 -7.982492 0 0
6.128854 197.115550 7.346494 0 0
43.577007 237.168530 -10.982562 27 1
-65.525604 207.644490 9.814056 40 1
24.286612 274.686070 27.667738 26 1
42.269035 250.612230 6.298167 27 1
-0.624522 266.367310 14.120151 25 1
-5.460404 256.266480 -58.239212 2 1
8.874144 76.397095 -15.509617 0 0
13.388883 244.218640 45.580997 26 1
-0.446432 46.256104 -3.272671 0 0
41.018078 210.888500 -81.388779 16 1
-39.117531 205.340130 -36.092724 41 1
38.641678 243.855480 24.185328 27 1
-26.617371 237.612990 -48.992065 2 1
-12.900956 248.046740 29.847563 25 1
5.187559 121.292020 8.628187 1 1
-99.104362 197.071490 -34.363480 39 1
-0.863685 234.753080 41.526165 26 1
57.972244 219.354370 -68.008591 16 1
-3.861137 231.715210 16.440928 30 1
21.278576 250.836200 -11.685781 35 1
55.464970 216.830400 67.947830 3 1
7.585735 213.500640 9.866499 0 0
44.123131 268.421780 45.122589 3 1
48.942921 106.104230 -55.617290 34 1
-20.832930 77.795296 -90.165810 9 1
55.266853 127.528510 -47.496586 34 1
-18.677946 87.257095 -79.090263 9 1
10.475655 226.172380 -98.022438 42 1
17.426151 227.136870 -94.043640 42 1
-2.092176 78.261246 -0.179936 0 0
39.729645 241.636150 -66.599380 17 1
-15.623337 85.104263 -53.840969 0 0
23.350971 194.220080 -94.051727 16 1
68.728241 221.653290 -37.546326 15 1
-38.320736 199.875080 -43.267174 41 1
70.323387 210.921810 -74.086922 16 1
99.269943 133.747340 -44.021622 23 1
-4.471825 127.709880 48.687702 24 1
-94.749748 203.923890 -26.321009 39 1
-6.716167 132.458470 -45.063427 5 1
14.308174 215.826230 -1.770217 0 0
47.090923 134.294940 -36.304462 34 1
29.451473 109.875040 -11.975015 0 0
-15.805353 203.839190 41.910198 25 1
68.797577 224.568950 -60.088764 17 1
-19.089725 126.558490 -23.850204 7 1
106.495030 122.134550 1.833048 12 1
-12.644124 227.483400 12.593577 30 1
51.922943 216.013690 74.900291 3 1
-11.482038 130.070790 -28.712017 7 1
-22.351122 215.002370 -53.026344 2 1
21.539473 198.127290 -84.987289 16 1
-10.055188 116.792630 54.557240 24 1
-1.678478 261.062380 -58.655331 2 1
-12.788509 145.336120 31.938501 0 0
15.211807 133.940750 7.633554 32 1
30.721437 241.993900 25.879772 27 1
10.701552 266.641050 19.135391 28 1
70.907082 134.043820 -51.270348 34 1
2.446264 225.979200 59.423992 26 1
14.206981 110.370790 27.097616 0 0
23.072178 129.607560 13.411062 32 1
31.120056 127.968280 33.296513 14 1
10.221635 253.194000 46.445061 26 1
1.475157 34.460747 3.321820 0 0
-24.962814 235.336930 -40.641811 2 1
13.572981 119.534700 -44.942013 6 1
5.243042 220.609880 -97.344513 42 1
15.401091 175.800230 -93.861526 16 1
0.744931 133.200230 -40.364929 6 1
67.175461 218.449940 -68.935776 16 1
27.934126 228.334200 -66.679916 17 1
20.212824 237.053070 -90.421959 42 1
-30.939966 211.750430 -46.206875 2 1
68.102966 227.277310 -54.448612 17 1
-11.874081 125.421200 -52.398392 5 1
-1.124645 223.683650 -105.173840 42 1
-2.656193 96.898338 -10.107945 0 0
51.361546 221.496810 -65.945618 16 1
16.832607 268.942260 -61.537411 17 1
-17.565662 83.848984 -75.107758 9 1
87.181862 208.866500 -39.872272 15 1
15.762762 202.833080 -6.266363 0 0
38.206047 114.398670 -12.121120 0 0
12.289626 106.772810 23.530249 0 0
-2.007188 30.236473 2.308731 0 0
46.422783 232.855880 -56.222263 17 1
-34.480568 84.937881 -52.956181 11 1
4.630860 104.169040 -14.058575 0 0
-14.571370 146.153290 16.928139 21 1
-2.903199 116.821410 59.206085 24 1
8.946820 83.012939 -45.086884 19 1
16.615973 132.905550 40.939598 24 1
103.225700 129.937010 -1.772728 12 1
-23.251720 106.495940 -68.024857 5 1
-19.209208 143.604750 40.855633 22 1
99.782837 198.767010 -46.004555 15 1
37.209293 108.852690 65.568130 13 1
-20.721472 229.538420 -62.123264 2 1
-13.557599 243.880290 32.789654 25 1
104.324520 118.667520 9.730539 12 1
79.689560 149.473310 -27.739717 34 1
-0.343021 55.854660 -2.781917 0 0
-26.548653 90.979790 -58.084312 11 1
53.694427 129.443130 -41.318352 34 1
-70.189339 201.075730 18.663733 40 1
8.993280 127.902180 -41.146877 6 1
-9.313017 257.036130 -64.392334 2 1
39.160507 219.927520 -69.008316 16 1
49.646976 239.109510 2.992389 27 1
31.995289 279.630070 48.949425 3 1
91.556557 142.026810 -6.845737 12 1
24.264616 121.533680 7.902151 32 1
46.340611 238.759460 -65.459427 17 1
35.441532 250.595170 28.878456 29 1
42.926498 208.025680 -49.894436 0 0
-14.565116 238.238750 30.231762 25 1
16.054100 196.452500 -11.916204 0 0
7.370606 143.813370 -16.954481 0 0
19.699545 81.808762 -47.198112 8 1
60.485760 142.668210 -32.760487 34 1
-31.873940 122.922840 15.581825 21 1
9.883531 242.407200 41.697639 26 1
13.655577 134.247360 35.614555 24 1
-95.154037 198.771410 -39.051880 39 1
45.101974 121.102750 -46.685497 34 1
23.524036 265.319370 13.484690 27 1
13.908499 247.193770 -2.047225 35 1
88.180687 144.964970 -10.945853 12 1
-14.957964 143.827010 44.383419 22 1
110.660030 115.957660 -0.476765 12 1
-106.491520 197.971310 -20.685877 39 1
0.875161 93.638809 -3.626518 0 0
-53.710739 205.289140 -27.631985 41 1
-103.380000 201.995010 -29.831295 39 1
54.491920 212.192080 -3.738884 27 1
71.237648 143.847850 -36.732231 34 1
9.714760 243.107420 21.205194 30 1
3.149622 143.250580 -12.446320 0 0
108.337320 109.271960 -48.675087 23 1
19.540617 192.588330 -87.379662 16 1
8.911093 232.049850 53.618008 26 1
-67.894012 165.274220 38.104523 40 1
-14.999336 133.345340 -27.150036 5 1
-5.301422 224.570620 49.817547 25 1
40.370876 277.281980 29.968929 3 1
-12.122797 241.952620 11.693783 25 1
67.367393 206.000810 -79.899857 16 1
16.321871 64.561127 -65.154785 8 1
-76.246368 213.706850 -14.999028 39 1
36.024696 276.865200 35.895260 3 1
-5.388887 122.694310 61.664837 22 1
6.076802 189.030490 4.943161 0 0
25.746122 258.877840 11.218827 27 1
51.278152 230.695400 -3.811013 27 1
96.324455 134.848220 -6.787526 12 1
85.328239 149.875530 -36.543461 23 1
18.718544 255.529540 28.719522 30 1
-8.394921 66.832909 -29.714491 0 0
86.957451 144.676300 -5.801262 12 1
-113.757510 191.510860 -21.212414 39 1
56.580345 224.982390 -70.892632 17 1
11.139891 265.352870 29.667343 25 1
49.809776 230.806350 -69.153900 17 1
7.083638 149.848850 -2.639501 37 1
38.273415 114.457500 21.120163 14 1
-48.798000 184.570360 -52.880589 41 1
73.540825 227.608510 -80.235992 43 1
-60.514324 204.080030 17.043682 40 1
-35.235809 80.397179 -59.633690 11 1
-50.987179 214.772370 -18.859512 41 1
28.709717 129.283050 55.890617 13 1
-69.305206 212.367250 -12.940082 40 1
-57.767838 195.364320 -10.094731 0 0
-34.295498 160.108290 -5.254282 0 0
-2.837118 209.763640 53.306305 25 1
-12.600220 232.394530 13.658001 25 1
-46.344540 161.258470 -62.198696 41 1
7.178230 140.932280 -7.427503 0 0
92.518303 221.329130 -73.671173 43 1
-52.922192 202.159790 -35.537075 41 1
19.791147 252.025360 -3.216377 35 1
-4.508568 263.064090 -45.628319 2 1
16.880333 98.295746 -10.400863 0 0
-27.382473 88.128708 -74.596565 9 1
-25.217897 98.532402 -70.582603 5 1
-9.916804 124.730650 -4.076044 0 0
87.385033 222.458560 -55.964951 15 1
2.142759 260.418300 -86.835495 42 1
-30.300879 154.676190 46.139957 4 1
-29.752621 200.385030 -52.907509 2 1
9.923329 262.031650 21.836050 26 1
3.980440 65.905052 -88.143921 10 1
43.590084 220.918440 40.294186 29 1
-33.353020 131.457260 19.697014 21 1
-7.371730 111.347920 59.195480 24 1
17.263454 225.536240 6.968993 0 0
40.425694 235.970320 -19.007761 27 1
8.641106 164.181460 -3.274236 0 0
46.705154 242.853180 -51.400139 17 1
41.781929 255.149520 4.522126 27 1
16.229681 130.247820 14.445351 32 1
-3.512730 100.670940 -3.688282 0 0
-55.579388 207.823880 -23.310259 41 1
1.846337 262.047330 -52.327484 2 1
-20.544111 134.442470 -1.556810 0 0
73.611725 148.601390 -21.124006 34 1
105.387900 116.804990 -48.078278 23 1
-96.310211 214.209440 -19.914762 39 1
30.958994 128.312410 41.963711 13 1
-6.129786 233.658100 45.896255 25 1
106.629370 174.692230 -41.803493 15 1
-66.582542 207.788210 -37.249111 41 1
-86.593285 215.483780 -9.734396 39 1
0.965416 15.568106 -1.132227 0 0
-117.025470 197.987870 -11.361526 39 1
-28.737621 199.240770 -59.658520 2 1
10.643875 251.488190 -92.616875 42 1
-2.569972 143.841250 45.293438 22 1
4.982280 262.399170 27.358225 25 1
43.132126 121.546810 34.896122 14 1
-27.043863 151.438670 53.360909 4 1
-8.763022 133.498410 -40.762272 5 1
-28.871218 227.618300 -39.557434 2 1
-69.504822 206.616410 -12.224010 40 1
3.348260 70.365036 -80.358215 10 1
47.864777 128.291260 -44.487835 34 1
-22.555609 157.529790 43.414555 4 1
15.263263 233.446430 -3.199735 0 0
-6.930810 253.783130 28.998896 25 1
16.604614 262.133210 -11.235588 35 1
14.380855 268.116940 -76.700607 42 1
94.772018 206.337840 -46.131207 15 1
-16.396072 117.955110 -54.712021 5 1
14.038134 238.755230 -87.746758 42 1
2.007392 85.530647 -5.718697 0 0
86.719849 147.427340 -19.201080 12 1
18.144136 78.455986 -30.202034 18 1
-24.866982 207.653700 -52.323730 2 1
-82.694527 220.070390 -14.855354 39 1
61.859993 228.556590 -55.207745 17 1
3.077181 128.356380 -39.827053 6 1
53.400532 249.979630 53.317162 3 1
53.889755 119.028290 -48.821243 34 1
113.093550 101.784840 1.542155 12 1
36.005810 234.023740 34.908321 29 1
98.303848 205.951280 -95.878632 43 1
1.131897 254.256000 -90.828209 42 1
-49.841087 192.418750 -47.062225 41 1
5.951966 72.896965 -13.832820 0 0
26.542484 210.514850 -83.001900 16 1
-3.216884 260.175230 23.050407 25 1
-126.265110 169.418200 -12.639424 39 1
76.739403 145.954700 -25.721643 34 1
24.258699 70.864815 -30.216648 18 1
43.146461 114.472120 60.617676 13 1
-2.337379 36.514271 -3.558668 0 0
-7.902657 255.293060 -43.274643 2 1
-16.132233 236.974980 -56.482143 2 1
-8.675902 89.171097 -66.194016 10 1
-28.005354 221.023940 -44.480927 2 1
8.705493 181.637730 2.701921 0 0
57.917057 119.338650 -52.435253 34 1
-11.358656 73.398132 -42.340363 0 0
54.932606 227.734970 -44.674358 20 1
52.264942 235.277600 64.213516 3 1
106.918000 132.403470 -11.560526 12 1
79.631203 143.788310 -35.477348 34 1
83.235634 216.382050 -93.952736 43 1
-15.558724 157.316250 39.377071 0 0
-7.472043 225.124250 43.120804 25 1
6.554989 91.435684 -9.970183 0 0
28.375425 222.062700 -69.224304 16 1
9.827770 263.276340 35.712120 25 1
35.279518 227.460390 -70.772820 16 1
1.062009 266.072600 -81.302879 42 1
-52.330791 204.063810 20.699131 40 1
-2.196492 0.987165 -3.193189 0 0
60.541901 134.129900 -42.168198 34 1
-16.075499 88.674065 -62.213749 11 1
31.811802 204.221770 -86.411453 16 1
-51.921139 211.827330 -24.377865 41 1
102.145840 200.464580 -96.147850 43 1
22.732504 211.234480 -75.179138 16 1
-77.777092 195.557340 23.841780 40 1
-2.834273 133.829070 35.536919 24 1
-40.373703 165.445770 -62.400520 41 1
-61.682690 190.871290 34.786263 40 1
-31.695723 87.940468 -58.583027 11 1
-7.661404 132.098500 -21.447468 7 1
95.198151 193.250200 -33.233189 15 1
13.623395 243.424090 -85.735718 42 1
-19.549969 244.501530 -61.239876 2 1
11.412327 221.847930 -95.386681 42 1
2.715391 153.780990 -4.096631 0 0
-3.546278 54.012951 -7.708521 0 0
95.119286 210.905840 -90.020073 43 1
-17.918324 143.602660 34.684849 0 0
22.291569 205.374220 -84.854324 16 1
53.788422 226.838210 63.779987 3 1
43.104744 199.252490 -47.148972 0 0
-58.755367 199.392580 -42.680065 41 1
49.766563 247.848690 59.635693 3 1
108.593430 186.419110 -100.894200 43 1
96.973259 140.264530 -10.203958 12 1
67.224800 207.942630 -70.458908 16 1
-46.487640 75.559631 -57.579735 11 1
104.872030 192.920230 -96.632462 43 1
104.617230 181.241640 -106.438270 43 1
30.690516 114.480640 69.783951 13 1
27.991911 182.318340 -34.408413 0 0
-14.929500 225.671830 40.091404 25 1
8.628814 264.777710 -66.249321 17 1
49.894554 226.015810 -75.479309 17 1
-15.395491 93.866440 -66.302605 9 1
24.910480 199.068270 -92.072685 16 1
44.736652 219.004390 -79.602562 16 1
-8.604854 251.905550 -55.939758 2 1
95.566055 193.006520 -40.423115 15 1
4.364854 156.156740 -0.287952 37 1
22.192844 241.736430 -9.276440 35 1
7.192918 175.047350 -4.065073 0 0
3.944970 257.008580 -80.801674 42 1
7.434289 170.982530 0.744665 0 0
3.065924 195.394420 -109.038710 42 1
31.100622 238.359530 34.552834 29 1
14.915804 263.859650 -46.153782 17 1
-6.974988 228.723850 10.655456 30 1
-55.243477 201.139660 29.012871 40 1
15.199226 124.369370 -33.940048 6 1
46.876675 211.523350 -82.148445 16 1
-25.636656 121.023780 -22.193399 7 1
-14.138362 86.441521 -72.531082 9 1
-8.474251 135.994190 -35.236591 5 1
74.046013 222.462310 -93.188339 43 1
42.106335 228.870100 -57.730770 20 1
40.545795 122.918170 53.219376 13 1
-37.314709 88.154213 -49.534763 11 1
76.371773 227.873230 -72.272850 43 1
112.112260 101.303110 -49.854641 23 1
17.607956 254.686630 -7.342103 35 1
27.061409 128.203780 29.296412 14 1
-130.011730 162.440030 -14.445320 39 1
-39.762749 85.877670 -54.962597 11 1
38.873814 206.403050 -87.361832 16 1
-22.701054 75.890915 -85.293236 9 1
13.014104 214.345200 -21.620766 0 0
-10.902835 147.081530 40.938099 22 1
-4.008335 119.705700 -8.080967 0 0
-87.633575 214.907210 -21.266085 39 1
4.892251 165.816090 -5.750575 0 0
80.568398 210.083370 -27.845968 15 1
98.676010 140.237870 -39.751827 23 1
62.362907 219.476820 -41.513039 20 1
-55.151527 194.476840 30.064756 40 1
16.635130 248.393080 43.208290 26 1
94.952347 137.100510 -43.630390 23 1
2.958186 250.752730 -85.323654 42 1
-61.227798 175.861510 36.667961 40 1
-20.670485 241.404040 26.224321 25 1
34.259289 127.898970 47.416874 13 1
48.733376 223.162050 71.946480 3 1
19.858345 239.935130 -0.307127 0 0
-72.699203 160.600650 41.566525 40 1
-63.099731 184.122790 32.888649 40 1
34.607151 120.003910 18.083250 14 1
11.805324 91.016411 -16.565090 0 0
42.207447 247.882480 -59.021767 17 1
-46.418736 210.693950 -24.887608 41 1
3.570410 248.695430 -11.564755 33 1
23.431925 133.930150 -10.252474 31 1
-47.194225 208.394090 -32.357391 41 1
91.702621 196.818650 -32.509060 15 1
14.642205 201.125060 -11.780808 0 0
-32.274967 109.231060 -16.123611 7 1
49.334408 229.688510 40.190948 29 1
-22.581827 141.797260 21.708607 21 1
-4.392624 22.314554 -0.587640 0 0
-5.266561 130.192440 42.641888 24 1
96.675056 206.668300 -91.418633 43 1
64.880730 219.234220 -73.301529 16 1
-16.009951 256.511080 -41.188068 2 1
40.469696 120.237830 26.225632 14 1
92.825233 189.830510 -29.443924 15 1
-6.021875 109.106470 -3.454398 0 0
47.581219 258.071350 53.883942 3 1
49.124680 212.419200 -50.343681 0 0
34.323483 123.625670 59.694744 13 1
23.436153 181.411290 -97.389275 16 1
-17.391842 128.522340 -2.341373 0 0
9.347386 227.391390 -29.853151 0 0
33.918163 196.950240 -94.646896 16 1
-67.300789 187.980360 33.500786 40 1
1.492801 235.267350 47.610916 26 1
10.903276 246.439480 -93.651955 42 1
-81.237541 211.156540 -29.289158 39 1
59.710426 138.000460 -39.473480 34 1
-27.221260 221.779130 -52.165558 2 1
-10.749311 214.282550 9.354214 30 1
-47.056141 182.639010 -6.162011 0 0
-68.517418 194.167980 25.687881 40 1
11.180302 241.128850 -7.274156 0 0
1.074916 127.607820 -27.529495 0 0
2.029528 208.798570 -108.373410 42 1
4.950893 128.338170 -47.325199 6 1
6.502627 108.430240 -14.869100 0 0
76.905960 210.746520 -48.129700 15 1
-8.806075 72.081085 -34.615932 0 0
-3.228100 86.628487 -6.602587 0 0
-1.009604 68.840485 -79.336487 10 1
36.516754 272.916260 50.377781 3 1
19.732983 262.349910 -42.931694 17 1
-19.929508 212.451370 39.091999 25 1
39.944775 256.098910 12.817842 27 1
-81.529526 210.346480 -21.993835 39 1
-19.382029 116.848950 -58.172249 5 1
-19.389053 238.978580 -60.022507 2 1
5.585555 224.872340 51.667370 26 1
46.519054 260.738830 60.291332 3 1
103.930720 179.972660 -39.501701 15 1
-1.579713 197.042820 -108.591270 42 1
-19.171997 150.429870 38.988430 22 1
-26.738670 194.341380 -55.284664 2 1
18.138033 245.838900 -89.256836 42 1
69.556984 225.639510 -84.946335 43 1
-34.175213 148.241100 51.288502 4 1
50.802086 215.725510 -8.843229 27 1
4.872754 265.482730 -87.875603 42 1
-38.253036 77.566833 -62.639603 11 1
-10.857347 207.825550 47.375999 25 1
76.889748 211.419890 -33.748711 15 1
10.455093 180.442140 -9.618286 0 0
-7.597892 244.398280 28.153404 25 1
9.998923 191.026180 6.545077 0 0
106.026870 130.849700 -44.111240 23 1
-11.754117 236.941100 38.729229 25 1
3.099219 245.445420 34.052746 26 1
52.154354 216.739070 41.499310 29 1
-7.297089 246.958420 16.338137 25 1
97.672745 189.802340 -110.794870 43 1
23.479900 265.296170 -4.129825 27 1
-57.713360 149.649540 -65.115631 41 1
51.789341 228.043140 35.640003 29 1
14.294073 255.247560 36.136364 26 1
-41.604057 172.628400 -59.569313 41 1
-36.575371 185.339610 -48.088932 41 1
44.329056 240.315290 -69.857338 17 1
17.349823 200.127210 -80.200844 16 1
59.142933 229.308720 -51.303898 17 1
3.999581 241.001950 38.376926 26 1
-8.951105 139.981780 56.411877 22 1
1.366276 29.432264 -1.011304 0 0
50.678001 246.954450 6.094802 27 1
-119.980380 182.074260 -12.708153 39 1
99.165207 209.497860 -82.819496 43 1
25.601856 251.605240 -1.284305 35 1
-62.796822 193.346880 -56.366749 41 1
-26.646383 84.450478 -88.042358 9 1
114.104260 130.596210 -41.786919 23 1
-29.322220 222.910660 -40.345638 2 1
18.191956 240.565660 14.608472 0 0
-7.449902 81.311584 -75.722504 10 1
4.693372 252.863460 -94.675209 42 1
13.453767 209.385510 -101.695190 42 1
34.203583 251.924940 20.445124 27 1
-80.812134 207.424990 11.913569 40 1
49.942181 226.144490 -53.556335 20 1
15.300973 195.391190 -5.700583 0 0
89.717728 200.433350 -35.235279 15 1
-57.014355 180.112840 -58.422932 41 1
84.204666 144.886730 -42.628891 23 1
15.041950 183.941640 -89.671555 16 1
46.242363 102.935810 30.425978 14 1
3.383825 260.807220 -66.214630 17 1
0.054114 247.577580 44.441444 25 1
13.106785 119.491190 -40.325199 6 1
8.341534 258.477080 -49.433701 17 1
-4.088522 9.317393 0.522859 0 0
0.928422 61.296127 -6.239711 0 0
-23.074463 224.850510 -47.643154 2 1
-21.263464 216.349400 -57.356289 2 1
-1.609923 84.756973 3.351700 0 0
37.580997 246.746050 -68.248749 17 1
-16.713545 109.576170 -66.410339 5 1
