32.227032 74.371513 9.724014 0 0
38.416542 184.214170 30.099941 0 0
48.110325 194.186140 -14.041032 0 0
40.708675 110.717480 -4.975610 0 0
20.065580 140.173190 10.560549 0 0
45.329056 321.508030 -12.022841 8 1
46.236427 194.149310 84.715919 27 1
95.406525 190.614690 -3.518391 18 1
97.072472 283.192020 6.176171 4 1
73.149750 137.622670 -49.787762 52 1
88.031425 198.802510 39.699440 15 1
11.689787 248.279130 -14.235911 22 1
109.883510 269.252170 -9.715597 4 1
-22.323105 82.066414 -20.874683 0 0
27.831196 265.758670 -1.183903 0 0
42.983273 251.406850 15.652370 0 0
11.746004 210.803710 4.223280 0 0
18.528624 209.370420 -46.408298 42 1
77.664696 169.914990 -21.092566 17 1
49.410839 238.344300 -84.604820 20 1
37.140747 170.906920 5.884998 0 0
3.371326 194.478060 -8.962002 0 0
40.273479 256.197200 -54.688808 20 1
77.722206 234.027050 62.229774 13 1
-30.682079 94.621635 -45.916367 0 0
-53.098484 194.797230 -12.432206 35 1
16.009521 97.853645 -21.695997 0 0
68.244614 177.933530 19.618475 0 0
51.889923 319.397980 -41.428272 5 1
4.800719 112.305690 -86.254837 23 1
16.791620 125.957660 -19.244814 0 0
78.501160 202.990110 -38.760155 19 1
16.916706 164.054140 65.108246 26 1
2.151438 176.092350 -40.638226 41 1
53.434467 231.513850 1.365417 0 0
0.786886 54.085148 3.488651 0 0
95.107986 250.774830 -37.877975 12 1
20.220623 329.866330 -11.504545 6 1
119.691880 248.441770 21.237219 3 1
106.093970 131.481430 -24.324440 50 1
-10.980149 273.545900 46.351410 10 1
35.664486 212.055050 -28.137877 42 1
2.481388 167.356840 -7.624262 0 0
20.953968 93.288147 6.823427 0 0
121.999950 242.603180 -65.741318 12 1
86.295448 258.591160 39.101524 11 1
-26.596327 192.185780 -15.823590 35 1
56.337013 268.883580 50.787556 11 1
19.852789 158.805500 0.887538 0 0
-44.899082 197.825850 42.606693 24 1
19.045551 107.782050 -72.229919 45 1
27.563442 234.914860 -25.492399 44 1
63.947945 290.801880 83.200623 9 1
60.747093 224.227340 76.348473 16 1
77.097717 244.209210 -16.812143 29 1
42.446579 224.693820 30.593342 0 0
-4.865432 18.870472 5.972769 0 0
40.325470 178.422440 49.260647 0 0
98.605621 217.419620 -17.585924 29 1
33.312782 128.520130 0.568284 0 0
76.320137 307.857120 -20.082418 8 1
65.222786 234.690290 44.206184 28 1
-13.065139 160.427860 4.498343 48 1
34.983288 154.999970 34.769585 0 0
10.574821 113.386390 -39.242805 33 1
58.423500 252.089630 -45.513184 20 1
-65.301781 200.204190 -47.234241 37 1
-0.536270 101.577430 -10.634971 0 0
38.512180 312.016020 -28.127735 7 1
7.715440 174.059940 13.131932 48 1
59.274250 90.800514 -35.524181 32 1
48.296432 279.050510 34.278683 11 1
25.615726 197.040190 6.629304 0 0
96.264618 299.899990 39.692558 3 1
38.051449 198.707260 67.014137 27 1
-56.170448 195.723590 6.854137 35 1
41.957134 142.774220 64.987442 40 1
53.365772 250.898940 -4.713810 49 1
46.167168 93.977829 -71.916130 31 1
38.774544 149.314580 16.102531 0 0
79.988129 266.839870 -53.160069 53 1
56.831776 307.448850 -18.543575 8 1
121.006480 253.133450 2.625509 3 1
30.698372 236.310360 14.021753 0 0
-8.796269 95.609688 -27.808409 0 0
6.867523 43.659645 -11.382890 0 0
-8.054102 74.949318 9.664747 0 0
65.256119 80.334778 -54.025585 32 1
77.614464 141.019150 -13.065030 17 1
-22.602152 183.128160 -89.632309 30 1
25.797392 118.996520 15.121693 0 0
-1.241559 253.051240 -1.564624 22 1
25.805676 143.212570 -18.247395 0 0
65.003708 203.404280 31.808159 47 1
-24.198008 170.962020 -19.382376 0 0
117.789470 123.013320 -60.456806 51 1
39.141159 100.231960 -43.715881 32 1
-17.382973 139.555510 -13.097478 0 0
0.196465 252.442170 -44.310154 21 1
17.973675 191.876430 61.041004 39 1
102.064810 197.560390 12.627085 14 1
35.168507 250.683980 -19.869207 44 1
17.755285 247.338900 -54.769733 44 1
69.113846 315.742580 72.105499 2 1
-27.141489 199.559690 -80.343903 30 1
70.744476 290.117250 33.910019 11 1
82.871918 200.625310 4.768332 18 1
-3.242124 161.931850 62.612736 26 1
76.603188 196.035950 -71.046181 19 1
71.626595 127.651250 -26.316423 0 0
87.263695 253.285230 -62.702965 12 1
118.924110 280.341740 -33.851086 1 1
-33.959183 195.233440 24.354416 25 1
29.793577 274.047520 24.968515 0 0
37.941673 291.186190 71.494270 9 1
-38.137283 202.659090 -47.584702 36 1
18.403202 154.849520 48.198040 26 1
79.560974 283.758450 -21.762257 53 1
69.887619 268.984500 62.203957 11 1
17.218744 326.956090 -31.348671 6 1
48.217865 201.156830 -34.483768 42 1
-5.775898 166.459060 -26.675568 0 0
4.246034 172.558720 30.337280 48 1
24.350891 180.922150 13.619205 0 0
-24.484819 158.834580 17.830751 48 1
75.718468 317.550450 55.852062 2 1
50.582851 192.445400 51.585342 46 1
36.297253 290.264830 22.430653 0 0
33.055382 72.801071 -74.356750 31 1
-20.831163 247.165340 -11.193639 22 1
18.022558 180.346850 -20.507578 0 0
13.020908 133.368770 -4.138695 0 0
77.909538 174.208890 -4.296919 17 1
59.335587 228.379880 28.892811 47 1
95.057068 141.964360 -16.410357 50 1
-21.275669 48.757488 -5.165525 0 0
42.053905 222.996690 12.847219 0 0
-18.989002 66.030640 -26.026442 0 0
-19.185602 108.834110 -3.850870 0 0
17.886011 74.026810 -29.890999 0 0
90.650398 305.669560 54.703926 2 1
111.180780 284.507080 -17.540327 1 1
127.195460 183.175460 2.955899 14 1
5.163384 107.353120 -54.105194 33 1
-13.198060 204.461810 -70.593552 30 1
-19.902174 190.359630 -36.587948 41 1
100.596840 253.905200 -73.199234 12 1
50.010223 178.141050 19.070343 0 0
31.514738 158.681760 -15.406877 0 0
70.331940 195.911900 -19.571171 43 1
29.221476 281.034760 40.329330 10 1
-15.505878 256.939610 -62.039047 21 1
39.257679 182.605440 -5.927544 0 0
103.343170 129.337340 -40.647907 51 1
-4.728137 77.416504 -10.841375 0 0
133.778460 279.472530 -45.062149 1 1
1.419972 243.327240 -30.408997 22 1
49.163750 329.469600 -25.905672 8 1
68.958473 282.632750 -52.213711 53 1
42.454075 205.277010 16.959635 0 0
36.458069 100.164320 -60.343491 31 1
4.882730 113.545840 7.365581 0 0
5.340492 307.775600 -31.538755 6 1
28.270054 196.432420 -19.962704 0 0
-16.562092 173.998750 -36.018757 0 0
60.367512 199.474430 -45.195984 19 1
38.747036 254.474110 46.012627 0 0
35.409184 283.239900 -0.957901 0 0
63.483971 276.192350 29.976135 11 1
25.833561 215.212020 -2.403616 0 0
12.176506 66.714149 -10.753167 0 0
23.970177 132.597090 23.883142 0 0
13.054804 159.590900 34.109444 48 1
58.061607 222.251190 50.772594 28 1
31.784946 244.764220 -47.931133 44 1
4.212412 119.549510 -9.546310 0 0
66.274040 259.288420 -66.062057 53 1
67.504463 243.288150 -60.829842 20 1
98.211838 199.787770 27.700920 15 1
66.524628 313.755680 -40.505291 5 1
59.001991 287.226680 -38.883961 5 1
93.934387 205.669880 71.194641 13 1
29.976059 204.191640 -58.695099 42 1
99.850250 226.269390 -4.668808 29 1
69.165352 250.287510 -34.122414 29 1
109.088130 278.717220 14.758651 3 1
46.347935 196.135270 35.666908 0 0
96.045906 282.148990 -18.025908 1 1
26.790558 276.952610 10.227814 0 0
59.812542 197.038740 78.170181 27 1
8.198657 86.702980 12.575042 0 0
81.450485 126.175760 -56.263493 52 1
-8.367779 176.676970 -62.713135 41 1
75.116135 182.568860 -30.486723 17 1
71.837219 292.074680 -31.915033 53 1
19.734188 119.333690 -62.338146 45 1
11.759096 278.457310 56.227028 10 1
55.651478 245.271070 9.439037 49 1
90.239166 277.945830 -36.128510 53 1
49.849087 182.392000 -23.658638 0 0
12.741141 95.773895 -5.602798 0 0
-40.867157 189.260910 -19.717636 35 1
28.907732 230.808760 28.099060 0 0
49.825081 246.610750 -18.795574 49 1
41.323051 263.913420 5.208378 0 0
-0.188005 90.237549 -0.317744 0 0
5.513839 213.660230 -23.789351 0 0
58.172630 242.653670 -73.202225 20 1
15.991583 154.684540 76.783920 26 1
60.220726 320.544190 -10.676638 8 1
74.022659 178.672420 42.870110 46 1
48.658401 232.732590 74.093361 16 1
12.540970 152.876590 12.849823 0 0
-10.120925 117.134830 -72.042053 34 1
17.063488 107.060000 12.983837 0 0
-33.205898 188.862730 -45.091831 37 1
-58.160721 194.508650 36.834644 24 1
-24.701075 72.366661 -9.912981 0 0
-12.957327 270.034610 60.615807 10 1
81.163399 240.784470 -36.124271 29 1
34.197182 168.852020 39.885532 0 0
98.780861 287.193630 21.349813 3 1
30.375557 103.956120 3.010992 0 0
76.899315 230.630860 76.514297 13 1
36.273476 172.479900 20.456608 0 0
-1.644725 58.692455 -18.622101 0 0
98.125198 270.298680 -0.736068 4 1
-63.191673 187.299440 17.187500 35 1
122.038750 234.687010 -78.217171 12 1
52.344334 238.793690 -45.250282 44 1
5.097222 180.750350 -13.662214 0 0
43.245850 306.066890 -13.236416 7 1
65.213760 242.892700 -1.297627 0 0
13.738718 64.871422 4.706330 0 0
79.554565 155.103790 -17.305798 17 1
29.223211 170.889500 -7.867229 0 0
-25.338655 91.545403 -31.416344 0 0
-14.540349 99.495430 -13.865479 0 0
-11.948187 141.072270 -26.440351 0 0
-16.490192 195.887740 -50.864426 41 1
-39.337662 183.612150 17.861118 0 0
39.502579 280.003880 62.626270 9 1
84.164810 292.155610 38.557796 3 1
86.517723 133.860550 -45.216774 52 1
11.544489 126.346720 8.622905 0 0
30.020227 159.335770 10.861698 0 0
40.663105 145.344920 50.924358 40 1
24.628540 109.758890 -38.247612 33 1
75.302429 262.393740 47.840397 11 1
43.912052 158.378250 6.474728 0 0
38.642326 242.354610 -60.672874 44 1
8.336480 195.254090 -52.589531 38 1
73.179558 182.384350 -16.070223 43 1
21.366003 112.572330 -18.717369 0 0
20.484840 168.289950 52.064827 26 1
74.115326 65.506142 -45.711819 32 1
-13.847454 126.538750 8.222557 0 0
61.040092 216.402160 36.163628 47 1
-14.289055 63.733814 3.934488 0 0
30.015375 254.214940 10.909262 0 0
9.016553 217.063320 -10.342353 0 0
40.789474 238.508380 23.535400 0 0
33.969154 329.740450 -14.262853 6 1
81.387001 203.106990 -52.488415 19 1
-4.879363 171.389010 7.395821 48 1
51.819038 291.275510 76.302383 9 1
46.430546 200.534240 -1.736459 0 0
29.477278 249.352310 -32.705372 44 1
-19.403875 79.512009 0.825293 0 0
90.801163 250.890460 49.865837 11 1
37.000809 264.065800 18.351952 0 0
-43.977943 196.020520 13.371270 35 1
0.546283 281.243590 48.647820 10 1
131.165360 183.690750 16.181192 14 1
110.959180 289.524440 -41.516846 1 1
21.762329 143.979140 -5.085569 0 0
93.858429 202.028430 51.854580 15 1
93.833511 235.126770 -14.362946 29 1
-5.485835 261.168270 -35.452686 21 1
25.100515 196.869640 71.583961 39 1
-0.204351 64.604675 -5.379616 0 0
102.857940 283.092250 -6.175400 4 1
47.027065 249.555160 28.515200 0 0
30.959293 209.164490 9.632311 0 0
51.458385 316.065950 -27.641928 7 1
46.807365 205.304520 -21.660944 0 0
30.421797 213.259630 -40.876045 42 1
13.610264 240.292950 -25.381386 44 1
33.459820 138.736570 9.434825 0 0
89.618889 196.582610 -14.165941 18 1
90.965775 248.693150 -50.513393 12 1
18.804586 87.599197 -29.909798 0 0
24.765385 279.263240 52.980850 10 1
39.295971 211.852770 34.299080 0 0
88.550491 230.143680 69.102226 13 1
29.967905 90.004112 16.087332 0 0
38.886349 82.504311 -67.227448 31 1
-6.505523 174.071610 -15.685997 0 0
25.394737 237.993000 -38.398941 44 1
1.360932 172.601170 -53.470367 41 1
66.064308 241.283080 -44.027580 20 1
84.378090 199.434360 26.916359 15 1
18.895618 78.787956 12.704854 0 0
109.213360 244.735500 -68.466599 12 1
95.525719 187.123920 -68.536842 19 1
66.898262 235.922270 69.673126 13 1
-8.106889 183.998550 -37.723099 41 1
35.415531 237.323460 -81.958694 20 1
50.995430 100.774640 -37.860912 32 1
87.117119 301.732060 30.026997 3 1
24.250942 244.172970 -16.470160 44 1
46.328190 256.246830 -42.503704 20 1
26.269245 322.883820 -22.398045 6 1
57.515049 197.779250 -22.590374 43 1
0.973779 88.947021 -13.824714 0 0
109.251370 128.883580 -52.420921 51 1
101.032260 198.744720 41.249325 15 1
-9.578879 183.986010 -89.378624 30 1
51.460636 137.046710 51.872013 40 1
-38.828922 192.497650 -33.673073 37 1
9.329193 108.806790 -15.420750 0 0
6.468727 198.521620 -65.048149 38 1
15.785464 99.979408 -55.541607 33 1
21.375570 170.777270 6.052861 0 0
115.360240 269.611880 21.568872 3 1
115.119280 265.353240 1.505209 3 1
-8.272782 50.248108 -4.961607 0 0
-19.291208 129.646940 -4.971151 0 0
-13.854022 86.592415 -12.214439 0 0
19.405100 155.008770 -11.442919 0 0
-28.787741 157.693300 5.714874 0 0
29.203144 185.482010 2.173130 0 0
1.340120 178.100010 -27.726898 0 0
90.043152 282.455380 -5.230955 4 1
-22.887949 182.583860 -24.739162 41 1
76.815598 264.248050 -8.941764 0 0
50.505470 306.815160 -43.552319 5 1
6.367852 109.780410 -73.782356 45 1
36.558372 184.664660 14.731724 0 0
87.234589 314.402620 45.820751 2 1
84.101471 164.993730 -10.605381 17 1
103.493590 293.029750 31.718876 3 1
17.176294 109.616090 -84.766289 23 1
21.646545 90.187981 -12.795683 0 0
66.927788 249.993790 -11.731804 49 1
9.253238 99.133827 6.233749 0 0
-60.837498 192.846440 -56.667744 37 1
30.722494 190.674550 60.419243 39 1
57.387344 273.135530 62.725739 11 1
42.220013 228.742280 -88.652519 20 1
73.818794 228.507570 51.553177 28 1
6.824491 202.370180 -18.195602 0 0
56.592854 188.478490 89.188934 27 1
49.061798 118.393830 -10.499234 0 0
10.571364 281.451690 68.410004 10 1
-52.831245 196.862560 -46.286060 37 1
-0.879207 248.894880 -13.796865 22 1
7.498803 109.530820 22.643610 0 0
8.021095 69.422050 -22.318203 0 0
-35.222824 191.254590 36.535633 25 1
56.765038 229.525380 -52.604439 20 1
-25.921488 204.405500 -49.992718 36 1
119.248280 258.633910 14.080879 3 1
57.542603 247.593580 -30.537888 20 1
62.389149 276.113800 42.673271 11 1
101.800820 132.170620 -12.672113 50 1
28.801540 111.027380 -64.084412 45 1
61.060394 223.617690 -31.432980 0 0
23.385138 128.829120 -9.159928 0 0
45.980942 271.371430 44.071770 11 1
69.158928 180.876400 31.602394 46 1
44.424706 246.503370 4.390206 49 1
49.310997 196.098240 71.708153 27 1
-44.574913 198.616180 30.224648 25 1
46.431110 245.908920 -75.292648 20 1
65.669670 310.982450 -26.373478 8 1
54.576843 204.128360 12.932583 0 0
13.948382 204.238340 14.401044 0 0
32.521362 305.904020 -19.281979 7 1
78.556961 267.986850 36.755604 11 1
-6.295441 256.935610 -53.924522 21 1
115.938470 188.007430 3.990841 14 1
18.376122 170.540040 32.806480 48 1
27.778425 204.319060 -10.622623 0 0
67.575569 85.977638 -43.434727 32 1
15.622853 148.172090 -22.769859 0 0
33.210690 287.332310 11.009768 0 0
48.723156 170.196330 9.645026 0 0
71.913795 298.569400 -42.400635 5 1
51.256756 250.312010 -56.325226 20 1
-8.281093 110.403350 -14.074344 0 0
51.175400 294.337430 -44.882206 5 1
-38.862946 198.829930 -59.142960 36 1
-12.750791 73.899994 -19.305569 0 0
-23.587210 159.762770 -14.928988 0 0
-41.452015 195.652980 -9.399177 35 1
-10.504404 159.875270 -17.560816 0 0
12.904535 133.501740 28.520771 0 0
91.630539 193.218110 8.370354 18 1
7.804459 254.025600 -53.683022 21 1
27.262941 148.553040 5.862494 0 0
-4.981230 25.456396 -4.096001 0 0
24.233425 159.950910 39.057743 0 0
6.731631 159.228900 69.173218 26 1
47.726116 102.545250 -63.688648 31 1
-4.276934 108.944980 -79.214226 34 1
34.869122 203.058140 -0.006487 0 0
45.747295 271.077450 57.732670 11 1
67.172867 245.147600 -23.344704 49 1
-5.568733 154.584550 72.036789 26 1
-2.127733 101.841650 1.262725 0 0
106.735360 200.893460 1.812754 29 1
81.249603 230.132100 -19.745398 29 1
26.672855 143.970400 25.579283 0 0
56.856445 284.661010 -50.199287 5 1
-27.099998 198.255510 -5.488212 35 1
7.576195 163.117980 57.882313 26 1
10.812460 202.440310 -3.990679 0 0
83.734245 275.105620 -45.707836 53 1
41.463589 164.417240 -12.655611 0 0
8.739115 318.967590 -32.756214 6 1
98.893303 271.639500 -13.658527 4 1
11.482807 167.708600 22.490978 48 1
67.616081 199.802800 -35.849575 19 1
112.174750 127.255400 -14.867582 50 1
70.356163 193.553890 35.293011 47 1
-11.226426 247.755040 -4.392526 22 1
96.520782 130.529370 -31.300438 50 1
56.442146 188.275360 4.853590 0 0
-15.294964 162.328690 -32.011875 0 0
43.215477 244.149950 -49.972507 44 1
19.082460 271.162750 16.602396 0 0
14.331232 325.252780 -20.297211 6 1
-36.702690 96.716347 -36.328117 0 0
84.318108 244.134950 -7.851904 29 1
36.503124 197.378170 11.085490 0 0
37.419506 320.598690 -20.288046 8 1
49.955818 223.206020 80.346291 16 1
2.304696 53.893608 -8.949934 0 0
-6.481028 44.472305 4.859890 0 0
69.600029 316.613920 -17.020853 8 1
115.630980 248.975940 -58.489773 12 1
30.455503 92.785187 -44.082600 0 0
16.673325 203.097900 -55.810295 42 1
-7.243363 174.525150 31.502087 48 1
30.947937 224.138370 10.455072 0 0
-5.879339 30.441483 6.249639 0 0
46.153343 242.928560 -8.548527 49 1
14.287855 122.037030 -4.418177 0 0
63.500904 230.600570 56.383217 28 1
48.968689 201.457260 -45.816177 42 1
21.026146 214.678760 9.588179 0 0
69.617241 266.299040 -57.784435 53 1
-72.177124 192.181260 -51.731792 37 1
42.111542 301.751250 -24.933651 7 1
43.975742 225.198850 1.905672 0 0
0.010111 177.059510 20.855467 48 1
4.201613 75.655365 10.540637 0 0
72.977066 132.661470 -59.963318 52 1
41.115940 193.379440 45.288601 46 1
5.475919 156.599490 -6.022804 0 0
83.861649 207.409740 75.962608 13 1
71.306160 201.258090 -47.261890 19 1
39.671631 279.220250 23.324131 0 0
40.901505 194.706730 56.877701 39 1
61.637623 191.008960 50.060326 46 1
67.001762 302.537290 -16.836807 8 1
91.428490 291.523190 28.632088 3 1
30.998890 273.193270 60.177788 10 1
2.603413 129.374210 -4.516001 0 0
38.962318 206.884400 -37.660378 42 1
-47.363220 195.292510 0.017801 35 1
71.171379 287.343810 -41.944366 53 1
43.415436 148.033310 32.914688 40 1
37.015465 252.739590 -64.867981 20 1
100.225870 253.951400 -47.478958 12 1
31.215033 105.383020 -7.936380 0 0
60.324543 88.600075 -59.716934 32 1
84.982536 194.657470 -4.307051 18 1
41.372009 181.244670 5.380493 0 0
76.586067 185.199460 18.892065 0 0
-16.825027 201.053510 -60.620564 38 1
30.891455 128.553130 12.969934 0 0
-19.548012 191.451250 -82.908928 30 1
49.627907 223.751650 21.030094 0 0
30.861017 266.483060 9.392800 0 0
98.570663 226.278200 -24.147047 29 1
67.508469 272.573150 52.064426 11 1
-16.708628 165.438610 13.604012 48 1
-28.657753 91.075226 -20.916348 0 0
77.465981 136.853820 -39.685268 52 1
31.539160 153.536320 45.126911 40 1
-5.249785 179.520520 -48.024303 41 1
3.023761 109.958790 -4.296118 0 0
49.437706 242.825790 18.173777 0 0
-8.415999 84.543083 4.226669 0 0
14.796502 107.644610 -47.606155 33 1
-13.741870 73.054428 -6.059894 0 0
76.504623 238.601430 -26.234455 29 1
12.471165 188.445430 70.140144 39 1
35.480923 223.926970 22.169800 0 0
24.146269 221.853610 32.237991 0 0
7.641201 155.973620 45.705826 26 1
101.602820 272.662480 9.358244 4 1
-1.448602 10.071961 0.461664 0 0
31.367327 138.985310 -1.797070 0 0
63.823532 194.370830 -10.960211 43 1
85.757950 190.357360 -72.699608 19 1
24.201809 95.406883 -3.357066 0 0
53.673462 327.276030 -16.237158 8 1
42.990795 95.353508 -52.794128 32 1
25.290155 81.709923 4.400365 0 0
27.581005 98.850632 -66.518005 31 1
21.267973 121.850880 24.555462 0 0
60.030037 242.835650 -52.993393 20 1
-25.679432 258.022670 -58.197388 21 1
72.377701 206.833570 38.931568 28 1
61.178596 169.777800 17.928856 0 0
100.992000 210.814960 -9.272936 29 1
-2.270760 71.252289 -19.409788 0 0
12.547241 79.137169 -20.931904 0 0
101.065700 222.139270 5.226632 29 1
37.519646 241.318760 -14.802768 49 1
13.996892 109.560130 -60.100822 33 1
124.487710 284.457090 -42.164650 1 1
-8.541155 252.236300 -68.888092 21 1
-6.009861 98.061089 -37.890221 33 1
-11.420481 244.101640 -17.951344 22 1
2.227037 253.543660 -33.569530 21 1
4.780005 139.874790 -6.598760 0 0
-43.009109 192.789600 -47.501450 37 1
137.142670 176.985610 10.125294 14 1
14.902994 163.916840 43.768105 26 1
42.950737 84.471481 -76.906807 31 1
-16.968658 202.830510 -80.471817 30 1
-19.304392 150.029240 -14.204847 0 0
-53.132072 196.838680 49.292088 24 1
68.450127 226.308320 38.502476 28 1
17.599180 274.549100 64.215714 10 1
61.242729 252.189610 2.320328 49 1
33.870232 290.622620 -8.443255 0 0
6.038769 75.367592 -10.443398 0 0
51.613518 188.615490 41.599957 46 1
-12.530894 66.895485 14.902829 0 0
73.070038 273.535610 -48.659443 53 1
20.023136 173.410400 -12.477923 0 0
-18.603310 153.713990 10.529202 48 1
1.421020 112.067470 -44.388939 33 1
61.148872 322.212550 -37.108555 5 1
41.202774 290.222410 4.438319 0 0
107.903990 188.921340 14.268011 14 1
17.188553 210.502640 -6.355541 0 0
44.246346 132.484440 65.148651 40 1
104.133660 288.194400 12.190251 3 1
10.169646 248.308700 -45.169216 21 1
96.812645 248.588560 -64.588577 12 1
118.676610 246.991530 10.869463 3 1
-2.159922 110.937520 -60.737103 33 1
59.939560 92.913223 -45.803280 32 1
20.838535 269.502620 5.814459 0 0
48.759468 258.984990 23.844179 0 0
81.430893 178.355620 35.247169 46 1
85.458763 314.212040 57.943531 2 1
-5.989814 276.035430 55.391739 10 1
6.510998 97.216843 -17.139486 0 0
-0.933082 69.267891 3.993570 0 0
119.616540 283.922030 -24.020235 1 1
77.156013 313.623230 65.466339 2 1
23.511690 152.784260 31.441568 0 0
-6.734065 271.031830 69.197861 10 1
79.609367 128.409940 -33.023052 0 0
108.619350 280.444120 -36.714149 1 1
87.612656 302.484280 44.943813 2 1
8.998249 128.654240 -12.732704 0 0
19.893887 160.162140 14.254551 0 0
85.582130 199.107130 14.718309 18 1
119.619610 227.181930 -85.001701 12 1
91.040665 186.391600 -15.681679 18 1
54.754822 289.896420 88.129097 9 1
21.905416 248.575420 -45.319992 44 1
14.715178 116.240860 17.244654 0 0
14.155466 141.688490 2.156784 0 0
46.797291 260.987210 13.521513 0 0
19.805824 188.483340 5.935722 0 0
143.342000 276.695710 -47.933228 1 1
12.813206 106.414770 -93.604858 23 1
77.741318 283.417880 37.620216 11 1
69.790771 251.334760 -54.743256 20 1
42.365131 205.949680 6.493086 0 0
77.203033 201.287890 -61.883602 19 1
-22.191540 87.707100 -6.214949 0 0
21.367214 247.488770 -25.803783 44 1
-11.023426 102.537430 -3.934858 0 0
51.523777 247.377030 -66.464684 20 1
35.535805 274.296390 4.584905 0 0
20.469320 281.149570 34.713135 10 1
36.582066 292.138640 81.671844 9 1
57.628880 236.965680 16.124985 49 1
41.955833 245.245760 -25.345167 44 1
28.625526 181.121720 -7.160932 0 0
44.897934 237.084470 0.087010 0 0
6.301861 190.066500 -17.797201 0 0
36.340614 93.879204 -68.960228 31 1
50.021137 228.778340 -60.478573 20 1
78.406700 265.347470 57.708839 11 1
5.057693 248.465380 -22.321684 22 1
16.914711 102.395360 -12.559000 0 0
-55.673946 194.662020 17.030363 35 1
-23.456257 203.890300 -71.826263 30 1
-19.231506 173.542740 -90.860512 30 1
71.475159 75.438164 -47.539505 32 1
44.293903 158.305160 17.073605 0 0
59.390137 299.085940 -10.631096 8 1
53.343452 317.048860 -17.368488 8 1
49.839016 269.291750 30.980852 11 1
-57.688187 202.969130 -39.719540 37 1
33.455162 212.817430 -8.741752 0 0
28.902901 262.480680 24.343376 0 0
24.366009 332.776550 -20.874020 6 1
58.302471 229.805370 68.215164 16 1
-22.372255 139.217960 -3.596640 0 0
41.044682 151.301910 42.365921 40 1
28.754118 145.355880 15.518485 0 0
-19.196432 58.685669 -3.372477 0 0
68.063530 187.402400 -24.593464 17 1
62.686989 125.872520 -21.482239 0 0
110.339840 134.218440 -35.186302 51 1
9.875952 189.179780 -63.134174 38 1
82.198639 150.051730 -8.955787 17 1
33.092350 246.023910 15.973269 0 0
46.492592 168.686170 19.424133 0 0
87.243896 244.116170 56.446301 11 1
30.675358 207.486080 -49.146557 42 1
-26.241003 182.768540 -39.424458 41 1
64.552673 219.901730 27.387646 47 1
58.309380 255.164200 -12.403320 49 1
31.694891 107.183790 -44.911194 33 1
14.385250 84.516853 4.598640 0 0
111.403890 273.107300 6.660494 3 1
111.045150 197.940060 17.285200 14 1
84.656082 248.444460 -41.532902 12 1
29.731680 281.862430 18.629105 0 0
18.776192 73.670486 22.015091 0 0
2.927134 206.339450 2.939651 0 0
90.577843 227.840060 -8.302697 29 1
40.821915 154.823210 -9.978689 0 0
-31.854523 186.677840 -23.355812 35 1
21.559011 285.245910 45.051155 10 1
95.974358 193.254320 19.169058 15 1
30.951641 164.940160 -0.121518 0 0
95.382416 280.015620 -27.832901 1 1
40.080112 150.915040 59.633160 40 1
105.667080 263.925540 -1.372533 4 1
109.051660 281.712830 -26.791811 1 1
90.839005 238.777050 -35.116879 29 1
96.263557 133.576000 -21.906469 50 1
69.371864 268.965850 42.491905 11 1
50.884533 247.650070 -40.922153 20 1
43.256817 329.311100 -17.669729 8 1
36.876614 275.278810 42.723671 11 1
38.871506 215.448620 7.403784 0 0
83.602509 254.390760 -53.613945 12 1
59.287605 285.004210 75.295166 9 1
-8.737779 151.729260 -24.856859 0 0
12.413916 118.169390 -15.250402 0 0
-1.977140 102.419350 -49.223141 33 1
27.748096 161.980220 48.271835 40 1
-46.182304 200.554280 -52.673767 37 1
73.173630 282.699980 -29.608461 53 1
56.922581 197.191300 -36.337673 42 1
83.807518 257.928860 49.427917 11 1
85.484818 238.951970 -17.558947 29 1
30.142941 145.808910 -9.888523 0 0
80.360817 308.989380 51.457569 2 1
38.204720 314.436520 -12.816528 8 1
58.167091 312.518070 -45.297894 5 1
52.816345 242.730700 0.497340 0 0
23.227253 206.656390 4.358475 0 0
-13.107487 170.958540 -22.225279 0 0
-8.833593 90.674927 -19.482477 0 0
-4.353290 124.547730 0.710504 0 0
6.709368 166.225980 37.224171 48 1
85.864067 280.162350 -14.822740 4 1
-13.073746 131.008800 -15.566499 0 0
96.273453 132.981780 -46.105453 51 1
12.275396 114.765440 -68.010132 45 1
98.304619 226.446410 -14.273554 29 1
32.774197 163.480680 19.085896 0 0
35.679813 250.287890 -40.519485 44 1
43.612583 286.481960 77.670876 9 1
95.239716 231.881440 2.163321 29 1
115.783870 241.029300 -74.645615 12 1
1.428027 81.796638 -4.883603 0 0
39.374115 204.319750 -56.765965 42 1
18.808430 137.070830 -11.044653 0 0
136.147130 279.777130 -54.516804 1 1
29.208551 176.142060 4.734801 0 0
20.075848 114.828220 8.283393 0 0
41.449100 262.008540 51.393848 11 1
59.534325 237.131260 6.336198 0 0
70.060623 277.378200 36.776512 11 1
48.954556 196.061420 61.764477 27 1
21.803097 167.495760 -2.971935 0 0
118.621920 123.129720 -50.960213 51 1
113.440680 257.456570 6.508091 3 1
41.107693 197.549640 76.264954 27 1
-8.146238 256.855380 -43.470707 21 1
-6.588699 94.304504 -10.954292 0 0
27.394382 172.579640 16.894392 0 0
53.969650 273.223240 39.359234 11 1
28.743374 189.079390 10.905645 0 0
-61.610363 188.588130 -65.074738 37 1
90.832016 142.643650 -24.837725 50 1
41.552277 286.437960 15.357959 0 0
41.860710 230.979030 17.900057 0 0
15.617507 150.574510 -0.999500 0 0
17.252771 172.200670 16.510717 0 0
94.184570 217.699510 70.728233 13 1
-5.399001 61.183456 2.093629 0 0
89.759842 308.819210 38.327744 2 1
3.367999 279.830660 39.672291 10 1
25.024029 197.922700 58.569527 39 1
38.536888 150.722050 5.575062 0 0
78.674500 120.004070 -62.782818 52 1
73.960686 173.393280 -13.198275 17 1
86.802734 199.061610 72.831322 13 1
44.750637 285.562500 68.315933 9 1
49.306293 95.947128 -45.755856 32 1
96.576477 299.194370 30.167746 3 1
25.491901 152.231490 -2.674040 0 0
54.058075 190.252610 -27.147490 0 0
33.151211 242.310200 -26.713665 44 1
36.856319 189.515930 5.716977 0 0
0.100853 84.958252 8.244888 0 0
114.420090 288.540010 -32.898182 1 1
-21.207552 249.205200 -63.768833 21 1
116.053140 280.627690 -43.230656 1 1
-6.240021 245.599080 -25.616257 22 1
32.175724 257.981540 1.536260 0 0
20.017826 117.157390 -9.969626 0 0
78.146263 298.731930 -19.808910 8 1
36.216591 174.395540 -2.764533 0 0
74.255913 191.434910 -12.416096 43 1
111.177220 257.652920 18.603943 3 1
-18.972717 242.736300 -3.225859 22 1
-27.868893 188.422680 -31.834400 41 1
-2.843158 42.763172 -4.095251 0 0
27.625177 227.551280 18.800142 0 0
21.822126 87.951553 -38.731644 0 0
13.269520 59.305332 -2.704229 0 0
80.989311 224.760820 70.606201 13 1
28.127104 136.696010 -10.413666 0 0
28.886742 96.343513 -11.359060 0 0
-42.972782 193.686950 22.542870 35 1
22.248320 203.082790 -23.147985 0 0
-1.020524 115.323200 -72.772888 34 1
9.552224 107.576510 2.037463 0 0
6.460534 199.408100 11.881398 0 0
71.371735 275.422030 -57.823658 53 1
45.013863 315.370540 -21.038759 7 1
31.597849 102.030470 -52.697742 33 1
-30.190681 198.194080 32.250690 25 1
58.629166 242.959030 -38.832005 20 1
6.894730 118.047840 -0.608737 0 0
-35.149921 196.471340 10.745275 35 1
6.280705 136.042770 1.986436 0 0
98.183372 235.627500 -6.251216 29 1
31.081871 154.430560 18.643080 0 0
7.888251 106.593760 13.294213 0 0
43.532284 186.636030 53.367058 0 0
-15.730581 188.631970 -44.693043 41 1
69.278770 213.377170 33.322449 47 1
106.569810 248.466660 -77.509438 12 1
44.535511 236.886050 -55.708424 44 1
32.961613 136.044270 18.159470 0 0
102.257520 198.603680 61.430618 15 1
-18.377745 117.691820 -7.244914 0 0
9.090053 221.222140 -20.000711 0 0
78.621819 178.830810 -22.787821 17 1
72.302681 238.843060 -37.834648 29 1
-23.510330 90.508492 2.358015 0 0
34.966259 252.344760 38.018669 0 0
35.567802 302.586790 -9.829563 0 0
56.095871 292.400700 68.360855 9 1
13.727699 70.386856 -2.506663 0 0
75.264053 182.380680 -1.354456 17 1
59.098972 246.667770 -61.360104 20 1
9.392178 247.757080 -30.261095 22 1
-15.219889 253.202270 -15.426165 22 1
41.772072 75.845497 -74.324326 31 1
59.355705 222.974460 19.737213 0 0
6.320104 171.812030 -14.504521 0 0
4.635198 62.427284 1.932279 0 0
44.210567 269.191830 16.280190 0 0
70.195961 241.881960 -52.037262 20 1
49.273109 192.311800 0.656237 0 0
-8.262790 199.847990 -64.509888 38 1
104.363430 278.795990 -19.037113 1 1
-15.313539 184.271870 -31.678486 41 1
69.695099 263.938320 54.708916 11 1
128.201570 282.791290 -51.297016 1 1
12.458817 73.961136 7.404459 0 0
32.217453 81.702904 -73.554008 31 1
76.601669 165.817210 -1.398735 17 1
125.227970 187.570970 10.546827 14 1
-66.337044 187.616130 8.766517 35 1
98.349731 294.481260 15.231038 3 1
37.930004 297.552830 27.800858 0 0
73.744873 290.454770 -22.998014 53 1
62.523972 312.106510 -13.441200 8 1
83.993828 196.749860 -65.758125 19 1
-17.738392 257.763400 -53.419327 21 1
44.169964 208.017560 -29.754478 42 1
89.497620 130.610000 -37.450977 52 1
63.071407 292.390260 -45.255203 5 1
34.266933 176.165710 12.490472 0 0
41.780125 178.619830 23.826260 0 0
105.137800 280.416990 22.851418 3 1
45.046791 186.498060 16.651022 0 0
116.012500 266.851320 13.125822 3 1
114.491330 194.719090 9.758370 14 1
25.536533 329.170290 -29.177166 6 1
111.470050 130.737370 -44.031551 51 1
96.328499 247.165510 44.008907 11 1
24.247005 161.631520 30.226120 48 1
-0.357807 168.694870 -45.701286 41 1
-16.218224 114.126830 -77.755348 34 1
-8.169184 167.747850 -63.636097 41 1
41.570824 242.484880 -85.661659 20 1
46.813507 175.898440 -18.473528 0 0
-55.847881 193.617940 -1.818288 35 1
22.411942 79.765213 -34.852459 0 0
19.785810 153.030260 7.565983 0 0
61.926167 191.051560 -18.918610 43 1
2.081346 80.585838 -16.426706 0 0
-3.413457 110.825200 -52.004555 33 1
7.732918 102.845010 -7.246259 0 0
78.052971 316.364260 47.214508 2 1
0.487481 91.178497 14.460059 0 0
18.933390 101.387020 0.377092 0 0
26.012442 212.147600 -14.232598 0 0
56.686058 212.647550 10.618753 0 0
2.910853 277.281590 56.563171 10 1
-11.123264 177.861480 -95.502869 30 1
52.146542 220.519100 13.246364 0 0
78.482872 271.420010 51.350712 11 1
-41.031551 184.137240 -35.250443 37 1
-33.482185 97.408958 -17.106045 0 0
-9.365130 250.517500 3.733923 22 1
42.830269 187.305360 -12.678465 0 0
45.215000 140.028380 57.311878 40 1
21.256269 136.671040 0.985041 0 0
-13.036377 146.372770 -19.128180 0 0
5.244933 237.365200 -24.628870 22 1
32.047211 235.870010 -32.965881 44 1
33.942455 216.071730 14.624034 0 0
-32.992126 204.126860 -55.379730 36 1
66.706429 266.960910 -70.259048 53 1
40.604500 247.293550 23.004526 0 0
28.087181 87.263824 -2.739826 0 0
5.832680 252.135930 -9.014895 22 1
87.957306 127.008630 -50.450214 52 1
-7.256275 94.934937 2.798978 0 0
114.149640 233.801830 -83.416519 12 1
103.596600 274.396240 -6.169052 4 1
32.522598 203.518980 16.099596 0 0
47.326420 212.242230 19.659536 0 0
7.088069 312.883700 -24.687494 6 1
33.847687 211.973020 1.187984 0 0
-16.494551 78.291382 -12.455942 0 0
128.843780 228.632710 -76.576225 12 1
-6.805236 68.923256 -11.815122 0 0
91.286797 196.411710 31.739697 15 1
74.016655 171.506160 37.713291 46 1
-17.480154 180.683490 -41.499748 41 1
26.379732 170.004350 29.343697 48 1
76.670006 224.371260 44.381199 28 1
49.656483 198.453190 -26.205503 0 0
18.157574 320.038420 -26.079418 6 1
20.856749 179.654600 5.780373 0 0
-8.492290 200.847490 -49.738571 38 1
32.217018 147.642590 31.131184 0 0
8.781860 149.976090 77.819321 26 1
55.732620 322.964200 -23.453356 8 1
104.857540 251.756120 -65.898369 12 1
30.653851 239.294040 28.743635 0 0
93.828995 178.898220 -70.597435 19 1
-10.717522 76.664749 1.524843 0 0
17.962603 154.007920 38.922626 0 0
79.479523 131.428240 -49.696301 52 1
-13.436811 84.475822 -2.953175 0 0
-10.611567 176.055470 -54.322266 41 1
31.560280 246.074860 -56.438824 44 1
-32.973305 193.835660 -10.281858 35 1
66.251007 305.291600 -41.999027 5 1
-50.730427 193.091540 32.629787 24 1
17.646118 87.437164 12.181200 0 0
-9.237545 13.912983 0.479432 0 0
0.199025 165.193660 54.000290 26 1
60.496281 268.153990 32.855839 0 0
55.173470 206.461500 -24.055439 42 1
46.771103 322.116610 -31.515728 7 1
41.171734 245.683270 -68.162338 20 1
58.568928 177.143280 21.462910 0 0
-49.083538 191.658230 -19.480059 35 1
44.266472 187.851200 35.168102 0 0
103.365070 284.981230 35.228188 3 1
-6.472297 58.448719 -6.502018 0 0
13.186948 141.587920 -6.478926 0 0
-22.397516 152.296300 1.390586 0 0
83.769600 235.659120 -9.756347 29 1
29.475473 274.916660 46.942822 10 1
16.178658 279.168550 48.767281 10 1
66.855591 195.721950 82.776527 27 1
36.569981 287.450650 90.040695 9 1
27.321989 273.630400 2.148782 0 0
80.658638 278.752290 -28.730398 53 1
3.226832 148.413670 -5.593674 0 0
99.670242 217.788730 -4.140397 29 1
61.471054 184.532060 31.485065 46 1
-44.776489 195.842580 -39.743080 37 1
44.589951 250.746840 -61.592583 20 1
65.992767 179.420030 39.577736 46 1
-29.944971 164.513960 10.625322 0 0
50.972939 224.724720 72.066208 16 1
51.018574 309.415860 -12.693513 8 1
45.466915 177.737590 11.922987 0 0
50.012352 252.281980 -12.372073 49 1
110.252770 253.395920 -52.521278 12 1
-16.157581 108.214080 -11.920650 0 0
25.618675 242.055010 -30.888479 44 1
40.593674 329.869320 -25.697416 8 1
25.960869 265.601650 16.695791 0 0
-3.764040 184.236430 -30.434937 41 1
82.768776 249.987870 52.254391 11 1
21.812733 202.654630 11.633927 0 0
-9.172599 5.916918 3.324129 0 0
93.792786 277.292080 1.057245 4 1
73.904854 246.670360 -28.167021 29 1
103.064510 197.492230 21.214706 14 1
46.291115 309.140590 -26.553972 7 1
-4.267798 171.677220 15.797359 48 1
4.693245 111.041240 -65.610298 45 1
70.461899 318.511200 64.061729 2 1
69.337746 234.014010 61.622585 16 1
36.931965 235.779910 -90.077515 20 1
64.406616 194.790160 -26.328493 43 1
41.066902 170.500270 13.296469 0 0
-5.856406 175.942410 -24.014511 0 0
-5.711917 79.047058 -19.082121 0 0
27.979509 80.996391 12.570956 0 0
21.710627 106.360310 -59.838249 33 1
20.578394 190.101810 68.778145 39 1
44.727345 216.809130 29.066933 0 0
93.589439 255.387940 -68.194237 12 1
84.615379 239.050700 -28.729797 29 1
125.827520 237.287250 -70.892059 12 1
55.633656 201.474990 72.426567 27 1
-43.014149 193.676470 -26.572845 37 1
91.881546 293.044890 20.464230 3 1
60.014954 317.029690 -27.401899 8 1
16.646109 98.773041 11.343223 0 0
35.079132 298.371370 -21.684198 7 1
37.731548 249.867890 -31.135265 44 1
94.017342 196.793440 45.241066 15 1
65.500854 243.166410 -31.505545 49 1
20.763536 181.822910 -12.833263 0 0
5.448392 127.895130 3.200472 0 0
58.712032 237.512280 -2.040589 0 0
13.556170 151.618670 31.963894 0 0
59.911293 293.183530 76.288330 9 1
99.336082 279.546940 13.313127 4 1
51.436996 242.676510 -52.719784 20 1
62.929775 291.478120 -18.784124 8 1
13.439915 111.502520 -77.660515 23 1
9.238887 138.062580 -13.285858 0 0
25.682901 135.151760 13.887805 0 0
80.839729 233.610020 69.837967 13 1
62.347797 269.080350 57.432270 11 1
8.648291 282.622010 48.498695 10 1
63.194916 87.849846 -51.412418 32 1
-0.161989 186.999100 -12.816025 0 0
100.120640 294.789950 24.162128 3 1
13.037838 164.412780 51.739883 26 1
-9.777434 66.269386 -19.534285 0 0
70.848412 218.863100 46.684193 28 1
49.580151 273.818450 51.035133 11 1
1.669515 94.449608 -7.268390 0 0
-11.035921 111.377520 -6.374926 0 0
96.143700 250.504200 -56.670696 12 1
54.273106 193.526060 83.046440 27 1
29.832342 198.888350 65.232872 39 1
45.595432 110.687300 -11.515028 0 0
52.956875 216.173550 83.745461 16 1
42.688564 95.809029 -64.209145 31 1
1.406659 68.666557 -12.602427 0 0
-20.470551 88.699600 -16.505356 0 0
18.186214 112.773730 -42.236881 33 1
105.444480 205.965740 -4.461355 29 1
56.117836 280.715240 -42.843773 5 1
15.142449 132.055710 3.762903 0 0
-6.537268 256.229280 -62.067158 21 1
-18.217159 67.894058 -18.142818 0 0
63.090038 193.310270 90.000046 27 1
41.537659 194.568070 16.827408 0 0
101.341520 284.974640 -23.518417 1 1
49.243225 251.234410 20.869490 0 0
23.337933 206.482940 -52.505913 42 1
57.764511 249.149640 -17.848036 49 1
29.921093 239.231060 -12.840029 49 1
10.013505 214.863330 -2.590926 0 0
-3.456710 37.258598 2.536822 0 0
29.242620 245.383190 -40.098495 44 1
22.902767 200.628050 -60.455872 42 1
27.424965 176.397550 -13.787764 0 0
46.563137 102.016320 -55.660179 32 1
111.907900 276.230740 24.670378 3 1
12.965888 92.012955 7.447537 0 0
81.189972 162.945370 -18.305582 17 1
25.627062 160.459150 -4.503578 0 0
67.757515 285.609340 -34.832203 53 1
38.682800 123.906520 24.970133 0 0
46.142323 252.829740 -50.312931 20 1
-11.063591 24.307468 6.891528 0 0
12.107798 327.471100 -12.878617 6 1
74.225060 206.849730 -52.261768 19 1
21.202778 146.760830 -12.614751 0 0
21.199009 125.272920 17.280699 0 0
45.930737 217.428590 3.484792 0 0
-11.282277 159.557170 -25.626997 0 0
96.306473 280.629330 -10.119263 4 1
65.684967 284.801360 -14.237648 8 1
-16.306465 137.200590 -20.692488 0 0
57.584400 315.032990 -37.458790 5 1
69.890793 248.986190 -46.989925 20 1
74.457878 280.941960 -45.904259 53 1
26.858042 152.280170 38.735737 40 1
63.035263 240.917420 -67.066933 20 1
91.588799 253.224260 41.809250 11 1
39.202522 243.417270 -78.077347 20 1
-1.249301 173.010150 36.578674 48 1
-5.647999 166.193980 -16.951206 0 0
33.162411 277.288240 53.618271 10 1
69.588539 249.190700 -4.214236 49 1
47.791603 322.714260 -19.596251 8 1
52.274963 224.677060 28.642387 47 1
-54.679222 190.932420 -61.501629 37 1
34.254906 180.855470 22.427032 0 0
-28.117886 176.551990 -23.495399 35 1
126.145390 276.722200 -43.092297 1 1
81.624947 171.581620 -14.388744 17 1
38.553680 132.892940 12.946646 0 0
82.698456 249.185500 -14.134109 29 1
-8.582075 248.426450 -11.865354 22 1
18.830774 280.657410 59.130596 10 1
85.219193 300.357670 37.624130 2 1
52.806377 243.294080 -79.255081 20 1
38.482300 152.913990 49.831425 40 1
21.163984 112.488850 -66.186089 45 1
91.273575 310.206450 61.588882 2 1
8.443917 251.044650 -37.912868 21 1
37.448475 271.737150 20.368336 0 0
78.258781 220.624280 76.808411 13 1
29.378897 279.771210 64.353630 10 1
47.903767 143.593750 48.188530 40 1
36.476688 287.061490 64.885483 9 1
-38.212692 186.884450 -28.082407 37 1
50.677040 84.677505 -75.176018 31 1
101.994710 276.554960 2.197812 4 1
61.129379 250.876540 -6.274563 49 1
32.932117 327.158330 -22.412413 8 1
84.512497 158.043140 -6.847322 17 1
134.072950 179.101650 3.152774 14 1
-20.658052 144.310410 -19.489523 0 0
22.188629 120.390830 -20.769468 0 0
29.322241 132.416260 6.257973 0 0
34.807842 165.581300 11.543662 0 0
47.280743 203.805770 37.303261 0 0
-14.681227 93.771973 -8.425716 0 0
35.658829 95.867599 -49.296764 32 1
89.195839 189.502030 -8.667653 18 1
32.120903 161.344330 38.483662 0 0
26.516405 327.320470 -15.516868 6 1
2.993435 197.198290 -58.054790 38 1
27.482880 249.904660 -21.452650 44 1
71.766228 183.543610 -8.323891 43 1
-7.857710 67.301361 7.765713 0 0
88.610390 212.199230 71.576668 13 1
66.352898 252.452440 -26.936790 49 1
46.030327 204.680740 -52.484188 42 1
35.726151 88.670547 -63.095615 31 1
55.991627 189.299910 35.073467 46 1
91.404572 197.604920 23.937082 15 1
-58.187210 186.999890 23.336657 35 1
-27.478659 85.316498 -26.110640 0 0
6.890179 69.733131 3.703012 0 0
28.616245 223.148380 25.879383 0 0
28.322975 166.152560 7.172348 0 0
58.425568 305.415560 -41.527576 5 1
71.042023 249.923660 -18.482811 29 1
15.537142 164.622760 28.524267 48 1
53.385384 170.122380 15.987199 0 0
10.673362 208.892760 -20.341619 0 0
68.962074 186.699540 -33.077187 17 1
81.017014 129.981350 -40.816315 52 1
78.755028 206.356030 -45.885075 19 1
-53.745197 195.768140 -54.054821 37 1
16.610598 244.939800 -19.864082 44 1
25.234720 175.606000 -2.115641 0 0
68.135361 227.718250 46.176807 28 1
104.954170 287.395140 26.348684 3 1
35.684536 259.520570 12.142140 0 0
-58.258904 189.742100 11.548688 35 1
92.435661 275.922390 -15.005308 4 1
-51.502544 198.235810 38.472805 24 1
-58.523754 193.500140 44.628990 24 1
6.798475 276.808170 63.304710 10 1
6.648527 68.321404 -5.307607 0 0
92.964142 273.360470 -5.704953 4 1
4.437741 161.358580 -12.190954 0 0
54.828938 229.197100 77.293991 16 1
-33.459873 188.139500 -37.244938 37 1
35.239845 229.895630 13.961061 0 0
-31.686987 195.356550 42.115646 25 1
101.705330 129.214290 -50.599499 51 1
-17.799192 198.792360 -73.886955 30 1
105.924750 207.022050 6.516744 29 1
136.203430 273.191350 -48.931248 1 1
7.222757 174.106810 21.397463 48 1
47.988144 243.126170 10.403911 49 1
95.498734 233.030210 -21.867496 29 1
100.669740 199.342740 49.075729 15 1
63.295410 267.728520 47.574879 11 1
51.119980 234.811580 -52.150890 20 1
-11.321912 167.136370 8.302794 48 1
1.161671 256.983520 -56.989750 21 1
-13.865006 190.327360 -88.227654 30 1
-20.676882 62.439083 8.102526 0 0
12.825282 241.500670 -33.380188 44 1
61.430752 324.012450 -17.482685 8 1
-17.325348 167.232560 21.101622 48 1
96.727699 200.905700 35.212425 15 1
-42.634045 192.846480 35.061253 25 1
14.403182 160.189090 71.297195 26 1
22.310619 106.962010 -45.386917 33 1
52.842590 276.643100 57.572567 11 1
20.996099 163.508360 58.093281 26 1
21.075602 111.811030 17.543697 0 0
52.050129 96.206703 -61.420208 32 1
-21.285526 188.514880 -20.036337 41 1
35.051178 234.481920 20.151442 0 0
79.767166 262.074800 41.545307 11 1
2.015395 154.729220 73.378616 26 1
47.934116 328.698790 -11.140389 8 1
-16.195164 65.970039 -4.006346 0 0
97.335617 194.222110 2.991212 18 1
25.305319 275.186800 18.646519 0 0
93.510719 306.241520 29.986801 3 1
94.475258 241.296750 54.413204 11 1
54.003914 321.134770 -34.246109 5 1
33.490658 152.716670 -10.904485 0 0
-5.151626 171.456360 -57.628212 41 1
82.765205 241.286590 -43.612907 12 1
-15.016562 53.236855 -7.060324 0 0
89.925758 191.891540 -65.839638 19 1
10.675898 203.717220 6.944197 0 0
115.184610 251.772450 15.768435 3 1
-22.863289 200.620970 -55.932343 36 1
63.418655 209.164290 36.813225 47 1
82.915787 277.292330 -38.224846 53 1
102.601280 133.902110 -34.465996 51 1
62.180603 244.502080 5.549520 0 0
47.208748 206.324690 -40.200081 42 1
49.520493 287.918060 82.931892 9 1
-10.557517 200.422070 -77.095634 30 1
70.401154 203.136310 -64.900261 19 1
59.256088 236.649380 54.467606 28 1
10.105253 118.861960 -61.945732 45 1
-8.516025 130.273700 3.548833 0 0
38.432625 273.214940 57.436283 10 1
84.459106 200.556590 -58.982044 19 1
47.080845 162.997190 11.641407 0 0
-32.306728 94.465744 -30.484976 0 0
12.079065 114.626850 3.791601 0 0
-42.786629 197.392550 5.856885 35 1
67.408348 303.803990 -24.541210 8 1
11.699782 171.850650 28.869329 48 1
10.200262 321.474850 -25.707464 6 1
-12.063816 183.185780 -56.707630 41 1
-51.908688 199.179980 12.217352 35 1
73.498291 232.215680 68.457047 13 1
52.792534 285.819150 71.021957 9 1
-10.773121 270.500000 53.307087 10 1
29.896805 236.656620 -87.127701 20 1
25.197319 247.426930 -52.059277 44 1
-7.805849 102.857170 -12.910137 0 0
8.296411 111.527600 -48.079090 33 1
45.524506 244.550430 -57.187683 20 1
-22.756750 163.505520 -21.470152 0 0
39.682327 243.996810 -43.111343 44 1
39.106380 276.985570 30.539457 0 0
11.001609 198.598680 -58.841286 42 1
2.894687 169.081970 -60.036957 41 1
71.908470 255.255400 -8.107119 49 1
63.807724 247.980830 -41.320259 20 1
104.183630 266.001160 5.943815 4 1
97.044403 283.685910 -1.365182 4 1
-1.018579 197.603650 -64.692947 38 1
15.696198 126.568700 27.113455 0 0
35.912663 291.520320 -0.787319 0 0
32.898380 196.980260 4.467484 0 0
53.533871 113.468630 -14.061725 0 0
-3.072533 62.374020 -12.021517 0 0
-33.927109 191.521670 -17.458567 35 1
-6.270638 51.609173 2.176782 0 0
51.928570 235.556580 67.891914 16 1
75.197945 176.258730 31.583916 46 1
36.508884 175.503920 43.474915 0 0
23.544342 274.732270 58.856014 10 1
39.735016 192.836550 31.830919 0 0
3.935179 84.044487 1.842998 0 0
35.822002 280.705470 8.503865 0 0
19.765778 145.864990 4.912803 0 0
24.099398 187.653610 62.289791 39 1
69.762939 185.551450 41.728336 46 1
68.440140 188.414570 -16.266758 43 1
77.102310 245.651250 -9.448732 29 1
46.074665 151.306260 15.057333 0 0
57.695988 297.004700 -42.072613 5 1
-6.444739 85.263374 -14.877403 0 0
57.214691 186.320790 46.020596 46 1
117.973790 287.924220 -43.592098 1 1
49.378586 197.861110 78.983688 27 1
42.743210 270.453550 9.031631 0 0
29.228941 191.859570 67.862846 39 1
-35.923035 177.911190 14.229143 0 0
41.563725 206.047030 -3.104079 0 0
14.490197 151.295300 -15.830151 0 0
24.665562 87.133057 9.500491 0 0
24.605911 209.498790 13.604386 0 0
77.535744 148.002110 -15.710104 17 1
17.163954 80.972816 -26.890982 0 0
19.171242 211.935970 0.989771 0 0
67.577805 309.700200 -19.276443 8 1
34.936169 108.436620 -0.837093 0 0
-11.400817 43.470234 -4.461192 0 0
6.483778 93.766052 10.870028 0 0
-0.558881 50.146282 -3.187818 0 0
75.624146 258.841310 54.373707 11 1
76.660278 70.305489 -40.624004 32 1
48.213280 133.193220 57.458488 40 1
57.706165 222.579710 33.269272 47 1
25.694304 241.816440 -23.372168 44 1
22.347233 202.223600 -15.764720 0 0
132.486040 183.626620 8.831090 14 1
16.433807 54.771984 3.151645 0 0
-2.457226 180.557480 -15.726780 0 0
36.396458 87.845451 -73.417046 31 1
26.624239 141.262970 7.146770 0 0
17.645229 110.959680 -53.782932 33 1
22.926010 105.581900 -87.545853 23 1
70.271461 281.165650 -62.388859 53 1
106.713130 271.096800 0.207203 4 1
76.992897 269.368410 44.157326 11 1
60.764374 198.883790 -16.021156 43 1
90.736717 255.570690 -56.552654 12 1
96.475479 132.928790 -38.517979 51 1
-11.917504 58.879124 -1.496555 0 0
-60.005547 195.680950 -49.750370 37 1
-10.026172 29.398499 -0.379322 0 0
73.355576 242.015690 -45.075344 20 1
88.262978 232.472990 -20.101706 29 1
42.227013 273.207150 50.181110 11 1
-40.339237 186.791080 24.465502 0 0
23.086987 212.418060 -41.325996 42 1
117.044240 258.600430 -0.813439 3 1
55.012993 95.297440 -40.779453 32 1
23.757135 121.235940 8.203095 0 0
34.958260 266.486080 25.719706 0 0
46.852047 280.049770 63.867950 9 1
110.748890 271.513700 15.379568 3 1
24.883682 99.088577 4.494904 0 0
-39.275341 191.092650 -41.003838 37 1
51.359962 193.590880 90.133568 27 1
91.069382 237.040360 -7.594332 29 1
73.899246 261.049870 -60.695290 53 1
78.412575 311.259340 58.597160 2 1
0.319126 175.286480 11.293579 48 1
2.061481 107.895970 2.712852 0 0
86.854660 130.050660 -27.597561 50 1
-68.255318 193.333190 -57.854504 37 1
19.479134 96.411163 -9.124874 0 0
93.930298 198.224850 71.223671 13 1
22.900883 278.056240 45.815342 10 1
90.272079 194.456830 0.961107 18 1
57.901188 286.549870 82.387505 9 1
0.569639 312.610110 -28.078011 6 1
114.332390 264.890840 -5.811350 3 1
59.349380 207.882400 17.075865 0 0
94.543869 305.346190 44.299461 2 1
25.534523 153.661330 12.091701 0 0
37.097004 242.119260 -53.471977 44 1
39.007149 308.195100 -21.886786 7 1
-48.862095 197.268690 -6.983437 35 1
88.044815 194.997180 -21.148056 18 1
92.962784 140.006410 -31.757982 50 1
-49.098202 193.956820 7.541982 35 1
22.289455 223.492140 22.153343 0 0
19.255276 99.892395 -90.342209 23 1
20.704899 139.773300 24.984608 0 0
6.753248 255.056840 -46.243347 21 1
26.566246 160.041240 17.300470 0 0
-0.044759 20.585005 -1.763200 0 0
78.198097 157.883150 -10.535893 17 1
31.019073 213.831100 -33.496407 42 1
52.230606 214.953290 46.647213 0 0
33.935986 265.434810 2.818957 0 0
36.243156 199.442440 59.916492 39 1
28.256437 145.565430 -1.217060 0 0
30.935266 216.258760 7.929781 0 0
44.863132 168.983520 -17.216206 0 0
19.873363 327.926360 -24.211199 6 1
71.404404 200.919890 34.776924 47 1
-24.832104 195.414690 -85.997070 30 1
42.519688 245.499240 -18.071575 49 1
46.859165 254.030750 10.062671 0 0
-0.037047 57.823032 -2.707226 0 0
33.850975 192.614260 54.050884 39 1
63.698700 202.989960 -50.632347 19 1
55.438530 274.743380 46.324825 11 1
77.714783 191.977840 -6.034731 43 1
68.785583 79.223839 -41.006187 32 1
39.629646 285.325440 83.649368 9 1
108.032290 132.746090 -17.213812 50 1
16.286140 156.854810 -5.135831 0 0
14.194430 161.830380 18.442131 48 1
42.117943 235.282360 -84.931252 20 1
