-72.797356 222.341370 -24.221741 62 1
-47.277969 165.288280 12.452682 0 0
-45.105392 219.117390 -37.259750 73 1
-113.795630 216.917020 -33.301960 41 1
-12.803551 351.592350 39.894669 22 1
-94.576302 146.259250 -5.538876 27 1
-6.026188 297.843720 43.351868 49 1
19.056097 344.505070 39.325573 2 1
27.656330 214.552470 -0.046871 71 1
-20.465733 213.071350 -13.184963 0 0
24.534250 131.276000 -69.856720 35 1
-43.086769 277.057190 -0.358788 57 1
-30.148861 107.081480 -38.241215 0 0
-48.235466 382.039790 -36.130768 12 1
94.082932 187.325610 73.769722 10 1
-48.849415 225.605160 -89.264153 42 1
-7.628151 191.075230 71.592125 21 1
-91.398941 182.204470 -75.927460 45 1
-65.675606 149.282380 -35.625935 25 1
-112.034710 277.716640 -7.245460 34 1
-78.029289 227.518360 -41.157574 61 1
-66.358124 242.661390 10.827833 65 1
7.716795 233.888950 13.347828 72 1
-88.737129 238.486680 8.730207 65 1
-46.089752 311.936890 33.600163 47 1
-70.042877 346.535340 -11.999069 67 1
-99.230972 187.261370 67.626488 36 1
-81.404060 275.440340 20.498016 55 1
5.049412 134.586850 -73.808327 35 1
-105.804070 231.631930 -11.092937 59 1
-9.313116 147.989990 -21.748131 0 0
87.045723 194.451140 -50.286221 7 1
-14.206450 378.077450 3.591249 3 1
-7.083506 124.114270 -13.003273 0 0
-121.384510 213.779910 -20.726316 41 1
-8.303394 40.603100 -12.769190 0 0
-14.542914 277.787140 28.491953 0 0
-19.840996 129.441530 -9.369904 0 0
-26.109589 71.287529 16.146980 0 0
29.083555 174.087270 62.007275 20 1
-69.698418 284.065800 48.095570 48 1
35.762226 190.316560 -9.029638 75 1
-36.298088 71.841370 7.623093 0 0
-4.837646 144.777190 -39.483475 0 0
-42.505783 369.119200 11.302313 3 1
28.548084 219.305470 -62.992519 31 1
15.711659 178.524050 33.766144 70 1
-30.858412 366.326420 -5.070741 77 1
-8.025685 240.262600 10.929780 72 1
-8.859398 227.594540 -26.047020 72 1
-58.394615 180.381670 5.903322 0 0
-15.428779 228.238600 11.923237 72 1
-3.577865 181.721740 25.040613 70 1
-1.311042 189.553410 54.155197 70 1
-52.244934 262.681880 -38.030579 57 1
67.582672 182.908660 -10.437366 29 1
-11.516161 207.272170 -19.097126 0 0
-32.798882 178.436370 -35.167789 74 1
-51.319893 209.036960 -13.106255 0 0
-18.394264 342.937840 50.332588 22 1
10.975547 231.273280 -65.409164 31 1
-35.849323 317.553280 28.508200 47 1
-102.453930 119.966290 29.074869 26 1
-80.697113 148.975430 -6.215775 27 1
-12.866529 106.036670 -8.328540 0 0
-26.690435 306.148830 50.422722 48 1
23.636078 292.341710 38.909523 49 1
-96.967598 219.586240 -1.700144 63 1
18.917757 251.427980 -40.546928 17 1
50.709034 179.709790 51.370186 19 1
-31.869883 306.298220 -0.763564 0 0
-14.405675 197.820180 40.490841 70 1
-80.221985 227.902360 36.528305 68 1
-7.847454 107.522790 -98.412003 35 1
6.088961 193.870940 8.921977 75 1
-23.482622 140.522780 -18.657921 0 0
43.527679 165.379440 77.568611 20 1
-40.576935 317.742340 47.477249 24 1
-136.246400 114.355550 4.465034 13 1
-68.797913 246.530880 22.015331 64 1
-131.485400 199.791310 -33.365021 41 1
79.687630 179.112180 68.766129 10 1
-75.579262 152.057860 -19.185644 27 1
-65.464806 236.096470 -52.883492 61 1
68.604095 165.875690 51.448185 19 1
2.364518 198.642810 -6.678835 75 1
12.288761 237.221480 -28.471447 31 1
-92.420105 213.691350 -46.803699 61 1
-89.433502 242.864940 22.823828 58 1
-36.746738 177.488970 55.803612 69 1
0.059469 99.967903 -9.336580 0 0
-50.232632 350.612150 -21.901283 77 1
-37.520615 375.169920 -0.897138 77 1
-26.434828 192.045100 -39.919720 74 1
-120.764430 201.149490 35.965645 58 1
-3.423532 122.544340 -87.269028 35 1
-64.473839 334.150210 27.768803 15 1
-68.372070 219.026730 43.108456 68 1
-95.735573 134.736180 15.082246 27 1
-19.835295 312.954440 16.476774 0 0
-54.530235 265.073910 -14.865414 57 1
-88.863068 144.155300 -29.538740 11 1
-44.583866 270.885620 -20.277411 57 1
-17.271282 93.307465 -23.686188 0 0
-109.601200 143.510250 -24.812113 11 1
-33.683784 229.504620 -0.894489 73 1
-83.406059 141.721880 -49.512131 25 1
-80.358162 233.908050 -6.022105 65 1
-26.436981 158.005770 6.906588 0 0
-77.038498 350.959110 -2.076174 67 1
-5.334513 365.392580 -31.397106 76 1
17.507257 167.078080 -76.136063 39 1
-82.461624 276.672820 32.283890 55 1
-97.661804 132.352200 3.845293 28 1
-33.994678 228.559370 -22.852926 73 1
-21.880579 200.771730 13.799976 0 0
-118.061100 221.419510 -11.577973 41 1
-47.165688 342.383820 -33.206135 16 1
-55.747257 155.279570 -37.909828 25 1
-29.644964 301.943150 35.380112 48 1
-11.782433 232.870390 -12.078040 72 1
46.028934 97.394386 -34.480438 9 1
-58.105957 295.332060 62.929432 48 1
14.729549 233.536240 -8.800394 0 0
-27.645105 94.680588 -5.362410 0 0
16.687881 229.915760 6.989353 72 1
44.333267 262.655490 -22.176441 18 1
-44.896526 298.967100 32.761169 48 1
63.718437 171.175990 82.012466 10 1
-71.707504 275.764010 8.835106 57 1
46.889210 123.436130 21.382299 8 1
-76.263145 217.345690 3.751658 63 1
-19.024090 109.068020 3.547544 0 0
-22.239437 60.752106 9.469468 0 0
-122.649060 123.755440 -46.019588 11 1
-0.718052 185.623460 1.579699 75 1
40.354546 177.291660 60.986759 20 1
4.874427 223.643570 -18.452164 0 0
-16.815504 191.198240 -13.544352 0 0
-33.356438 196.028760 -16.325514 0 0
-96.781830 344.791720 -1.245523 67 1
-44.302689 365.173890 -12.869131 77 1
-29.310871 183.778470 35.396786 0 0
33.038826 185.815290 40.432404 70 1
-87.749176 222.573850 55.179615 36 1
-26.345089 130.484530 5.969667 0 0
-62.586639 276.480870 60.280811 48 1
27.082180 196.478670 25.713478 70 1
53.064304 117.288890 32.974007 8 1
-23.640753 328.049260 56.572582 24 1
16.488028 212.482250 0.578668 0 0
-14.169915 297.168980 22.646080 0 0
-10.384952 179.687010 -29.669790 74 1
-68.797401 250.606200 1.160772 64 1
-46.887325 316.344670 87.096901 24 1
9.881870 181.065630 -12.984946 0 0
-10.548227 327.194310 18.337103 0 0
-120.360800 130.736420 -35.542706 11 1
56.004265 273.620210 -29.728575 1 1
-121.642600 129.635410 24.869146 13 1
-89.344505 312.546260 51.434650 14 1
-11.268388 306.669740 9.823111 0 0
-37.139961 293.867860 8.820269 0 0
37.632240 211.161320 -65.116119 31 1
-23.630997 373.697940 -10.322262 77 1
12.208325 205.789370 -21.724583 0 0
-99.491737 240.468460 27.158365 58 1
-15.675962 168.275160 -53.033466 40 1
-55.450996 108.014360 -92.188431 56 1
-37.505054 263.544800 -33.936630 57 1
17.559425 257.740690 -27.593775 17 1
-114.695240 205.421570 8.956297 63 1
-46.564644 205.403520 -63.316719 73 1
7.027497 138.012990 -17.883713 0 0
-96.985344 243.020770 -5.301030 59 1
9.199974 171.674820 -68.074501 39 1
-95.870216 226.017460 -11.541842 62 1
-86.181404 208.301790 -10.687317 63 1
-89.530426 221.052520 -32.145592 62 1
-11.695967 221.737400 -15.569674 72 1
-14.879354 74.153969 -54.377090 43 1
-78.912582 222.030260 -13.340885 62 1
-38.769009 91.166496 43.409855 5 1
-81.118088 214.809110 -45.016602 61 1
-19.273155 186.564880 -32.257935 74 1
-63.055679 288.093170 31.378332 55 1
-64.703888 112.697550 -61.354969 32 1
-44.203159 343.462310 -14.401937 16 1
24.131659 264.759550 -15.713555 17 1
-48.374752 227.269200 -77.495010 42 1
-10.811828 126.734240 -70.313683 35 1
-53.421429 205.750110 15.840045 0 0
-7.749627 88.703377 -19.931187 0 0
-107.237250 133.999910 14.329028 28 1
-37.106022 225.841220 19.090328 0 0
39.462105 185.781490 1.851909 75 1
-92.365768 145.869350 11.983329 27 1
-19.977114 321.323940 8.031280 0 0
3.380777 298.727910 35.988632 49 1
-14.875394 323.945430 82.401588 24 1
-76.906479 253.635910 -16.342243 59 1
-72.333817 242.773620 31.799662 66 1
-3.779972 107.392750 11.267238 0 0
-2.612853 367.996400 18.354639 2 1
6.189295 298.123810 58.392414 49 1
-57.471275 310.038060 17.045370 47 1
14.450200 369.432740 19.692488 2 1
-9.587246 205.766110 7.491549 0 0
-19.874905 155.746020 -14.037859 0 0
24.029076 95.603394 4.130524 0 0
-31.375568 334.237000 61.433926 22 1
-9.289292 331.267330 39.676830 52 1
5.902438 86.181656 -25.386808 0 0
-92.630104 279.441250 -17.886154 34 1
-72.165085 195.470350 -53.389748 0 0
-81.343781 194.139020 -44.325199 54 1
-95.196594 235.422130 41.466858 58 1
-14.786453 326.446960 66.401237 24 1
-53.187588 88.298058 32.457233 6 1
-31.904322 306.067380 108.771690 24 1
-10.972114 113.278660 -20.036654 0 0
35.830421 170.509160 41.561420 70 1
-10.800626 184.385210 10.913501 0 0
-33.210064 144.298690 18.272394 0 0
53.466335 251.065090 -8.363705 18 1
-5.009902 368.099370 -12.987597 76 1
-65.970421 251.022000 -20.954964 60 1
-29.545410 110.492120 -86.276268 33 1
25.876781 266.748410 6.258726 18 1
-135.124400 119.240720 15.295401 13 1
7.367401 164.575870 -14.031000 0 0
0.607550 96.801697 -21.174738 0 0
9.521972 184.022260 49.764988 70 1
-8.074254 94.446877 5.549703 0 0
-0.538883 117.244780 -96.386574 35 1
13.449505 233.301010 -52.862957 31 1
-55.370506 300.584260 10.980835 47 1
-28.825018 174.408940 -8.739533 0 0
-44.079437 300.668030 107.029910 24 1
67.755722 202.415500 -26.844357 7 1
-90.392303 140.434710 2.656112 27 1
-60.628681 288.452670 71.634254 48 1
-7.379437 157.506990 14.476628 0 0
-60.844036 110.815130 -75.404625 32 1
-35.140404 319.464450 86.213982 24 1
-3.685637 187.942060 -19.601160 0 0
-20.760853 211.624020 -24.360798 73 1
-17.731802 187.993870 -3.209100 0 0
-8.135962 341.763950 13.935262 50 1
9.064999 186.966370 18.154474 75 1
-65.027130 123.526950 -57.899673 32 1
-28.203133 186.506470 52.011497 69 1
-46.836964 312.742890 69.287102 24 1
-22.480434 163.657850 26.766020 0 0
46.959129 253.668290 15.912170 18 1
87.292351 277.712070 -56.191719 1 1
-58.499062 335.742160 -21.634016 16 1
-19.130466 209.237630 -41.083569 73 1
-114.665820 279.362980 6.824330 34 1
-14.071080 75.773453 7.113615 0 0
-76.981941 234.104640 -83.906693 37 1
-20.915588 301.993650 11.787273 0 0
-37.090946 115.816780 8.975123 0 0
-31.377342 113.737010 -9.039247 0 0
-8.561457 70.865578 -18.490631 0 0
4.839981 130.593990 -84.115494 35 1
-24.862717 313.233340 85.129379 24 1
66.031517 117.223180 29.683821 8 1
-24.752327 223.368300 3.040141 73 1
-19.658220 237.113080 25.792978 72 1
-13.550115 338.238220 24.566820 52 1
13.880392 192.153780 30.198744 70 1
-17.336637 221.344020 -28.442219 73 1
-57.028568 137.584560 9.903897 0 0
4.911986 223.543690 13.836939 72 1
-25.673655 170.231120 -43.217110 74 1
-99.607170 141.674960 -44.672840 11 1
-60.016174 289.116120 51.538067 48 1
-71.849960 103.451700 -78.498970 56 1
6.631853 134.216280 16.463451 0 0
-41.378742 206.144490 -47.308540 73 1
-113.294910 139.575210 -34.065361 11 1
59.666367 179.521410 29.361303 19 1
-88.250206 211.013660 30.194221 68 1
-112.037160 168.249560 -97.124779 45 1
-93.965218 210.704900 59.481335 36 1
-70.994499 273.433720 19.340857 55 1
63.302570 247.373670 5.927848 18 1
-5.100387 236.539460 21.380573 72 1
-68.651718 229.141740 -74.246399 42 1
-63.758205 216.467190 -51.508793 61 1
-98.480614 174.346080 -42.807217 54 1
-60.139866 337.280490 -1.351486 15 1
2.241786 358.582000 30.059950 2 1
74.427795 201.926210 -36.318787 7 1
-37.976974 216.814180 -15.625499 73 1
-29.569361 296.973690 44.758495 48 1
0.525932 166.616850 -53.913406 39 1
-17.506117 187.233900 59.878613 69 1
-38.311699 127.137060 11.410283 0 0
-8.240113 124.792370 6.843619 0 0
-109.178330 136.063100 2.762225 28 1
-48.580132 251.519040 5.480040 0 0
-28.230223 226.684460 -14.170568 73 1
-49.068272 88.091751 42.267143 6 1
-71.483917 283.838410 37.669655 55 1
-26.421343 80.181938 8.004221 0 0
11.709202 297.378390 24.680731 49 1
29.819771 183.532090 30.628468 70 1
5.276444 71.633202 -10.895120 0 0
-14.815062 221.387240 -45.828045 73 1
-64.965950 303.386410 32.612305 48 1
-38.291142 159.221690 -44.458050 74 1
6.696938 240.392400 -62.264568 17 1
-23.012335 71.233398 -29.495644 44 1
-44.592522 304.614170 11.371778 47 1
-73.464394 279.658260 59.110043 48 1
-56.362595 340.006440 18.622198 15 1
-50.790665 189.508120 -28.121103 74 1
-46.228558 299.559450 43.178116 48 1
-11.985983 173.765870 10.574585 0 0
-42.705276 174.855000 -38.799107 74 1
-56.588913 317.720400 33.224972 47 1
-51.097458 332.468840 1.366175 15 1
-13.181413 138.628710 10.988905 0 0
6.205423 182.551240 30.601727 70 1
9.469466 181.814150 8.381512 75 1
-62.235374 234.668810 36.354557 66 1
-31.465313 217.342590 -56.044434 73 1
-69.883881 317.508360 50.800865 14 1
-45.096226 270.963320 -9.824197 57 1
-47.711430 89.096321 62.372509 4 1
6.982169 191.238160 69.619942 21 1
-69.936417 266.272670 -20.606556 57 1
-59.316109 222.944140 51.003838 66 1
-12.709495 179.420320 33.263756 70 1
-46.053104 222.393310 0.101778 0 0
-87.635048 212.187730 -37.303822 61 1
-76.492462 240.173020 12.458192 65 1
42.025059 108.926450 -20.843071 9 1
-37.405640 147.450820 8.903273 0 0
-13.081505 283.642550 17.750662 0 0
-13.889808 224.254810 1.710646 72 1
-28.464581 49.707447 4.871006 0 0
61.871315 175.865400 71.023628 10 1
-55.916241 303.678620 26.029825 48 1
-5.386200 78.165436 -1.446779 0 0
-1.931237 156.790020 -6.995662 0 0
-77.815880 320.921600 38.028309 14 1
53.905655 193.524000 -15.817721 29 1
4.283271 300.823390 9.919635 0 0
-109.021140 275.610750 -24.192335 34 1
2.296878 67.603592 3.680604 0 0
90.487434 189.046200 -41.978970 7 1
6.809971 120.123900 -10.732031 0 0
70.560028 183.128680 17.650961 19 1
-51.512955 124.390470 -73.033882 33 1
-45.472298 187.934830 21.923342 0 0
-34.772129 277.173740 -19.829138 57 1
49.948250 274.750340 -53.587921 1 1
67.807213 173.769330 44.800163 19 1
-25.994211 319.006930 93.608177 24 1
-52.676071 156.790080 -48.135368 25 1
-103.389650 220.872480 -17.130163 62 1
-98.391579 130.304640 33.532131 26 1
-21.197315 90.492607 1.544824 0 0
53.565548 107.992390 41.873844 8 1
-60.745419 249.789930 16.095253 64 1
-70.147652 227.332780 34.537346 66 1
-58.779739 238.807220 -67.558548 42 1
44.956913 122.916480 2.716851 9 1
-64.832306 204.662400 56.047600 68 1
14.133783 133.104610 -11.105423 0 0
-58.742573 325.730320 44.924198 14 1
-3.491623 192.285660 18.520365 75 1
-89.263565 267.221890 16.543598 55 1
-5.490872 162.453350 -102.860880 38 1
40.985607 182.048750 23.980177 70 1
-18.256540 161.567380 -1.338399 0 0
-32.559891 163.651200 -68.568466 40 1
1.519841 234.763430 -36.671444 31 1
-30.698549 320.242430 48.312794 24 1
-35.600788 363.349400 -18.951817 77 1
-97.569237 336.003420 -21.292604 67 1
-59.118908 192.132280 -87.151016 53 1
-69.988892 241.318130 -60.363380 61 1
4.184674 360.436650 -29.852396 76 1
-26.457970 68.829803 -52.305916 43 1
-19.722240 310.404880 27.596716 0 0
-15.408740 118.042580 -31.081148 0 0
81.734238 120.319720 17.036850 23 1
-53.925922 357.093600 -7.622432 77 1
-35.221657 364.043090 16.214117 3 1
-36.250084 208.182630 14.390794 0 0
-88.265663 181.133680 -31.418774 54 1
-94.814217 137.410320 26.775133 26 1
44.167664 194.932720 -18.198671 29 1
-50.531700 354.731630 -61.469067 12 1
-76.827705 288.044650 3.809189 47 1
-73.643097 239.504680 -92.142311 37 1
14.384414 292.114470 44.344494 49 1
-11.152367 356.776760 -33.684769 76 1
-19.220789 98.133720 -9.741419 0 0
-35.247852 323.818540 66.571335 24 1
-121.462950 271.346980 -9.169424 34 1
-40.036728 343.150730 -25.917814 16 1
-109.931860 120.054990 -4.979440 28 1
-65.174416 293.383180 10.501574 47 1
-14.758791 184.090390 83.078079 21 1
-13.294171 364.359500 -24.805986 76 1
41.240700 255.948070 -7.154798 18 1
-14.165439 186.223980 50.460033 69 1
-39.983006 321.661290 20.329514 47 1
-13.717852 174.145950 -65.124199 40 1
21.494204 217.640790 -69.927155 31 1
-12.989559 126.527950 -24.760489 0 0
-96.565765 262.749050 26.447887 55 1
-63.414116 93.923729 -88.241188 56 1
57.802490 113.451150 -14.926907 9 1
-10.596318 168.025210 -89.965576 38 1
89.857597 119.729660 3.566190 23 1
-65.913910 264.172580 11.275450 0 0
-51.732975 78.544296 69.852592 4 1
22.285892 227.351410 -10.969589 0 0
-108.473940 196.628370 21.333868 63 1
3.298402 125.699320 -56.098820 0 0
23.747322 194.565860 -3.731905 75 1
57.650452 201.335330 -30.438805 29 1
-65.828751 225.746870 24.885252 0 0
0.353479 172.337800 -79.378960 38 1
-20.833946 298.279110 30.585566 0 0
-48.753151 349.571990 23.912846 15 1
69.247749 182.071040 28.301451 19 1
-78.711487 108.848440 -56.977032 32 1
-68.614662 197.737790 2.214320 0 0
87.699654 197.175350 -28.486511 7 1
65.996696 201.189770 -46.237679 7 1
-23.380718 214.748960 -1.970505 73 1
-5.531805 135.127520 -69.620201 35 1
-42.738304 216.495790 7.559219 0 0
-68.066856 239.371230 -71.604195 61 1
-105.742820 178.614400 -92.053375 45 1
-19.769060 185.817920 -21.379871 74 1
-30.294149 96.346962 9.516385 0 0
-4.236385 185.811400 44.938908 70 1
-14.302016 70.182663 -5.949208 0 0
-99.360641 226.237750 41.404102 58 1
-46.483246 142.082870 19.274530 0 0
-57.905430 244.802610 6.034363 64 1
3.366392 222.501250 -8.713875 0 0
-51.210796 280.903140 13.349635 57 1
-92.763931 187.064580 -84.684166 45 1
26.729733 255.569090 -35.395710 17 1
-67.298889 150.574650 -24.437084 25 1
-12.618065 249.320040 11.115924 72 1
8.703059 101.321870 -17.400675 0 0
-107.122060 178.963380 -80.512962 45 1
-47.455257 141.388850 7.306561 0 0
-27.024921 223.966600 -30.290970 73 1
-80.214760 244.356220 0.164978 60 1
49.860233 180.462230 41.136627 19 1
-56.085960 186.370670 -45.553688 0 0
-108.075070 208.704830 15.613390 63 1
-20.574841 299.188810 56.136124 49 1
-0.515197 237.830460 5.024992 72 1
-53.649326 366.842220 -3.585438 77 1
-97.585663 251.095490 -10.914479 59 1
4.511055 178.135360 43.595303 70 1
-19.402582 368.800290 -2.897195 77 1
-31.774857 216.797070 16.464952 0 0
-31.905237 138.889020 5.703510 0 0
-88.586647 247.930530 -7.576072 59 1
46.300407 168.023640 68.472977 20 1
-16.832182 172.039140 -20.398020 74 1
-3.694714 171.643520 -27.851637 0 0
-99.487495 215.515990 -26.258375 62 1
3.050534 265.651760 -17.641781 17 1
-96.213242 190.498340 -73.839127 45 1
13.867249 205.161180 -6.153004 0 0
-84.914978 317.957430 64.034348 14 1
-17.009979 252.222840 24.214737 0 0
-77.178131 227.828640 45.854862 66 1
-32.943863 282.329250 -10.925755 57 1
-47.300961 168.881880 -32.514389 74 1
-45.185810 313.808900 96.395836 24 1
19.383512 184.841690 3.481066 75 1
-32.249859 224.058620 -42.964973 73 1
-34.176327 374.478390 -27.656979 77 1
-7.078277 263.135930 13.022888 0 0
-7.583357 307.254490 55.222778 49 1
-18.117643 130.102600 0.735550 0 0
-45.563938 309.152950 19.993237 47 1
28.647018 175.534760 47.710991 70 1
-84.039116 151.121960 12.589483 27 1
-82.599419 340.603490 -19.417021 67 1
3.109683 174.924960 10.958540 0 0
-8.622052 178.695760 88.950691 21 1
-51.535984 212.190540 -2.989715 0 0
-68.782410 327.813390 61.612820 14 1
78.746185 182.106250 86.746140 10 1
-69.448082 225.158490 15.516520 0 0
-65.594292 336.839510 6.665891 15 1
-38.707703 175.956420 -20.626841 74 1
-46.600140 348.596280 6.832193 15 1
-41.489948 319.667850 10.089992 47 1
38.228626 108.057080 3.421094 0 0
78.374237 274.370820 -50.631355 1 1
-109.037700 139.822680 -43.486053 11 1
-106.149020 125.243940 36.354065 26 1
-59.385231 269.615260 4.466772 57 1
-88.705078 220.005950 -14.030836 62 1
-53.360058 339.860750 36.852783 15 1
-22.341322 198.309020 -29.213123 74 1
-38.032337 360.175020 -7.268123 77 1
56.966438 253.086900 1.394734 18 1
-5.982165 34.123161 -6.005120 0 0
-86.929092 190.935330 -63.160500 54 1
-70.918030 329.750270 21.948112 15 1
37.404274 203.014480 -10.661141 71 1
6.025272 151.746440 -4.528652 0 0
-110.997920 216.586980 33.840260 58 1
-48.775059 217.735260 -56.495705 73 1
-4.334581 116.961430 12.305285 0 0
-41.980583 293.402100 50.426712 48 1
-76.426567 230.208360 -64.179596 61 1
-2.983770 56.299412 -16.403284 0 0
-76.940910 272.135990 1.690422 55 1
-8.438556 223.779790 17.868670 72 1
-19.430758 128.023790 -61.823036 35 1
-79.811180 144.264890 -22.759583 27 1
61.477512 247.892440 19.955166 18 1
-123.585620 267.053470 -20.861000 34 1
1.790756 159.997910 -110.172300 38 1
-36.430172 184.627170 46.857635 69 1
0.199312 151.774630 13.809681 0 0
-79.575325 237.285130 34.654797 66 1
28.746881 264.780580 -5.258355 18 1
22.744627 125.037280 -82.203018 35 1
-90.155334 218.520400 63.571102 36 1
86.953842 187.376450 85.229034 10 1
-10.224884 112.187520 21.270670 0 0
-60.030697 319.998350 -33.502167 16 1
-26.600441 347.001190 52.835560 22 1
-17.170000 240.198930 5.788267 72 1
8.995017 223.966540 23.389225 72 1
-41.363571 118.721680 -80.104034 33 1
-94.728844 268.023770 45.849865 55 1
-1.533458 194.398850 33.849918 70 1
-7.045747 155.410250 -14.855547 0 0
-62.500195 300.456270 4.737473 47 1
-68.143974 195.464200 -69.900162 53 1
-17.959045 179.896180 6.508820 0 0
-19.736486 138.482790 -6.567384 0 0
-75.893288 248.857420 16.169678 64 1
5.747756 372.816100 18.179451 2 1
-103.123780 280.824650 -6.747556 34 1
-16.695454 42.925861 -0.165875 0 0
-99.376450 180.495440 -104.038670 45 1
-24.512045 288.033480 6.937852 0 0
-4.063567 216.629150 -11.680082 72 1
-41.106514 197.021700 -31.670368 74 1
-15.898404 198.215730 4.750923 0 0
-7.803643 292.523040 17.460850 0 0
0.765088 83.405251 10.964094 0 0
39.337708 224.378160 -48.191288 31 1
-63.797619 279.434720 21.392143 55 1
68.234947 280.066770 -58.381512 1 1
-63.315063 325.497310 35.367096 14 1
21.913490 188.607410 26.887806 70 1
-52.962212 320.384340 50.377430 24 1
-70.211227 232.743160 -41.975063 61 1
34.641617 168.418320 79.308792 20 1
-9.490456 78.258003 -35.260998 46 1
-81.148567 234.984710 -100.059960 37 1
59.395863 170.839460 57.947727 20 1
15.403544 176.252330 73.562889 20 1
7.894757 80.878494 -12.174281 0 0
-44.574097 345.460240 -5.279856 15 1
27.921202 220.336840 -7.412713 71 1
-55.350010 297.652560 43.803280 48 1
-15.088019 215.051130 2.693646 0 0
-97.672173 146.916320 -28.168283 11 1
-8.728846 195.725200 61.440758 21 1
-82.465881 208.927290 -2.154972 63 1
-95.837288 243.452010 3.944046 59 1
-80.965775 225.104660 -27.770241 62 1
-12.534907 347.911070 19.380066 51 1
-38.775486 303.866490 39.519436 48 1
-23.093283 332.620030 29.235027 51 1
-51.384037 225.768740 -38.931744 73 1
-13.035710 298.491120 37.257053 49 1
85.005913 185.857740 72.448685 10 1
17.340881 191.317860 -14.704189 75 1
32.183788 260.493320 11.259272 18 1
30.163126 195.117580 4.534670 75 1
-25.190664 157.916490 -68.776482 40 1
-9.345524 147.663480 4.728295 0 0
58.142178 194.606280 -24.003803 29 1
27.409180 236.294010 -38.712738 31 1
-44.672192 215.218890 -47.041348 73 1
-27.107426 335.759800 17.506929 51 1
-48.468193 216.510250 -91.608284 42 1
-72.010574 245.686020 -35.228695 60 1
-70.644669 295.123050 20.015585 47 1
-64.020592 142.181580 -64.763031 25 1
22.401983 188.225130 13.904603 75 1
-4.677519 218.798280 4.068591 72 1
-83.358429 224.681230 -57.463566 61 1
9.476936 92.283821 -19.260298 0 0
98.099823 113.141220 19.020044 23 1
-102.140560 138.973880 -60.788013 11 1
-21.131353 271.670290 26.043772 0 0
-19.426723 97.075363 43.951668 5 1
-26.684359 366.693180 -15.711667 77 1
6.886806 179.197690 95.923576 21 1
-30.844486 324.184600 75.360847 24 1
-105.514430 239.425860 -6.019126 59 1
17.635254 249.897960 -49.555107 17 1
-11.786675 163.982010 9.610524 0 0
-29.071081 318.219020 22.293407 47 1
-37.218616 219.580720 -29.718010 73 1
-45.630123 179.707840 56.819984 69 1
-32.659431 371.727720 -60.845562 12 1
-13.005847 156.334950 -23.252720 0 0
4.604984 217.298320 -25.277254 0 0
-105.345310 220.109130 2.085180 63 1
61.871666 272.518520 -22.454025 1 1
2.948953 262.991520 -31.414875 17 1
-122.471460 218.325440 -30.602871 41 1
-27.776785 191.800580 39.892208 69 1
18.036327 151.410320 -19.103207 0 0
77.373009 172.534130 36.393265 19 1
-37.398705 205.670810 -62.841755 73 1
-49.048515 163.196260 21.213913 0 0
-17.060440 265.516720 12.451954 0 0
13.124781 219.881240 -16.353207 0 0
-81.958366 198.235000 -56.352413 54 1
-75.184662 222.144100 -47.999874 61 1
-40.567741 318.069640 38.289577 47 1
-49.341084 109.912150 -84.592758 33 1
-21.075359 324.469480 75.335342 24 1
-29.247442 148.164060 -20.987442 0 0
-83.852890 318.927430 55.012863 14 1
-85.318161 226.439210 -7.755608 62 1
-53.262993 273.508610 -19.209602 57 1
-58.026443 286.025600 63.068588 48 1
33.538013 170.258480 55.023685 20 1
-3.907372 172.285200 -61.193920 39 1
59.601879 117.879490 2.051154 8 1
-44.427601 361.977750 -59.273602 12 1
61.203522 104.127460 -27.756594 9 1
-45.787781 266.957520 -32.234432 57 1
-47.183414 368.729920 -52.082169 12 1
37.106232 179.538760 -54.142681 30 1
37.420422 263.953700 18.940386 18 1
0.447510 235.699160 -3.780618 72 1
-75.588387 191.207890 -80.654541 53 1
2.140485 161.894290 5.940796 0 0
-96.711800 206.951540 -42.444088 61 1
-101.082680 215.187500 13.727444 63 1
-75.508667 230.523070 -92.211815 37 1
-23.011061 219.437940 -19.139309 73 1
50.641106 257.917660 8.639168 18 1
17.111143 155.501430 86.999741 20 1
-57.413506 193.315730 20.460157 0 0
-52.092598 185.499740 15.901566 0 0
-81.438652 142.565900 -40.035000 25 1
-20.332628 126.723400 -70.860809 35 1
44.608307 203.356670 -28.544012 29 1
-4.133741 304.753450 15.073463 0 0
-49.858475 298.518890 64.909668 48 1
45.495110 115.391890 28.377630 8 1
-116.533870 266.932160 -26.538460 34 1
-90.035065 180.947390 -90.752663 45 1
-92.546837 200.095180 67.280228 36 1
-130.612950 203.691350 -25.082935 41 1
-48.601738 216.346940 -17.661386 0 0
-53.132946 334.840970 -30.345446 16 1
40.230293 262.050630 0.267021 18 1
-46.472580 319.554660 2.542748 47 1
-13.457242 362.472380 25.347563 2 1
59.724609 190.529820 -9.434216 29 1
-20.990265 282.850100 13.498280 0 0
-18.481525 336.658140 -0.670772 0 0
33.671642 245.368820 -40.669746 17 1
-40.817604 221.337100 -89.156235 42 1
-50.702778 253.712660 17.936167 0 0
-91.764526 184.482040 -52.042843 54 1
-13.351827 65.069489 11.945479 0 0
-118.379470 128.872680 9.465371 13 1
36.777802 257.810550 -21.725018 17 1
-62.798393 209.032700 30.050051 0 0
-56.054008 132.860570 -11.162287 0 0
-8.700316 202.474640 -11.840325 0 0
-11.041306 126.814220 -84.847069 35 1
61.098118 120.201850 15.485898 8 1
-79.313179 218.195970 40.591297 68 1
-49.525227 358.051940 -16.899267 77 1
-40.975983 231.415150 -74.638741 42 1
-110.229830 226.460420 33.914803 58 1
-11.548956 98.158890 -2.032838 0 0
-22.283571 99.705910 -0.074274 0 0
-82.676285 257.711550 -10.575320 59 1
-82.933830 243.598160 29.136238 65 1
-15.015989 319.598910 20.015375 0 0
-84.797897 238.203050 16.748674 65 1
-28.532825 150.909480 -61.413303 40 1
-52.176922 259.967680 -23.598433 57 1
1.090501 195.972080 1.819443 0 0
-11.777130 343.934360 34.925999 52 1
4.114871 363.961060 22.611677 2 1
-23.396090 164.592640 -55.580791 40 1
-25.182587 365.554600 13.674416 3 1
-16.913353 371.641940 -28.549891 76 1
-22.461180 127.042540 -17.930088 0 0
-90.662903 345.087620 -7.795712 67 1
18.719267 355.582460 22.257774 2 1
-61.104172 265.386200 -21.145708 57 1
-35.541603 377.877140 -36.294136 12 1
-61.209347 253.440460 7.964846 64 1
-60.744385 253.211270 -8.856817 64 1
-30.745525 135.796390 17.507141 0 0
58.181782 273.289280 -49.611824 1 1
-8.292579 19.407150 -5.218625 0 0
-7.931350 352.218540 25.727821 51 1
-15.137239 172.294420 -0.661906 0 0
46.414680 187.485700 36.526882 19 1
-86.978912 218.365370 -52.390430 61 1
-47.408710 183.944530 -21.907101 74 1
19.647900 293.412140 20.919804 49 1
-36.930500 315.650150 55.285004 24 1
-13.112913 304.890050 29.725706 49 1
-104.128240 132.054630 -3.397444 28 1
-31.549950 183.684940 -5.041110 0 0
-6.685546 324.627010 34.293991 52 1
-37.801239 302.040070 58.839638 48 1
-84.923523 220.869980 -39.790123 61 1
28.860287 208.001390 -5.956372 71 1
-89.569023 140.878590 -21.101137 27 1
-87.852852 221.343600 46.348923 68 1
-94.391632 235.106110 32.211346 58 1
-18.373516 233.451100 -6.198796 72 1
-26.735643 295.335140 12.152269 0 0
-137.259340 113.327730 21.521973 13 1
-111.982740 131.591000 -54.028782 11 1
-48.612240 306.847320 102.612340 24 1
-40.369373 159.114850 11.141734 0 0
-35.518925 98.740379 40.225460 5 1
-73.648582 214.784440 56.240910 68 1
-63.735680 226.220810 40.539886 66 1
-72.663834 102.039050 -68.298210 32 1
85.808929 175.157700 24.925375 19 1
-21.085112 180.325390 36.028915 0 0
-96.235359 277.852600 2.308146 34 1
-75.361198 197.472150 54.483620 68 1
-34.026505 313.279110 100.808280 24 1
-27.098484 210.356630 -18.374016 0 0
-98.477089 277.465330 -24.164330 34 1
60.312553 175.768040 40.638344 19 1
-24.610685 41.533005 3.423451 0 0
-21.897102 301.271640 44.446041 49 1
-51.492676 276.978910 -3.479485 57 1
-104.525550 222.725400 -26.224184 62 1
-70.450508 273.473600 70.138512 48 1
8.134106 178.228230 -27.896797 0 0
-7.482551 159.709990 -51.555607 0 0
-24.633099 167.409760 -68.769737 40 1
-86.368103 238.116900 -0.290627 65 1
-89.073029 222.201190 2.084105 63 1
-13.182683 186.835020 24.221188 0 0
-24.493793 69.986092 -38.100456 44 1
-31.658339 193.475460 47.971630 69 1
-68.328133 281.544620 66.130806 48 1
-13.007241 74.286064 -42.456333 46 1
-9.732498 8.058427 -0.314524 0 0
-19.835245 285.228790 39.242706 0 0
-38.581711 365.873780 -65.712563 12 1
-53.766113 115.888500 -71.966743 33 1
15.889666 354.704530 32.804226 2 1
-50.261406 219.512340 -30.209946 73 1
43.482929 207.736360 -36.065647 30 1
-24.341854 372.040250 7.114444 3 1
-52.218407 341.842130 -0.136989 15 1
0.177404 189.864040 75.856247 21 1
3.505779 189.586590 46.388729 70 1
-39.976452 191.226470 -44.986649 74 1
-22.292238 62.008587 0.830609 0 0
20.508856 164.568450 -26.135881 0 0
65.909233 116.732380 8.465629 23 1
-57.119102 261.214230 -30.942417 57 1
-10.716870 108.983150 6.212861 0 0
8.118024 126.912900 -76.602516 35 1
3.818756 256.273830 -41.701500 17 1
-7.227398 66.669197 -29.994181 0 0
-39.966198 222.959470 -6.562796 73 1
19.086594 234.058140 -36.631115 31 1
-29.710854 208.623440 -46.791260 73 1
-42.148159 197.904280 13.563386 0 0
-10.126454 369.827760 14.139197 3 1
-42.150341 183.170900 -41.335152 74 1
-29.291725 310.187410 65.722603 24 1
50.560326 266.024260 -27.246334 1 1
-13.614868 77.841553 15.683522 0 0
-61.713161 344.366580 -10.711123 77 1
16.674385 265.450650 -20.429731 17 1
50.356777 170.236600 52.341919 19 1
-13.967351 89.094772 9.342315 0 0
-90.587776 186.185900 70.766495 36 1
-23.589426 280.383150 30.537746 0 0
-50.253323 189.549840 -88.406082 53 1
-74.615219 136.919430 -64.825912 25 1
-32.994404 63.833271 8.191907 0 0
-69.758018 146.867610 -52.798809 25 1
-1.402823 228.987580 18.421297 72 1
82.368561 178.474990 16.533909 19 1
-62.074604 280.752660 52.539265 48 1
-36.473118 370.960880 -51.954391 12 1
-32.886162 199.609280 40.531025 69 1
-8.825185 188.503170 -0.888422 0 0
24.550400 182.173450 60.158592 20 1
90.900536 191.487080 92.107468 10 1
-3.725209 211.408430 12.854325 0 0
-85.357117 280.246700 -9.329342 34 1
-24.469946 118.616580 -74.530762 35 1
-21.043968 315.906070 68.282928 24 1
48.760071 270.749150 -38.230927 1 1
-12.183414 265.309660 19.648746 0 0
-16.493845 224.422790 -36.483181 73 1
6.416058 232.382490 -58.063686 31 1
2.854565 64.402382 -4.325140 0 0
27.327204 343.611390 30.463179 2 1
-27.032625 218.074050 -46.867294 73 1
-19.568989 162.752550 -21.554556 0 0
-15.160633 350.713530 48.483654 22 1
21.601757 171.870960 44.023750 70 1
-67.516014 301.928680 24.282459 47 1
-47.127640 310.638000 1.455040 47 1
-4.590587 168.002940 -96.231918 38 1
32.949562 194.530880 -49.163437 30 1
-14.030710 298.376680 7.627630 0 0
3.307440 81.353592 -3.950184 0 0
31.926519 251.165700 -14.870924 18 1
8.533310 232.310320 -15.019106 72 1
-36.066071 313.248540 73.007637 24 1
-91.610062 210.696530 41.302586 68 1
96.914513 116.295520 7.086889 23 1
-20.537066 345.502500 21.404585 51 1
4.983561 134.523710 -65.216583 35 1
-0.128582 186.164550 90.166794 21 1
-101.336460 143.432970 -0.060217 27 1
28.676790 176.141630 70.308327 20 1
-19.859175 332.479640 21.251825 51 1
-36.443714 297.820470 32.124554 48 1
-31.538643 218.462160 -36.538620 73 1
57.440174 169.933490 66.221390 10 1
-24.539856 145.386380 21.807539 0 0
-45.232208 113.492730 -50.909664 0 0
-52.734688 324.493960 -33.325157 16 1
83.625710 280.984650 -49.217041 1 1
-72.436653 152.042720 -31.086544 25 1
-39.640110 370.819460 -7.920362 77 1
-56.156654 147.949170 -59.578983 25 1
-19.611324 365.921330 -10.921556 77 1
-69.503387 251.020070 -7.325649 60 1
-87.484947 277.114750 -0.699996 34 1
-0.362162 238.008360 14.453528 72 1
23.564465 257.688260 -7.524150 18 1
-60.302429 244.250820 22.548512 65 1
-5.932337 300.066310 21.947935 0 0
-92.366356 268.344640 33.388462 55 1
-96.858002 176.780230 -93.780411 45 1
-6.331702 179.619670 -21.753672 74 1
-1.815799 229.419360 -20.586704 72 1
71.324097 179.629990 67.171944 10 1
-36.658752 300.890750 113.581020 24 1
-15.094961 141.759810 -21.671480 0 0
-61.950500 296.584320 55.096912 48 1
17.343262 164.005920 -68.224182 39 1
52.470398 182.485060 33.310493 19 1
-10.082369 192.387790 45.491276 70 1
-73.079391 112.207610 -62.592667 32 1
-7.611270 296.800810 64.257607 49 1
-14.769644 233.484180 18.860310 72 1
58.464451 187.861940 30.292044 19 1
-1.289690 75.116341 10.289577 0 0
-7.024290 258.185880 -31.196358 17 1
9.111142 257.083310 -29.938515 17 1
-24.102108 197.641650 -12.545104 0 0
39.800522 116.169240 -13.302901 9 1
-17.328732 319.803100 61.382980 24 1
-63.864834 296.235660 37.298035 48 1
-82.957634 218.974410 31.952801 68 1
-44.110859 170.497390 -24.181694 74 1
-42.789074 170.161610 17.704941 0 0
-4.960851 108.742790 -23.879189 0 0
-77.100571 348.293670 -16.304546 67 1
-11.067113 49.930538 -0.477566 0 0
-6.628768 81.526306 7.296274 0 0
-15.028934 316.033910 3.644582 0 0
-101.971920 211.989720 57.138546 36 1
-66.268028 289.521580 41.907902 48 1
-14.583279 304.617190 59.118904 49 1
-71.491226 322.657710 67.712166 14 1
-22.724054 137.059830 1.924838 0 0
-0.030985 104.254080 -16.590178 0 0
9.868411 145.538670 -15.385242 0 0
-31.237095 226.908910 7.084100 73 1
-43.071640 376.228420 -50.469879 12 1
-19.944752 315.793270 78.794098 24 1
-5.711436 62.716637 -1.285360 0 0
-5.500500 126.549130 -30.102016 0 0
-12.549210 199.979170 12.846153 0 0
-69.274139 235.143420 13.216525 65 1
-40.074699 218.686980 -53.169651 73 1
16.204498 130.516940 -71.589973 35 1
-61.509781 215.677670 47.072723 66 1
-27.615170 304.633300 6.288677 0 0
-19.775528 315.567050 109.299700 24 1
-89.528481 244.804980 14.600008 58 1
17.172009 190.618240 40.446758 70 1
11.619347 294.858980 52.802216 49 1
50.407532 188.833910 -5.396960 29 1
-0.322425 249.902600 -48.548286 17 1
-102.205490 138.163060 19.598614 27 1
-23.565685 178.649190 -18.025723 74 1
-49.741589 340.790560 12.911566 15 1
-25.819965 209.809160 9.485280 0 0
-54.878109 345.364230 -16.251558 77 1
-88.815155 228.236020 -15.863628 62 1
88.141273 116.078740 20.481758 23 1
-85.595543 255.018620 -3.178063 59 1
-10.694991 132.957670 5.277354 0 0
74.431656 278.004550 -34.624489 1 1
-57.371941 147.389850 -49.339325 25 1
-58.700771 113.092030 -86.085686 56 1
-49.427547 273.349520 4.177296 57 1
-33.683388 176.302410 -43.890373 74 1
-30.437057 175.519300 -22.066360 74 1
-99.711189 184.927490 -80.482803 45 1
-23.552843 233.152470 19.494473 72 1
39.161808 184.797090 33.345989 70 1
-6.501245 79.039688 -17.124762 0 0
-90.640831 339.136900 -16.879528 67 1
53.897892 124.213070 16.888109 8 1
-60.028965 345.684840 -1.160089 15 1
-19.809656 125.481960 19.670332 0 0
-2.485868 342.993840 19.970657 50 1
-34.366234 131.548130 -10.940706 0 0
17.551126 226.167590 -66.927345 31 1
-87.240616 144.730330 -9.227403 27 1
-46.436394 357.144440 -2.859713 77 1
-130.854160 120.195270 7.882243 13 1
-2.076188 23.733421 -1.710490 0 0
-49.121452 173.008680 -44.021812 74 1
-26.854464 227.802310 -5.380303 73 1
-58.950928 135.636920 -68.562637 25 1
-37.843769 96.635902 57.692158 5 1
46.338924 119.784030 -8.768372 9 1
-125.141650 219.371400 -15.479694 41 1
-69.220718 87.238312 -85.748390 56 1
-79.964134 270.459500 27.029751 55 1
9.620005 175.839320 51.350208 70 1
-31.433928 374.301670 -7.470324 77 1
58.520458 200.168320 -17.814915 29 1
-30.618700 302.639500 68.985558 48 1
-15.498311 321.930820 90.478073 24 1
-13.771593 77.438835 -1.048215 0 0
74.013374 172.893680 28.781265 19 1
-13.954480 83.343521 -18.434738 0 0
-30.420197 298.472110 52.899841 48 1
-67.954361 213.291030 36.100155 68 1
31.375160 157.777450 89.320984 20 1
-84.862160 350.274080 -4.927148 67 1
-15.239858 207.654940 -9.702718 0 0
-30.303772 299.671260 26.846901 0 0
-3.425761 224.560240 -14.073373 72 1
42.630554 181.484590 50.943996 19 1
-3.956215 74.941704 -24.039965 0 0
-78.708382 129.627040 10.095084 0 0
70.603371 206.732910 -42.031567 7 1
-5.453889 46.520935 -7.587951 0 0
-126.513690 129.211720 -30.234474 11 1
-43.877296 380.133640 -42.893326 12 1
-2.244463 64.508186 -18.224766 0 0
17.641579 188.304870 -4.284832 75 1
21.133539 287.551850 45.709538 49 1
-91.662689 201.304530 28.828180 68 1
-68.989365 200.060260 -60.805790 53 1
12.015825 197.329620 0.763495 0 0
-18.256168 272.784060 8.723738 0 0
-51.464828 118.147160 -64.375916 33 1
-112.253910 226.930890 -9.022567 59 1
42.292278 255.519470 5.270432 18 1
41.077908 189.946990 -51.853127 30 1
-83.290565 213.967880 63.615017 36 1
1.671344 227.124850 3.340923 72 1
28.196070 185.313130 8.635030 75 1
8.147198 84.768059 2.552300 0 0
-21.708260 195.974140 51.448349 69 1
-96.675415 147.058290 -37.174229 11 1
-77.746796 195.014790 -71.693687 53 1
-17.738525 90.987511 -5.903847 0 0
-60.785297 335.786900 -9.536747 16 1
39.296494 188.391280 -22.981277 0 0
-1.872633 334.328460 37.635433 52 1
-85.113899 186.556760 -79.625885 45 1
12.493754 255.356490 -44.197594 17 1
-81.188812 267.466250 18.568951 55 1
-15.360050 160.415570 -8.928991 0 0
5.176520 198.718170 -14.741561 75 1
-27.904373 320.633300 56.035358 24 1
-115.340750 136.769610 8.129539 13 1
-44.546753 243.091740 17.166790 0 0
74.624939 175.890590 82.956421 10 1
-108.602560 274.400180 -14.017986 34 1
17.690556 215.881030 -6.967012 0 0
8.321103 212.508650 -0.081083 0 0
-44.590553 214.479340 -10.646067 0 0
28.798805 288.250490 34.045521 49 1
-67.873405 273.606410 -9.836454 57 1
3.806674 297.451110 27.248331 49 1
-14.448643 125.943040 -16.716076 0 0
-48.763073 363.610630 12.559932 3 1
6.885788 248.304090 -53.375381 17 1
71.471680 275.185120 -26.130957 1 1
-72.280487 233.852840 21.183859 65 1
38.549671 123.410130 18.933601 8 1
-66.646683 195.136080 -81.444511 53 1
-5.299900 374.095920 23.052511 3 1
-0.650742 55.751595 -8.099283 0 0
-57.089382 336.249240 30.512270 15 1
-15.738961 163.352740 -62.245899 40 1
50.098831 192.990160 -23.703384 29 1
-42.160526 312.164280 13.237333 47 1
-21.489611 366.065920 23.048563 3 1
13.292744 193.295140 12.752455 75 1
-89.933327 218.212170 12.618045 63 1
-107.532760 126.274380 28.345293 26 1
16.728828 170.526110 79.727760 20 1
-7.328805 172.690290 -3.867519 0 0
-84.791451 187.234280 -41.567863 54 1
-16.314816 198.463240 -17.143656 0 0
-12.688545 297.615360 55.007988 49 1
-44.065220 285.296020 -0.751020 57 1
-48.164612 104.462230 6.982826 0 0
-15.686711 121.722820 8.871437 0 0
-76.365204 322.279720 51.714138 14 1
-38.807125 219.861160 13.879896 0 0
-53.853752 310.246220 30.280918 47 1
-25.793274 187.146450 -15.812451 0 0
-5.108778 170.865880 4.124807 0 0
-17.547861 188.047240 13.456943 0 0
-19.599676 324.511410 50.528954 24 1
-63.334648 328.738770 -22.539822 16 1
-81.247078 242.569550 -28.684704 60 1
76.035820 119.057330 0.556396 23 1
-73.282173 237.135940 -77.341965 37 1
-66.197975 99.278992 -82.458160 56 1
-98.171417 139.190810 -6.994805 27 1
-110.112700 213.982030 -0.090354 63 1
51.457935 98.701080 -28.667669 9 1
-12.378230 163.785710 -106.824590 38 1
-65.258980 240.997600 -36.330650 60 1
-124.878080 107.918820 -50.603943 11 1
20.326880 290.109280 31.917374 49 1
6.859138 103.748000 -33.521568 0 0
-11.492591 221.803070 -5.908687 72 1
15.981810 232.253940 -0.678621 0 0
-43.767117 222.288730 -14.539814 73 1
12.312142 174.315750 -58.348293 39 1
-0.812220 165.837220 -1.123443 0 0
-11.604280 130.446410 -9.901758 0 0
-88.700249 138.164370 12.809365 27 1
-37.377380 93.090561 6.649849 0 0
-23.390491 296.661870 38.045845 49 1
-16.712570 195.665310 60.202362 69 1
-22.841707 304.380860 62.469944 48 1
-8.923853 85.552895 -12.591319 0 0
-31.962112 203.278530 -13.190368 0 0
36.025398 178.277890 39.406078 70 1
-59.765633 89.781708 -95.350281 56 1
11.854357 230.142200 19.152840 72 1
-61.231346 186.509430 -92.550209 53 1
-59.730080 229.891780 -60.338066 61 1
-79.191917 146.851930 -14.281613 27 1
22.197168 258.758120 -21.139828 17 1
-19.562456 187.502700 -40.200813 74 1
-26.392675 375.697200 -17.596712 77 1
-1.213384 299.915770 49.395897 49 1
-32.847496 184.084580 58.373341 69 1
27.896727 188.978900 -8.529630 75 1
17.437416 176.601810 49.017017 70 1
-99.180817 195.203830 66.783173 36 1
-32.842754 371.462800 14.376524 3 1
-52.891262 311.102630 86.529739 24 1
-21.915358 133.156750 15.930987 0 0
-7.739157 185.698590 37.775414 70 1
-64.486374 115.840760 -69.973427 32 1
-3.287892 67.104813 9.886039 0 0
-65.803047 232.608990 44.925758 66 1
-60.890255 253.096850 -27.002661 60 1
-64.350571 136.375750 -22.563972 0 0
-38.295853 278.204160 -6.725112 57 1
19.047325 257.638090 -35.432362 17 1
-18.909550 75.597618 -37.115013 44 1
-72.967606 150.150730 -38.849319 25 1
-12.490243 152.655810 18.543625 0 0
75.789833 197.876790 -43.030502 7 1
-29.158916 198.704540 -36.551960 74 1
-7.748127 183.966520 18.663454 75 1
-64.415756 275.667360 5.528328 57 1
5.517329 154.074810 3.250373 0 0
5.326290 117.074620 -101.734860 35 1
-6.796868 220.765620 -45.051640 73 1
-92.402763 218.229710 -39.987247 61 1
-76.349449 233.019260 -46.986927 61 1
-20.506859 289.679470 20.706076 0 0
-47.448421 344.159240 33.789314 15 1
-75.553810 223.802200 52.978302 68 1
-0.395480 122.450700 8.162917 0 0
1.357288 193.590090 -21.933582 0 0
-78.984604 208.037120 -41.507942 61 1
-129.948350 261.875000 -18.996807 34 1
-53.966160 307.524540 7.436985 47 1
-3.739036 112.686220 5.379303 0 0
56.233727 180.927510 45.807529 19 1
5.552636 116.209380 -42.964443 0 0
-16.433842 244.520400 19.418793 72 1
-88.092690 225.022750 -23.132505 62 1
47.939667 195.684190 -42.661358 30 1
10.841917 224.567460 7.374080 72 1
-8.276290 316.827120 23.218647 0 0
-68.062157 110.437940 -78.619553 56 1
-14.798500 92.481567 -16.217419 0 0
-24.013638 206.055450 -12.309678 0 0
-11.975113 144.809680 -42.892624 0 0
-59.917984 101.095230 -89.038742 56 1
-23.481123 338.348910 54.284267 22 1
-26.261038 95.063065 47.427292 5 1
-63.268600 156.908950 -34.890274 25 1
-32.430683 312.169710 80.817879 24 1
-69.685127 209.615750 51.473328 68 1
34.878464 193.232930 -1.519982 75 1
-44.523571 307.108580 111.586370 24 1
-73.267693 223.655880 -56.100559 61 1
-124.353680 127.010540 4.658937 13 1
-68.378822 245.924730 -27.496637 60 1
7.505319 293.559480 40.291710 49 1
-91.805397 217.163590 -25.630337 62 1
66.266937 120.664790 22.499084 8 1
-12.943568 62.534641 -4.412705 0 0
73.626938 118.039770 9.376396 23 1
-6.734996 60.154213 14.499026 0 0
29.326534 153.371080 41.094212 0 0
-4.298533 200.381680 -2.546439 0 0
3.752698 165.873140 -94.533005 38 1
7.825101 224.766020 -68.622665 31 1
-5.637718 255.344890 13.612639 0 0
-95.708427 219.208970 -17.663967 62 1
-85.231461 251.515930 4.413015 59 1
-12.282204 258.506100 23.908316 0 0
-15.790196 110.051770 -30.390074 0 0
-40.361561 184.919680 39.919376 69 1
1.679573 370.647800 11.811244 2 1
-63.405495 227.480930 -79.859482 42 1
65.220215 181.937560 35.439934 19 1
-64.880852 351.281280 -8.450166 67 1
56.280663 111.760550 -22.603767 9 1
-97.211708 184.121660 -90.639519 45 1
-113.330210 125.862060 -63.274067 11 1
-12.129114 71.732544 -26.546331 0 0
-95.107361 141.692810 18.756338 27 1
-106.335980 171.829280 -105.732840 45 1
44.935589 202.859050 -18.683477 29 1
5.027532 95.250076 -13.508760 0 0
-86.373039 138.493330 28.083277 26 1
-13.143879 220.273210 24.119146 72 1
-55.281246 227.735790 -81.173157 42 1
-43.787086 154.062040 -47.389153 74 1
-34.837780 216.247740 -1.198977 0 0
-41.340446 312.184450 26.179504 47 1
-59.599644 252.763820 -16.737385 60 1
-12.144117 184.527660 -23.630014 74 1
25.121374 147.840870 36.248791 0 0
-95.382072 128.067670 -10.942297 28 1
-42.908085 226.102160 -96.073349 42 1
-47.082443 318.509520 15.437581 47 1
-12.032075 137.245500 -3.514151 0 0
4.090264 192.745150 16.421053 75 1
-26.564724 131.697450 -13.005649 0 0
-58.074276 302.329470 18.200871 47 1
-4.636918 192.665150 26.244240 70 1
12.147596 188.017760 -9.884757 75 1
11.299951 115.486300 -15.133672 0 0
-18.803350 153.787190 -2.244987 0 0
70.204643 274.358890 -40.125114 1 1
-71.622459 248.423610 8.247457 64 1
-10.199184 190.189470 79.355537 21 1
36.102165 177.698170 54.017998 20 1
-1.519343 179.104610 5.942362 0 0
-102.000800 118.705980 -12.809949 28 1
-72.328270 318.726500 43.119320 14 1
-20.621441 193.707230 42.912621 69 1
16.933746 169.996310 -15.608760 0 0
-97.677383 166.367260 -35.421425 54 1
-12.030064 229.880220 -19.300430 72 1
-8.276142 363.962620 -18.854895 76 1
2.599397 188.753770 83.179077 21 1
32.976898 193.784380 20.998014 70 1
-107.919250 235.745820 0.932170 59 1
-44.602543 312.738800 76.761261 24 1
-25.207083 214.237200 -59.715282 73 1
-99.368195 215.967940 5.184321 63 1
46.057648 104.187780 -29.820978 9 1
-101.603610 223.107960 -7.158702 63 1
-13.429997 178.323070 -38.229408 74 1
-53.988136 89.344566 57.785770 4 1
-33.458050 319.550630 41.077698 24 1
-88.077744 151.030700 -4.265474 27 1
-87.348732 275.223270 46.184170 55 1
-11.650383 107.628800 14.926426 0 0
-67.095528 266.619690 -13.380783 57 1
43.777607 170.819840 58.380692 20 1
-54.350250 127.423200 -17.551443 0 0
24.996399 229.855530 -53.387665 31 1
104.334010 111.382580 13.940842 23 1
-5.994742 171.951460 -84.302444 38 1
-113.325930 275.494420 0.076936 34 1
-27.011883 183.428450 -42.845360 74 1
34.822685 108.395750 -23.676210 9 1
-6.929519 99.912857 -12.700173 0 0
60.358952 183.882900 -13.381114 29 1
-44.675106 303.220210 26.280487 48 1
26.415709 211.720580 -12.704488 71 1
-92.813232 147.262480 -47.862988 11 1
-110.371450 220.844540 -13.758915 63 1
-20.288256 316.808110 98.374390 24 1
-78.552536 274.995640 13.303021 55 1
0.712417 73.449142 -2.226869 0 0
60.628117 123.337690 -5.214226 9 1
-25.359852 309.568600 12.236693 0 0
2.118134 180.692260 -3.673480 0 0
-65.558357 146.013670 -46.031292 25 1
-18.093002 140.902270 16.525686 0 0
64.186005 177.489880 -6.087028 29 1
22.250580 182.425290 31.752968 70 1
-14.953781 192.967330 -32.131531 74 1
-52.531059 337.225650 -16.960993 16 1
-26.575262 218.341400 10.935891 0 0
77.646881 181.356090 77.134811 10 1
-43.494831 159.927690 -38.802334 74 1
-49.800137 183.222000 -32.736816 74 1
-104.232420 131.114290 7.686088 28 1
-120.699690 119.832880 -52.425179 11 1
-28.808741 170.374050 -56.745541 40 1
-26.581648 225.570620 -22.489489 73 1
-49.505283 182.560840 -46.753368 0 0
-19.542515 346.063930 57.272053 22 1
-81.688721 345.430240 0.809046 67 1
41.553219 200.002820 -38.892349 30 1
-42.139023 198.573460 -45.712437 74 1
38.232742 163.742900 48.294250 0 0
-96.279320 237.037800 9.086199 65 1
-41.817474 164.365370 -29.575012 74 1
27.474518 182.696620 45.017384 70 1
88.791588 119.730900 -6.361831 23 1
-91.633163 216.143650 -6.160309 63 1
69.935204 178.563190 56.635025 10 1
-116.136260 216.506480 -25.726202 41 1
-77.094330 224.467710 30.376606 68 1
-61.511040 277.640110 45.476826 48 1
-16.234766 174.193210 -57.878887 40 1
-69.325424 235.898560 33.505539 66 1
-53.377213 233.697300 -69.428749 42 1
-22.372971 188.201050 35.817776 0 0
-82.158737 225.090870 -49.558121 61 1
20.718109 213.122770 -24.829769 0 0
-76.718781 277.929840 37.197697 55 1
-50.686817 219.249980 -42.896385 73 1
-30.400667 376.313660 -45.361794 12 1
-23.345903 332.708710 63.172764 22 1
-4.637414 240.329270 -59.598976 17 1
-19.601128 322.104400 105.134550 24 1
13.654711 190.100750 47.227867 70 1
-70.551048 326.242220 37.836712 14 1
-49.332039 204.652370 -7.158165 0 0
-7.004530 252.351120 -36.144451 17 1
-3.395590 193.127210 -12.241545 0 0
-13.456816 196.061750 73.292549 21 1
-13.491314 109.802680 -1.704294 0 0
-11.022619 170.989490 -73.717323 39 1
-9.515658 172.379730 -22.582506 0 0
-121.392010 128.427370 17.213947 13 1
-11.985985 324.912380 74.765213 24 1
-18.904804 135.187000 -22.458487 0 0
2.917548 184.917210 22.190226 75 1
9.185863 177.035920 37.431587 70 1
-11.248954 371.804600 6.773061 3 1
-8.245701 197.312700 36.011120 70 1
-36.605045 296.626710 40.689728 48 1
-94.421921 146.941700 2.057903 27 1
-115.510090 134.148970 22.888596 13 1
25.069860 191.539470 20.228210 70 1
11.251854 186.537480 25.768648 75 1
-120.033790 221.782180 -20.595543 41 1
-55.440384 273.535610 9.672838 57 1
-103.792340 273.964420 -29.702087 34 1
-36.024704 297.917300 65.316368 48 1
-78.968613 321.244900 67.487679 14 1
-40.580944 146.017000 15.666743 0 0
-91.344772 254.964770 -8.398673 59 1
