40.806927 91.510918 22.623119 13 1
-157.645680 141.421390 10.603897 2 1
-46.328621 123.799550 -8.720408 34 1
-98.358612 149.826710 -32.019341 39 1
37.040379 93.104767 11.452826 0 0
-138.810420 158.859890 12.975513 2 1
50.982853 67.556168 -54.407417 4 1
-42.813786 129.918290 -38.728821 12 1
61.625481 220.198560 23.486418 38 1
62.160954 189.889050 73.034569 21 1
33.488880 251.702090 56.616871 26 1
1.745752 246.903930 23.642588 32 1
11.564950 94.145111 77.435173 16 1
-45.287300 228.870380 54.787003 30 1
-29.069332 245.840500 55.156094 31 1
-29.364708 202.936460 99.759308 30 1
-28.001755 239.756840 78.631050 33 1
78.788994 131.689640 -91.046303 35 1
28.542849 259.359070 63.558182 26 1
67.813118 212.745030 30.062424 21 1
-21.356831 102.613850 60.717052 10 1
-90.440498 210.351700 114.811040 24 1
108.923280 214.144730 17.725454 37 1
-76.160309 235.959850 94.772270 24 1
46.267616 206.557390 44.422001 21 1
-73.994553 208.606950 59.236809 28 1
-93.116028 158.925990 1.867953 0 0
72.377480 176.359010 -21.322012 38 1
-58.993763 205.906300 92.161072 30 1
-47.819019 247.729190 26.691275 27 1
-87.270882 153.363780 -38.185093 39 1
14.751087 247.794710 94.876892 22 1
83.517738 91.240250 -18.385450 7 1
-115.700490 192.130830 105.597020 24 1
-90.449661 145.453490 44.710228 3 1
-60.611908 236.714390 25.998766 27 1
-67.619759 215.251340 32.866928 28 1
-21.328617 88.841423 15.353356 0 0
45.148773 58.338024 -61.080498 4 1
-156.113100 151.111500 -6.862272 2 1
-105.451380 209.332570 94.823975 24 1
33.435898 80.021393 -8.263055 0 0
-28.089869 124.139690 -12.825069 0 0
-17.103289 207.377230 94.873779 33 1
-96.215973 162.457600 -20.697895 39 1
-40.487717 235.122990 60.239677 30 1
-67.221809 231.773940 89.164436 30 1
-70.706116 232.153750 21.830975 27 1
-50.230522 235.500090 93.578094 30 1
-17.344231 242.275940 86.484520 33 1
-10.777498 240.520370 26.686546 0 0
9.715860 266.305630 30.396751 26 1
-7.726734 76.586494 3.680855 0 0
49.269032 169.432620 -54.645882 35 1
66.986305 183.096210 68.810974 21 1
16.387190 252.246370 102.999370 22 1
-113.431640 129.806530 -42.054306 39 1
-22.053144 259.631590 63.648609 31 1
-106.784000 185.308150 122.145080 24 1
-8.972377 228.706100 74.408798 33 1
-94.360069 212.857180 105.239300 24 1
-31.315081 92.042244 83.940720 10 1
73.970772 189.919850 -9.384186 38 1
-15.359839 108.083480 85.743530 9 1
-98.397141 168.141620 3.835037 0 0
-103.967960 161.779740 19.449688 3 1
-36.522091 244.773960 71.159691 31 1
51.433346 85.700165 27.474331 13 1
-116.650300 159.689620 7.896684 3 1
77.181557 213.231230 36.762241 38 1
-16.134825 205.084730 101.493980 33 1
-84.758781 165.119890 -19.356722 39 1
112.816350 210.572480 6.762926 37 1
60.165207 160.879090 -73.461884 35 1
-97.680397 173.990080 45.059605 28 1
50.155643 166.925460 -69.284904 35 1
126.336280 194.685460 15.639820 37 1
-40.933807 253.653870 66.222725 31 1
70.218353 156.443420 -64.639534 35 1
84.996002 133.219760 -84.277603 35 1
-14.761507 257.313420 24.802963 32 1
-47.510662 227.595830 91.290543 30 1
-14.147736 247.931380 37.645031 32 1
-116.936790 138.292340 31.147865 3 1
-66.640656 218.863880 66.076469 28 1
35.064526 243.108350 39.861336 26 1
-10.396312 107.845050 54.286633 15 1
-69.596268 219.674940 79.611389 30 1
-106.570940 151.445940 33.270676 3 1
74.262115 151.635570 -60.641239 35 1
-18.864656 242.474140 30.879606 0 0
-83.438187 219.941130 111.309370 24 1
19.702744 77.671623 3.276425 0 0
40.694462 54.888851 -29.063740 6 1
129.808090 182.932830 24.504795 37 1
-101.191250 189.640840 121.544560 24 1
-119.207670 149.679750 -21.606239 39 1
-8.384115 62.502567 21.934971 0 0
68.527176 158.248580 -50.946655 35 1
-10.271778 159.013700 23.698973 0 0
-9.441974 84.475670 5.697458 0 0
13.892896 91.359665 8.526043 25 1
-4.314354 99.953484 97.123695 9 1
27.173077 62.437492 -39.929062 5 1
-83.448883 156.470580 -3.910014 0 0
75.396576 186.673630 73.238884 21 1
36.227612 226.635210 99.750397 22 1
86.787712 220.687270 27.586918 37 1
54.290077 206.354920 -15.477082 38 1
76.920288 212.121490 16.081692 38 1
6.183441 120.679440 -71.608299 1 1
56.073345 222.357760 10.906595 38 1
-43.800842 223.825100 60.491196 30 1
-0.169328 213.057280 25.869427 0 0
-14.160601 226.309830 96.774658 33 1
-42.749737 197.485170 45.645840 0 0
-52.050098 207.702510 48.312153 28 1
-56.799114 245.038940 59.535465 31 1
-6.976918 183.455630 26.291922 0 0
-37.538074 121.007640 -46.277134 12 1
-118.180690 143.331410 -32.369274 39 1
115.673650 203.650330 13.482919 37 1
25.739014 69.407539 -5.595767 0 0
-50.623573 247.275790 48.620560 27 1
63.587196 216.427810 7.039197 38 1
-23.532312 102.043500 77.117447 10 1
38.630959 93.613396 46.975655 11 1
64.364372 89.939430 -7.634483 17 1
0.462622 263.060520 66.016998 31 1
-3.565289 95.841553 103.665850 9 1
26.440159 87.970764 23.775309 13 1
7.893388 158.267180 -50.245708 1 1
-65.165924 234.381670 18.327122 27 1
-23.347046 128.495190 -22.246105 23 1
-80.584343 195.933350 29.288589 28 1
-6.446504 261.631010 25.249846 32 1
-37.290890 247.285540 57.449310 31 1
-110.688960 141.352830 30.302422 3 1
36.659840 51.608322 -67.116272 4 1
1.584132 152.457930 -47.459404 1 1
-91.579185 164.488130 23.595171 3 1
45.515945 44.240910 -66.581032 4 1
-1.003071 38.644882 6.131804 0 0
130.140720 185.921860 11.024198 37 1
-31.708443 215.171810 101.498960 30 1
7.385123 140.687480 -65.376236 1 1
11.917020 266.163510 84.295914 22 1
20.092512 245.039410 17.694862 26 1
-79.405884 201.461010 35.546371 28 1
-14.406872 256.927220 42.211296 32 1
5.546580 94.226753 37.040867 20 1
47.250992 192.819140 71.899094 21 1
130.536450 181.477420 37.864037 37 1
-64.564522 217.378170 91.205849 30 1
-35.436325 238.711990 77.322136 30 1
-26.117773 130.307280 -48.040615 12 1
-23.623470 206.588700 103.776470 30 1
89.098961 199.120820 -4.406995 38 1
-13.259722 102.641820 66.454445 0 0
67.271637 148.910060 -29.803150 36 1
-14.343779 99.268997 96.132332 9 1
-3.951986 59.556095 1.474923 0 0
14.705523 150.237670 -54.536469 1 1
22.157928 48.031277 -45.825535 5 1
-95.460602 131.371260 -46.703644 39 1
9.478167 86.946259 87.036034 16 1
-99.351387 135.436340 44.010506 3 1
31.109850 97.896439 37.429897 18 1
-12.139437 259.116670 49.067474 32 1
-27.581808 100.183720 50.377365 14 1
25.807188 95.231827 11.762798 0 0
-23.096500 95.624908 -3.127822 0 0
0.293821 120.382740 11.589873 0 0
52.248390 207.151210 32.470940 0 0
-64.944107 241.116000 29.036741 27 1
-6.552057 102.692180 59.808098 15 1
-1.705935 237.649890 65.081566 33 1
-41.235104 86.439476 78.437782 10 1
-140.414950 157.825960 2.561741 2 1
25.796326 256.711000 46.199715 26 1
-11.822138 196.715990 24.476046 0 0
30.977884 261.920900 73.046936 22 1
78.612862 94.740570 -23.036480 7 1
-108.924700 155.190190 16.241770 3 1
22.533522 247.615020 59.085533 26 1
75.604202 194.313350 59.017254 21 1
-3.163239 253.161100 84.248230 33 1
-54.364395 244.499800 21.002470 27 1
47.789867 161.961070 -26.217970 36 1
30.209286 48.154179 -58.008389 5 1
-77.187469 230.814830 15.202580 27 1
-83.727654 228.731780 86.289490 24 1
45.982578 202.704540 66.241989 21 1
49.141487 221.640460 101.704290 22 1
8.634437 150.756420 -50.385906 1 1
-5.931249 124.172390 13.669229 0 0
-1.198848 260.340970 43.172722 32 1
-30.897818 195.069310 107.027680 30 1
-52.593037 208.068860 100.730790 30 1
-101.019000 204.810420 108.621040 24 1
-1.025219 229.407010 85.740891 26 1
50.213425 48.181877 -63.387299 4 1
-106.570200 127.881520 -44.059017 39 1
3.213945 237.097460 75.528351 26 1
-108.240740 131.676320 39.005474 3 1
73.250389 188.859710 -16.651075 38 1
27.098694 54.883030 -50.190960 5 1
-95.214218 150.560620 36.823418 3 1
63.001663 176.932390 79.673988 21 1
24.619081 256.792690 93.479973 22 1
-95.682632 198.462840 126.961490 24 1
-90.441628 221.851880 69.094009 28 1
-47.106960 237.043440 80.646286 30 1
61.310867 154.796080 -40.624989 36 1
-52.022003 197.785870 98.497574 30 1
-26.049025 249.982800 89.161537 31 1
24.813772 233.349610 28.541071 26 1
-0.116246 129.383130 9.111752 0 0
78.591301 202.463390 58.129841 21 1
-42.716194 239.939790 91.621300 30 1
65.287216 218.933200 29.383942 38 1
-13.763219 118.729710 -26.262072 23 1
-17.789663 217.731920 84.803864 33 1
83.069931 185.165370 -14.015015 38 1
33.189964 249.077210 90.414345 22 1
41.142773 161.194400 -42.311066 36 1
-140.925430 156.341350 21.535091 2 1
37.348961 235.021260 99.657074 22 1
46.676136 102.525350 -13.652369 8 1
78.534119 147.402880 -70.381134 35 1
-8.269347 103.584870 78.110916 10 1
-45.800076 119.947460 0.012119 34 1
21.612682 242.382610 46.373943 26 1
-58.007847 239.278790 38.969830 27 1
-98.434753 202.888610 54.244392 28 1
-47.078678 249.131040 54.404720 31 1
38.883095 64.142181 -37.721565 6 1
-80.461777 232.362150 47.465191 29 1
14.678758 246.253690 69.161522 26 1
76.485596 204.080540 -5.718247 38 1
-97.095154 185.778690 45.885670 28 1
-4.244180 246.216610 45.401272 32 1
-73.757996 218.012500 35.992893 28 1
-108.796820 153.758800 -24.899313 39 1
29.445772 244.946780 27.301586 26 1
71.870651 197.083330 68.952660 21 1
120.144040 196.188710 45.733795 37 1
-37.501328 206.999850 89.579697 30 1
-112.361720 157.352400 -13.018870 39 1
-40.930500 204.970290 103.694240 30 1
102.673000 214.754260 34.695179 37 1
60.657616 199.764010 67.489349 21 1
62.015984 183.391020 76.426315 21 1
-86.818291 161.629580 -14.094073 39 1
29.264233 59.051918 -62.299358 4 1
43.013763 204.747630 56.311947 21 1
-39.835140 193.270110 41.425888 0 0
50.670570 83.628105 18.563690 13 1
31.723061 225.257830 25.837694 26 1
-91.318695 210.134920 64.398514 28 1
10.693041 42.670464 -13.587400 0 0
-64.740280 245.682270 53.696648 29 1
-96.714951 175.378100 38.460281 28 1
-49.174080 236.500240 70.813553 30 1
-67.843056 234.002010 46.368004 29 1
-57.179485 232.349620 60.644478 29 1
16.257490 259.709840 78.980019 22 1
7.921123 252.614560 47.705784 26 1
67.371971 211.820890 10.051427 38 1
3.733383 136.304000 -57.667168 1 1
43.952980 98.667778 -25.068384 8 1
49.304314 202.460890 26.657335 0 0
61.056171 215.203000 41.841442 21 1
-5.849216 26.989681 1.263937 0 0
61.372658 99.541534 -14.207221 17 1
-9.076124 69.790581 31.773571 0 0
21.042646 52.817692 -41.410702 5 1
-104.146220 146.129240 -34.243767 39 1
-57.839897 234.705170 72.323196 30 1
19.964300 145.388580 -66.110214 1 1
-87.289238 203.233110 34.219570 28 1
57.060230 164.049190 -54.555443 35 1
-11.051412 104.586640 -29.394369 23 1
-109.177060 121.460930 47.539551 3 1
-25.913401 93.270622 106.265190 9 1
-100.145520 126.085810 49.251690 3 1
-10.157554 177.660290 19.830212 0 0
45.029457 43.302277 -28.176054 6 1
-46.415676 251.675340 76.100410 31 1
14.655757 81.915154 80.632133 16 1
48.904854 58.437599 -37.071358 6 1
29.404488 40.811520 -50.207954 5 1
38.084129 242.577500 52.115475 26 1
-120.925250 142.278630 21.753191 3 1
-102.863730 142.620820 43.565289 3 1
-40.619518 225.242080 66.390411 30 1
17.011631 91.929031 15.390904 25 1
91.464394 219.203190 37.070507 37 1
72.690651 140.344410 -30.999285 36 1
-11.137612 105.329320 35.192062 20 1
28.880417 233.523220 40.908924 26 1
-100.798160 195.941040 47.137917 28 1
-69.564507 209.342210 34.932484 28 1
-42.447395 242.140620 44.391342 31 1
-91.963181 135.899600 52.052048 3 1
27.811930 159.952850 -48.968376 1 1
0.493330 31.190228 -1.074914 0 0
-89.824532 166.498690 -2.940599 39 1
-5.765980 48.596569 0.857916 0 0
-34.163834 240.781510 41.316525 0 0
49.626289 238.712170 84.610855 22 1
43.607147 217.199870 24.616364 26 1
-23.058149 125.303670 -30.578646 23 1
-47.114944 124.008480 -16.208704 34 1
42.348587 169.709340 -23.665457 36 1
38.236973 199.863630 34.355469 26 1
-145.183140 154.827330 39.698822 2 1
-14.017209 216.397540 26.399813 0 0
-56.670624 246.294880 45.233902 27 1
55.382626 161.685380 -31.216541 36 1
-96.649536 147.280580 46.316162 3 1
17.246328 239.315570 104.066970 22 1
-36.238007 254.488630 47.509007 31 1
-87.912506 169.249040 26.521940 3 1
54.028187 160.471970 -19.317057 36 1
-93.308853 225.628270 60.548859 29 1
42.005409 98.387039 4.831057 19 1
-25.043222 216.096420 100.683080 30 1
30.295418 60.653843 -52.993771 5 1
-66.276894 213.641360 60.749737 28 1
-12.207125 244.611860 48.455410 33 1
-27.957237 238.622470 59.572342 33 1
56.097477 222.157000 34.685482 26 1
-159.671370 143.591030 2.449682 2 1
-75.745239 239.192860 51.780830 29 1
-50.521080 207.132420 88.873817 30 1
-134.431000 161.319150 26.162376 2 1
67.010559 207.116240 59.982147 21 1
43.226105 93.186310 31.332510 13 1
51.486149 159.149890 -47.374336 36 1
-64.506241 227.303150 37.593357 28 1
34.607552 95.987579 28.325817 13 1
1.742357 149.012880 -57.364197 1 1
57.154533 191.564100 65.470009 21 1
52.472782 213.488110 106.901680 22 1
50.455376 208.213030 103.788220 22 1
-18.535467 108.957630 33.181931 20 1
-28.513699 223.122300 76.689758 30 1
-87.033684 223.953780 52.028946 28 1
-114.097560 165.207260 -10.308731 39 1
-13.902987 234.275130 94.248116 33 1
20.691452 94.514862 42.188381 18 1
-161.008540 140.050550 23.388813 2 1
-3.662499 204.636610 20.043566 0 0
-28.889069 228.373440 68.664886 33 1
-19.129663 107.159870 50.240978 14 1
61.036766 208.247880 -2.963824 38 1
-58.172745 213.288270 81.534180 30 1
-13.785534 107.153850 78.604927 10 1
-101.306100 154.682570 -27.117966 39 1
-17.765102 235.220660 28.926052 0 0
-49.597858 240.090000 20.271286 27 1
-85.112617 219.547130 102.040450 24 1
-62.474091 210.553270 87.586960 30 1
36.514378 66.118530 -54.149956 4 1
31.416046 92.875450 8.413415 0 0
33.648457 222.367430 106.143550 22 1
-32.298985 118.006560 10.815110 0 0
-60.844646 222.308880 34.318104 28 1
-4.044997 106.857860 86.793686 9 1
9.668996 141.091720 -59.420013 1 1
-23.614246 96.475418 101.241610 9 1
-146.932770 152.983810 -0.731718 2 1
9.147406 93.839912 42.342205 18 1
58.172543 179.773560 72.398216 21 1
23.833166 266.781800 77.955627 22 1
-29.097031 126.217620 -20.301355 0 0
67.189362 214.446270 40.317886 21 1
-2.526886 250.227540 50.050404 32 1
-162.945420 129.809540 27.236172 2 1
-35.482162 221.454930 76.863022 30 1
79.247246 185.541340 66.717033 21 1
-161.461590 135.333650 18.696697 2 1
21.840292 243.831920 92.846146 22 1
43.175560 226.318160 95.212532 22 1
39.184010 257.849400 78.567383 22 1
-54.240215 215.453430 48.438419 28 1
21.903038 97.375389 32.265800 18 1
-0.438013 104.153580 35.445614 20 1
-124.558640 169.520680 -0.475619 2 1
-4.380977 257.596740 38.396179 32 1
37.015614 251.783160 76.568291 22 1
52.437256 221.602970 4.323258 38 1
-30.767338 252.974150 92.127319 31 1
42.466206 189.107670 25.760813 0 0
-107.688150 162.471330 9.613425 3 1
66.829758 218.128950 18.060865 38 1
-112.184070 188.739760 113.426120 24 1
-0.123499 226.105440 28.043819 0 0
51.584473 216.932170 44.741478 21 1
-10.632018 259.928960 70.024681 31 1
43.630524 96.139580 -14.143466 17 1
-7.160265 76.043495 42.127514 0 0
3.222084 40.522972 -0.852484 0 0
15.595564 252.883380 88.224854 22 1
56.036739 94.649445 -15.253353 17 1
-9.190993 214.451860 97.327278 26 1
70.176422 180.592540 76.721893 21 1
-45.408745 249.350390 35.315166 27 1
1.474972 231.579210 38.040791 0 0
36.545902 92.621567 18.112101 13 1
-95.998863 156.571820 27.786545 3 1
-1.103447 69.114777 7.797104 0 0
-111.535040 151.442540 25.490107 3 1
-37.110912 239.096480 63.763596 33 1
75.878372 216.539090 31.090189 38 1
-73.508461 243.799940 67.926811 29 1
47.413559 210.551160 57.671688 21 1
4.286320 86.439445 29.459764 25 1
6.946606 88.768402 -9.923942 0 0
50.325878 61.049927 -58.778111 4 1
22.469776 263.884610 84.505524 22 1
-131.354770 162.964650 4.183767 2 1
-13.235931 224.393890 32.268658 0 0
-107.703000 223.710780 78.913063 24 1
43.237019 225.169980 49.004158 26 1
-5.905345 261.280880 48.981602 32 1
27.946110 155.684190 -56.456051 1 1
-17.659966 88.557198 108.375640 9 1
-13.951959 151.869260 18.010553 0 0
-54.923481 201.913100 102.262630 30 1
11.162868 250.722700 99.092407 22 1
8.582926 86.723534 7.414279 25 1
-24.252289 169.089080 27.687866 0 0
16.538986 256.329190 16.199659 26 1
19.671621 131.719640 -32.358311 0 0
51.769314 181.162840 74.639847 21 1
-103.276120 158.742650 -14.809752 39 1
-35.643330 248.571780 80.778915 31 1
-51.746918 117.413840 -9.940777 34 1
-109.521200 139.936480 38.853928 3 1
-30.501383 96.879341 74.914886 10 1
38.547791 99.063950 15.990126 13 1
-24.723648 109.738270 33.393703 14 1
25.184156 83.871170 11.407661 0 0
-55.093899 229.619340 53.293167 29 1
17.165953 265.675630 87.613319 22 1
-68.950546 203.264180 28.998659 28 1
-88.523331 208.658830 38.693760 28 1
16.672209 77.762321 76.457581 16 1
31.502842 236.024340 93.521690 22 1
3.671839 94.321121 79.414848 16 1
46.561710 92.941032 24.638859 13 1
13.725249 161.307080 -48.402645 1 1
-18.762491 252.707810 43.595253 32 1
-102.051810 132.669600 -44.577572 39 1
-27.025967 231.234310 43.668129 0 0
-30.679914 258.838900 88.360313 31 1
17.752081 269.866610 75.629501 22 1
-54.754417 219.960190 64.277542 30 1
-34.109207 257.704560 78.552010 31 1
19.904221 155.656130 -51.943634 1 1
15.552873 149.517780 -64.409447 1 1
-87.244606 205.443620 45.374847 28 1
0.082610 109.946310 51.526882 15 1
-110.020770 217.208720 86.192993 24 1
-16.220116 255.514830 87.125854 31 1
29.534000 246.548460 60.375050 26 1
9.394756 251.694240 81.082993 26 1
-144.174190 157.956180 9.988756 2 1
-0.026604 107.598540 62.221729 15 1
2.038155 101.649150 73.655563 16 1
-12.037761 205.937650 31.205275 0 0
-44.910671 114.095700 -48.310539 12 1
38.030823 50.270626 -53.060081 5 1
-104.684200 151.778750 24.531507 3 1
28.126232 244.730700 19.373425 26 1
-117.644230 194.917940 100.229190 24 1
57.393394 208.079280 59.536411 21 1
-41.533249 192.366180 106.151390 30 1
-16.657965 258.071750 71.902855 31 1
42.011238 45.272175 -71.698227 4 1
115.975130 203.037340 24.590223 37 1
41.682369 205.377980 34.536987 26 1
-113.099720 181.725310 111.308220 24 1
9.279562 146.443680 -63.651676 1 1
49.792786 90.823692 -9.641549 17 1
46.647800 54.634300 -32.452980 6 1
-106.347820 122.804140 -47.582165 39 1
25.900003 91.847214 5.548368 0 0
60.478127 157.991910 -91.353569 35 1
-85.908882 212.527940 66.196571 28 1
-29.550699 177.469830 31.390368 0 0
108.546330 206.969640 43.569351 37 1
-109.568370 200.216370 105.065650 24 1
15.759848 260.964480 40.906849 26 1
28.402349 231.575120 17.622587 26 1
-5.618259 41.445312 2.562508 0 0
41.514202 164.730210 -32.428810 36 1
71.125000 191.653110 72.193085 21 1
31.700407 162.959670 -44.190189 0 0
7.945328 92.868729 15.498211 25 1
9.489917 257.850010 97.117577 22 1
-20.030529 161.585950 21.648718 0 0
28.153656 96.117966 30.514822 18 1
87.966797 203.555620 -0.282094 38 1
-58.699154 200.700680 95.436211 30 1
2.174494 233.092790 89.507469 26 1
19.741911 160.595580 13.845491 0 0
74.407028 213.312260 8.645306 38 1
-39.727467 248.003040 45.587982 31 1
-39.802994 123.943680 -8.977013 34 1
2.954839 142.435290 -54.781658 1 1
0.963019 123.241550 -69.622223 1 1
-9.352544 102.799200 94.780334 9 1
-157.051860 146.344450 14.675943 2 1
14.664039 89.446991 74.982422 16 1
-2.553111 50.631226 6.331553 0 0
-88.489067 209.960780 120.614440 24 1
-104.143620 145.464940 32.406116 3 1
-46.676979 209.673810 100.924080 30 1
89.714111 200.408040 6.573277 38 1
86.192619 173.278660 -15.475969 38 1
36.391781 219.859510 16.473705 26 1
13.536489 65.754044 2.857678 0 0
-50.385349 247.410250 39.405659 27 1
71.143188 182.890750 -17.449360 38 1
77.281784 201.097610 48.445919 21 1
-18.427855 129.047270 -11.772287 23 1
40.373207 186.290510 19.452221 0 0
7.909392 129.971280 -65.493668 1 1
-148.796310 152.529020 18.613682 2 1
-4.474099 144.193480 -55.879841 1 1
-86.404289 161.387070 34.346119 3 1
-110.123200 146.826030 -31.180096 39 1
29.721954 57.118145 -41.888908 5 1
82.307205 197.320020 -1.184228 38 1
-84.774025 226.648010 92.818985 24 1
-4.352884 241.916580 89.705994 26 1
-115.260180 202.053670 91.889458 24 1
10.764261 156.130950 -55.184746 1 1
88.419418 181.925920 -13.792300 38 1
40.928066 237.374650 92.595131 22 1
41.711987 66.181206 -47.746735 4 1
43.840786 85.651405 -40.459465 8 1
121.957720 201.880330 20.195019 37 1
41.254009 161.450610 -52.322071 36 1
-46.887035 234.872100 60.489285 30 1
-37.220303 131.722370 -40.831409 12 1
-79.711617 236.120540 60.060310 29 1
56.950310 162.373670 -82.795799 35 1
-88.754616 232.297730 66.935104 29 1
24.258732 240.051740 51.353363 26 1
-34.974537 185.227420 35.862873 0 0
-101.200920 208.179340 56.089935 28 1
75.781204 143.135420 -89.571190 35 1
126.782860 191.233830 33.965988 37 1
-19.899019 245.813320 25.588081 0 0
52.383003 44.485195 -36.732224 6 1
-96.541542 215.283860 66.122559 28 1
-32.436115 100.067490 54.716736 14 1
24.939110 248.069660 100.146810 22 1
30.200447 48.011559 -47.063431 5 1
-19.153913 104.721500 92.665054 9 1
-149.421230 150.168140 39.611839 2 1
-47.788536 216.430440 78.122299 30 1
25.389507 234.728580 99.547951 22 1
61.891190 152.673160 -18.705030 36 1
44.290344 61.935272 -39.442360 6 1
38.170261 240.086650 44.485840 26 1
-38.286366 230.171010 94.809853 30 1
71.053429 194.944810 -7.696913 38 1
-2.211106 141.289440 13.991257 0 0
37.893379 164.015810 -37.248596 36 1
16.357647 95.406883 -3.243217 19 1
-59.621502 215.704900 94.234756 30 1
-95.841400 215.095000 52.285240 28 1
-6.912502 92.606674 11.957491 0 0
-96.118629 222.440050 55.815731 28 1
30.875008 240.139790 16.616192 26 1
-95.772430 206.041600 46.629997 28 1
-104.749730 192.650600 110.510880 24 1
-97.723412 157.477750 -10.529160 39 1
-21.643360 229.661390 68.789162 33 1
83.282806 188.477310 -7.718447 38 1
-5.281375 20.807302 1.742555 0 0
-145.479930 154.590270 28.525047 2 1
59.657009 157.732240 -12.738122 36 1
-116.798550 154.203230 -16.042974 39 1
26.904734 259.839170 86.933479 22 1
-124.636600 165.983430 11.927159 2 1
42.036060 245.860340 83.570831 22 1
-7.111159 103.893810 67.925110 0 0
65.325539 155.990450 -77.293182 35 1
12.721705 137.749210 -65.537651 1 1
-30.682068 240.543370 73.141953 33 1
58.994549 81.697029 -8.680955 17 1
45.039928 218.998720 105.653230 22 1
2.560877 95.285881 31.307838 20 1
-36.514091 90.133606 67.033295 10 1
-39.450092 88.674454 83.946457 10 1
-78.196526 207.073060 31.618380 28 1
-1.208554 217.904160 22.513451 0 0
7.283445 98.471748 64.108429 16 1
-1.708295 132.622760 -56.693371 1 1
6.061083 88.896927 19.532530 25 1
-47.885582 125.935260 5.967151 0 0
-141.914340 154.974290 33.859463 2 1
-115.932720 132.375470 36.218872 3 1
-4.398247 72.414566 11.525767 0 0
-113.051650 176.264480 120.359010 24 1
11.008348 87.372818 57.427567 18 1
-5.001784 12.330271 1.945312 0 0
32.289692 249.715300 44.305927 26 1
-40.636127 86.053909 65.217934 10 1
-13.271392 92.862091 103.311400 9 1
-99.328629 168.888410 -4.974489 39 1
-15.867065 78.107361 9.673422 0 0
-83.069954 228.295910 52.968315 28 1
91.183289 194.767240 -0.601992 38 1
-15.380766 257.417720 81.507568 31 1
-14.448224 261.993290 59.959938 31 1
-7.376893 236.356370 93.449852 26 1
35.590858 247.969240 52.372890 26 1
78.299545 141.823900 -81.124535 35 1
82.023407 141.774960 -69.879959 35 1
0.151024 246.893680 41.155090 32 1
60.563236 209.653060 -8.744499 38 1
-88.821480 206.032360 125.243040 24 1
-21.641695 107.646710 42.777008 14 1
-112.106780 124.330640 43.247997 3 1
-60.220963 137.325210 6.916309 0 0
-15.571016 229.542560 29.921154 0 0
-10.841515 107.763910 48.312584 15 1
75.827385 207.171720 41.312717 21 1
-35.319378 134.470540 -25.551247 12 1
-40.942471 120.121280 9.521664 0 0
8.275721 107.785000 59.031857 15 1
-38.943310 129.077210 -18.477110 34 1
71.445412 214.225040 25.627970 38 1
-0.409593 104.526950 97.622772 9 1
-5.690354 128.594350 -62.548214 1 1
-34.736122 125.704060 -42.487629 12 1
30.159616 98.301003 25.183626 13 1
63.481861 203.464000 -8.089722 38 1
-40.014580 187.123690 110.857640 30 1
-92.012016 199.341350 44.347870 28 1
-150.625150 149.093920 5.639979 2 1
-74.157715 234.315980 100.148570 24 1
69.224564 148.400650 -47.126492 36 1
10.412145 259.034970 89.745522 22 1
17.540598 262.522980 50.553101 26 1
37.123482 67.626274 -42.156967 6 1
31.469208 247.600370 38.533794 26 1
-114.425170 155.497960 18.365419 3 1
79.415955 90.043892 -7.644714 7 1
-32.552368 112.939360 6.100192 0 0
-29.287119 186.278460 112.745770 30 1
93.685913 187.836010 -7.618409 38 1
-6.608899 138.329530 -58.754993 1 1
69.048233 100.007440 -6.219002 7 1
106.291880 214.505740 24.938334 37 1
-4.896455 100.816460 27.957537 20 1
-2.884086 231.824680 94.052376 26 1
-41.833324 102.475070 -56.317730 12 1
-116.736580 186.219180 103.967640 24 1
45.637814 199.358810 54.381531 21 1
-117.091270 122.919010 38.668762 3 1
-12.503115 251.364790 42.129570 32 1
-90.271065 187.246770 30.233492 28 1
-6.610177 101.886120 33.723854 20 1
-13.315454 222.410060 82.610786 33 1
24.340231 93.076591 26.230965 0 0
-49.350388 218.913880 47.428207 28 1
-3.636901 246.046140 26.237280 0 0
-58.365185 242.418110 54.531151 29 1
31.476671 242.831790 97.528168 22 1
-31.531731 209.857740 104.675350 30 1
-16.745872 260.333220 20.060404 32 1
47.120113 243.805240 81.226776 22 1
35.041210 220.768190 34.832485 26 1
-37.544758 254.965700 97.273376 31 1
-17.358559 220.750140 28.485579 0 0
42.620354 226.047210 103.967330 22 1
-79.987984 235.355410 87.008514 24 1
16.071774 266.098750 61.482674 26 1
-11.058650 256.153560 14.615363 0 0
9.453431 259.679690 25.813591 32 1
-88.749565 156.999070 41.809414 3 1
-30.670200 260.222600 63.477551 31 1
-24.006611 92.167450 75.898689 10 1
5.088621 106.066560 66.687614 15 1
21.888208 269.920200 71.208855 22 1
-68.001244 244.849730 70.100380 29 1
52.894444 217.107390 102.306980 22 1
-27.653881 105.544290 47.539413 14 1
127.650100 183.180820 32.595192 37 1
-66.114182 236.363800 35.329144 27 1
64.635063 197.152830 57.432819 21 1
7.293215 252.720080 13.762286 32 1
-97.446106 165.065280 8.710786 3 1
-8.019393 95.490257 6.634107 0 0
-8.206707 109.756610 38.701012 15 1
36.973255 55.743176 -57.521996 4 1
16.464016 96.550865 8.159400 25 1
-87.758797 156.821410 2.615350 0 0
36.166775 85.248734 -33.286205 8 1
-15.872334 98.362740 7.679347 0 0
-16.602482 97.286934 101.092420 9 1
30.372347 92.774879 -7.564160 19 1
32.655197 58.881546 -37.055603 0 0
-9.839390 108.602550 -19.827421 23 1
-41.390759 247.041370 53.368206 31 1
0.517292 235.707720 29.238535 0 0
-80.328270 214.343320 36.393723 28 1
40.836815 208.548570 44.215298 26 1
5.481488 247.407100 59.452305 26 1
78.678078 195.286290 66.132767 21 1
-96.466736 228.889160 71.332390 29 1
-67.638077 146.337170 4.000820 0 0
53.689793 84.679146 -3.995337 17 1
15.983815 248.086170 38.028889 26 1
3.619253 84.682976 0.585423 0 0
97.096222 215.194640 32.504929 37 1
2.250420 138.170650 -63.852734 1 1
-97.463135 179.400100 47.787964 28 1
48.434200 165.451130 -33.401646 36 1
73.040298 98.893669 -23.553402 7 1
35.234882 257.685460 74.241623 22 1
-7.139411 235.465670 63.753235 33 1
11.458117 243.899550 81.055679 26 1
127.398320 188.532880 23.185341 37 1
-86.176865 235.846620 77.780121 29 1
-71.633644 224.776960 38.379356 28 1
-30.066221 206.982010 91.612633 30 1
89.103401 191.263180 -8.881270 38 1
48.383987 223.362260 96.266533 22 1
59.691700 205.820920 41.656776 21 1
-6.788648 167.372760 23.827021 0 0
73.835426 210.906130 2.864145 38 1
-33.563145 131.382230 -17.404995 34 1
20.121147 256.120240 71.176994 26 1
47.143353 222.129750 41.788826 26 1
-36.609558 215.758940 81.290581 30 1
48.725014 206.716840 22.351564 26 1
2.544851 244.318180 88.180336 26 1
3.744424 250.668590 51.188786 32 1
71.923042 207.221940 -4.218160 38 1
-40.591339 123.518070 -17.957634 34 1
-95.278549 200.578140 121.222920 24 1
-120.711420 165.516970 7.114646 2 1
-63.475807 246.498980 62.318077 29 1
28.843197 229.180980 29.460991 26 1
-87.067322 167.034470 -12.204058 39 1
9.092699 259.977330 73.898376 26 1
30.967171 227.883500 110.027670 22 1
114.406880 206.402860 34.931572 37 1
-139.433330 159.594710 -4.325341 2 1
65.261497 211.939180 -1.836271 38 1
122.078290 197.629970 35.614548 37 1
-9.407011 106.602120 88.771858 9 1
-95.017418 222.693160 65.685738 29 1
113.094600 210.403320 18.950308 37 1
49.654922 230.668670 88.850838 22 1
-74.335251 229.119320 83.415413 30 1
-58.973526 220.708220 74.516624 30 1
27.204920 258.896880 51.770256 26 1
-104.481090 161.537600 -2.957768 39 1
44.433998 232.510040 94.686874 22 1
17.018087 259.522060 34.707672 26 1
-166.732270 135.836730 9.026223 2 1
-10.258635 57.749969 10.363791 0 0
8.405271 248.814590 23.775984 32 1
-81.929985 237.771650 71.126213 29 1
54.367645 198.122360 61.552197 21 1
5.345705 249.559190 40.939323 32 1
-111.476470 195.187590 107.880490 24 1
116.407380 201.318370 30.089594 37 1
65.583817 158.305820 -61.839928 35 1
-54.681129 192.765700 101.828600 30 1
-45.122078 203.140660 42.397205 0 0
-47.285336 123.331860 -45.186184 12 1
-98.370537 217.609860 92.019501 24 1
11.255059 268.476780 68.959534 26 1
-105.279280 164.893750 -12.436239 39 1
-75.658730 199.015670 31.172783 28 1
51.771652 162.334730 -36.937347 36 1
46.978992 86.578362 22.834839 13 1
-83.684715 231.242580 58.030437 29 1
61.432503 153.668670 -46.287552 36 1
-10.540310 147.270650 17.889006 0 0
15.505552 253.316070 76.212509 26 1
7.056715 38.705467 -7.313984 0 0
-55.326733 134.245350 7.710923 0 0
85.873306 210.370620 11.280086 38 1
-56.759289 226.022400 88.331947 30 1
33.361912 262.139950 78.956421 22 1
4.000304 245.214580 31.020840 32 1
20.688276 246.538240 11.888026 26 1
-46.337448 248.779940 83.480324 31 1
31.064707 256.274110 58.929295 26 1
-53.065815 235.720050 82.399300 30 1
27.934044 166.662460 20.066744 0 0
118.493840 200.659210 9.482428 37 1
36.617424 95.085533 -4.397668 19 1
37.654823 160.988890 -46.765686 36 1
49.494392 88.862885 43.364899 11 1
-118.602520 180.481350 110.845840 24 1
24.907808 56.155701 -44.703491 5 1
-168.166140 129.540420 25.070229 2 1
57.987339 164.290950 -61.933113 35 1
-63.935444 222.108020 88.094475 30 1
-51.744278 241.352970 37.260612 27 1
-88.140686 151.250170 42.946205 3 1
-74.353851 228.640690 110.505720 24 1
22.982275 37.269547 -47.464886 5 1
-6.826498 259.401250 75.772179 31 1
-11.702407 102.950970 10.030849 0 0
77.582214 203.213900 5.827560 38 1
-38.076813 248.023910 75.510292 31 1
-24.819378 196.147370 108.599210 30 1
-13.433676 235.999110 24.600952 0 0
-46.314915 127.986680 -34.691994 12 1
-106.805760 181.961880 127.356700 24 1
-11.813291 212.742810 31.583181 0 0
-38.100994 236.891510 92.726089 30 1
-108.644760 170.321730 -2.113318 39 1
1.810469 254.068850 20.403711 32 1
55.426605 191.720750 72.284737 21 1
-4.837375 87.570061 108.659580 9 1
44.083504 171.376910 -60.654957 35 1
-146.578030 151.955890 13.343284 2 1
116.876400 197.993030 38.761852 37 1
75.515976 181.819900 68.745972 21 1
-1.443891 56.233253 5.724026 0 0
9.285087 97.378372 72.211380 16 1
-103.829860 131.651180 42.500732 3 1
-92.891273 155.285710 -8.560136 39 1
-28.570732 95.322411 67.778694 10 1
22.091692 252.995800 25.270515 26 1
83.913177 195.683490 -8.954092 38 1
61.625908 156.665370 -24.607409 36 1
-12.517730 251.027820 18.677124 0 0
40.216797 97.474632 21.184393 13 1
-17.273655 102.884280 23.692741 0 0
24.436590 241.406780 106.146220 22 1
53.827305 82.269897 54.956268 11 1
117.530400 194.697220 50.500099 37 1
-110.691930 212.210630 89.906654 24 1
-76.718269 216.217900 66.745735 28 1
-25.711180 105.569470 -7.223396 0 0
34.762917 252.882290 86.047783 22 1
71.424019 144.714650 -38.373016 36 1
-101.516490 153.542790 35.998058 3 1
-46.572807 197.477020 99.792114 30 1
-103.107010 156.287000 20.184816 3 1
-47.577763 241.842190 32.293941 27 1
46.117737 158.506270 -52.281147 36 1
-74.021194 148.589860 1.093692 0 0
73.498085 190.712480 62.757126 21 1
-59.085358 231.940900 87.617195 30 1
-19.918695 217.893340 99.308319 30 1
-65.562233 215.804670 43.354294 28 1
41.011593 203.070620 63.535664 21 1
7.934300 49.739120 1.289848 0 0
-99.349968 223.241620 82.752930 24 1
-55.896381 245.840970 39.626484 27 1
0.015329 17.874899 1.372699 0 0
-35.993862 124.990490 -49.880318 12 1
-20.899359 254.687380 28.884090 32 1
27.927723 233.812360 109.183480 22 1
7.521219 248.670040 35.178020 32 1
-43.136490 254.062240 82.650986 31 1
42.905823 99.728958 10.373237 19 1
-98.171814 213.515460 100.653140 24 1
98.702782 221.343640 18.465893 37 1
57.807201 155.075130 -33.793476 36 1
-100.394110 166.855610 -10.177770 39 1
52.598087 158.596190 -27.227324 36 1
15.954132 246.292920 107.909710 22 1
39.865597 168.576810 -28.615499 36 1
96.959816 218.948680 27.292377 37 1
-106.351640 195.616270 105.679760 24 1
110.480530 213.855420 10.998169 37 1
25.342573 246.110670 87.758865 22 1
77.283417 186.996320 -13.096384 38 1
-66.649559 235.595950 64.331337 29 1
-21.287451 253.913910 89.459457 31 1
9.143938 92.554596 86.041267 16 1
17.238293 247.334550 43.762417 26 1
-90.962837 212.672590 109.764790 24 1
-12.198975 66.976692 8.378584 0 0
-84.414848 165.057250 -26.598879 39 1
36.141876 100.247330 25.048100 13 1
-57.993698 237.530820 16.513428 27 1
-6.003780 101.341310 7.664841 0 0
82.156578 205.048630 -1.848867 38 1
49.104515 197.459520 69.393471 21 1
42.883080 98.056816 -6.874325 19 1
10.065245 89.990746 46.238190 18 1
-21.423813 258.494290 69.045273 31 1
-92.601921 139.773610 46.615753 3 1
42.076229 260.483580 73.050995 22 1
55.255474 212.417340 -9.315357 38 1
-64.943298 233.278810 23.915855 27 1
-40.992355 237.500030 69.969978 30 1
2.030332 256.529850 29.220737 32 1
13.200319 269.925870 80.222809 22 1
3.553635 76.470680 3.800825 0 0
-5.482567 148.053820 -48.971230 1 1
55.040958 98.167778 -6.204343 19 1
36.485764 215.359650 25.602863 26 1
-1.886249 156.847670 -43.682304 1 1
76.724533 208.679610 11.719158 38 1
-6.360992 89.741028 54.930847 0 0
70.073997 201.260010 49.466923 21 1
66.130104 160.400570 -55.836147 35 1
-5.076191 138.282350 6.878484 0 0
-37.336750 201.043030 98.321358 30 1
-18.014866 245.093540 49.729309 33 1
-161.438030 144.366870 7.864280 2 1
-49.941853 227.629820 52.076141 28 1
13.548451 54.425507 4.984548 0 0
-94.851624 169.073380 35.855881 28 1
51.682899 97.825119 -18.600000 17 1
-93.014519 178.583630 35.898643 28 1
-5.407351 188.759860 24.608961 0 0
-15.627026 103.447900 31.565283 20 1
34.710232 241.616320 84.978424 22 1
-24.409075 104.440820 94.358566 9 1
44.379887 222.132160 35.421726 26 1
-10.272416 256.626280 38.564209 32 1
-84.388084 209.675400 53.054573 28 1
16.626299 263.341520 92.874222 22 1
-5.299441 105.371270 55.146156 15 1
40.275372 51.912804 -62.914974 4 1
28.240793 51.599945 -29.563885 0 0
-47.533005 250.034470 68.662102 31 1
13.805018 96.635773 32.570595 18 1
-111.187050 158.352710 11.515949 3 1
41.824718 98.947975 31.982698 11 1
9.767778 104.941360 63.662224 15 1
67.132294 219.962430 23.444279 38 1
-13.927243 212.072370 98.839996 33 1
-117.504430 137.878560 -33.612423 39 1
-74.760971 236.576190 21.374262 27 1
0.148270 240.998500 39.746960 0 0
-75.796913 229.698260 46.236488 28 1
-79.821442 209.551940 59.757824 28 1
82.056900 144.899170 -59.978138 35 1
-4.731324 174.106310 20.975668 0 0
-39.581783 129.694460 -33.032322 12 1
-5.273958 108.553920 44.399559 15 1
60.936153 211.691480 49.990818 21 1
-16.272293 124.121410 -21.086653 23 1
83.402298 138.736110 -75.564583 35 1
71.747658 138.381910 -22.197258 36 1
-45.240341 119.205520 -5.891993 34 1
-13.171350 242.510670 22.148474 0 0
-68.345825 209.089890 57.656059 28 1
51.463905 213.298650 50.787159 21 1
2.010789 255.636310 81.216621 26 1
-47.121677 202.633880 94.250717 30 1
21.352831 241.993300 35.081013 26 1
41.912289 231.246000 50.874855 26 1
-54.214939 243.214160 49.531841 27 1
25.666389 255.153750 77.620277 22 1
67.247002 149.125460 -94.023109 35 1
33.838478 57.518337 -45.502666 5 1
61.540310 202.481410 48.921638 21 1
-0.322122 97.934601 27.004921 20 1
-109.125900 200.138060 99.433907 24 1
29.165071 161.500690 -54.057686 1 1
-26.400490 107.683970 40.044178 14 1
41.196857 48.607658 -25.661209 6 1
-82.658356 225.476530 97.951309 24 1
35.570400 238.380920 57.087273 26 1
-43.948605 246.840010 59.150360 31 1
22.667856 153.755510 -56.346252 1 1
61.042198 86.804276 -10.661074 17 1
51.582859 208.220540 60.451447 21 1
-53.015064 238.590620 26.458241 27 1
55.257557 59.118519 -61.375439 4 1
-32.834023 95.578873 80.053131 10 1
-120.865370 134.845760 -36.680279 39 1
-37.209984 240.075470 87.849922 30 1
20.724813 42.259766 -42.258022 5 1
13.537464 250.446590 52.786194 26 1
24.489386 43.219181 -50.456970 5 1
24.667830 248.367190 17.224281 26 1
-69.866417 238.770340 28.871197 27 1
50.211784 216.353550 25.871445 26 1
-91.908699 232.921680 71.560234 29 1
35.413898 229.207470 17.728994 26 1
-50.149044 192.318100 108.419740 30 1
40.542992 47.781166 -66.610481 4 1
79.641350 205.577380 44.865543 21 1
-56.781597 220.147810 37.937630 28 1
43.889820 61.320400 -49.995293 4 1
-40.108570 133.888630 -28.080383 12 1
-39.899483 203.723450 93.221443 30 1
-166.281280 133.213090 17.303806 2 1
-149.634900 155.747310 -4.567439 2 1
-94.301804 147.555020 41.411072 3 1
-29.494825 240.116270 87.737808 30 1
-18.626976 241.616090 56.236046 33 1
-59.423561 211.359600 97.809303 30 1
73.601196 130.768220 -29.605867 36 1
-105.613490 165.798250 13.505256 3 1
60.584949 214.554780 24.081781 38 1
75.018791 127.894710 -20.585543 36 1
-58.631294 229.966830 47.365673 29 1
-112.252250 159.155910 -19.388901 39 1
-134.865450 162.455750 11.681540 2 1
43.909527 251.902710 77.879868 22 1
-146.098690 158.000210 2.650077 2 1
-69.379219 219.240770 87.531647 30 1
-11.474751 261.936830 22.216593 32 1
49.627918 166.555370 -23.978550 36 1
-90.929626 161.716250 -19.401777 39 1
-6.626735 257.551880 28.989254 32 1
-86.012138 196.496690 29.429874 28 1
-80.331444 155.188110 0.714384 0 0
40.156731 88.623390 -10.081848 17 1
-77.341095 227.738220 104.741460 24 1
11.508549 104.869130 -17.111078 0 0
18.788263 92.278198 48.617794 18 1
12.789536 90.325645 24.758165 25 1
-14.940486 123.300380 -15.891183 23 1
-109.777000 137.250930 -36.661823 39 1
13.123105 249.490750 33.639565 26 1
-15.848627 105.384580 70.694191 10 1
59.248314 175.734500 75.850716 21 1
20.970276 237.849560 99.893089 22 1
7.572015 93.429367 68.154015 16 1
-109.604950 180.360920 119.490840 24 1
-19.488628 86.767975 3.811337 0 0
-44.246567 209.344940 85.551834 30 1
-89.081696 229.499100 62.253773 29 1
-97.115723 196.631040 43.013210 28 1
-1.823888 140.160310 -60.488499 1 1
13.135357 248.699260 26.664412 26 1
22.349346 92.786942 15.519752 0 0
32.100212 99.439049 8.602410 19 1
126.093290 193.448780 27.328348 37 1
-99.557541 147.295200 35.242447 3 1
59.094795 216.899110 1.941374 38 1
6.190783 265.483180 64.861916 26 1
50.933056 167.841780 -64.014984 35 1
-37.358421 110.519830 -55.311527 12 1
25.085518 253.257000 36.501472 26 1
-34.175034 133.068500 -36.515942 12 1
-10.553199 94.819786 62.253170 0 0
-2.301557 264.071380 58.370296 31 1
4.557423 94.786209 74.108803 16 1
-121.355080 157.730100 -13.870657 39 1
33.394344 40.525612 -53.913013 5 1
75.016083 193.269100 -13.658739 38 1
-36.153393 126.534670 -11.981585 34 1
70.012886 197.097780 56.385235 21 1
0.753436 128.622470 -67.771851 1 1
-7.699605 250.484850 85.608330 33 1
40.798512 231.110610 39.509228 26 1
10.232668 97.087769 38.118774 18 1
104.305340 209.650760 35.544792 37 1
-74.462227 212.499050 41.947353 28 1
-48.477589 117.655360 -46.409527 12 1
-2.551177 244.833160 36.928280 0 0
-46.279297 219.119460 94.947968 30 1
-39.097534 250.156040 84.907127 31 1
72.729362 203.697330 62.389065 21 1
10.850717 263.883670 42.263622 26 1
123.379490 195.242520 10.910872 37 1
11.175188 250.292600 16.632017 32 1
-59.647266 215.231830 58.072098 28 1
-17.101091 106.158970 39.101818 15 1
40.750427 213.813480 52.173649 21 1
-157.426190 149.955250 -0.711609 2 1
-5.258649 32.387615 1.404417 0 0
-152.453570 146.452790 11.009999 2 1
-81.865334 219.343430 116.631420 24 1
20.191742 259.348020 95.132034 22 1
-10.354927 108.625050 -25.806669 23 1
-8.360007 258.092860 80.751541 31 1
43.609272 194.185520 24.383986 0 0
-2.250315 243.638460 56.575859 33 1
-94.588638 223.917600 86.638084 24 1
45.555046 62.784069 -56.626564 4 1
56.466145 157.516330 -23.075325 36 1
-2.944053 221.562610 91.895485 26 1
20.544750 252.388850 85.099030 22 1
-63.621288 239.427430 39.405060 27 1
51.012703 103.431960 -10.186212 19 1
-24.703604 259.272550 79.946320 31 1
14.350016 245.259870 74.431038 26 1
-7.897025 152.181630 15.209122 0 0
102.221960 219.995160 14.652918 37 1
-92.330475 190.416900 39.054272 28 1
59.055080 91.698013 -5.028602 17 1
-106.858040 140.845370 34.013752 3 1
10.615167 262.996890 96.145210 22 1
18.928007 87.718933 68.937302 16 1
-24.603851 242.207370 57.445499 33 1
-105.306380 159.056240 14.700294 3 1
76.214409 218.382480 24.993948 38 1
75.873367 178.243580 -17.743927 38 1
78.138512 92.077469 -18.378790 7 1
-52.740280 246.003200 27.833595 27 1
-62.875885 234.741760 48.226997 29 1
-112.246320 146.639130 29.964785 3 1
1.104568 80.546806 7.470419 0 0
2.679891 101.393450 65.773010 16 1
60.501431 218.433460 18.579327 38 1
-64.216736 238.276600 54.920219 29 1
-104.683040 137.225570 38.266979 3 1
99.285492 211.619890 38.712399 37 1
32.028046 66.853172 -40.514431 5 1
-2.959722 125.263940 7.274755 0 0
49.638340 89.662239 15.697041 13 1
-122.113700 141.904100 -29.051834 39 1
-11.224121 246.028110 43.412109 32 1
-18.948315 78.792130 14.422321 0 0
22.805702 98.245674 5.804362 19 1
-94.513199 143.874400 49.933029 3 1
-25.646368 134.809780 -36.189293 12 1
60.254993 219.119310 10.276418 38 1
52.220219 205.486080 43.753838 21 1
-22.475906 89.155418 106.185690 9 1
-25.930834 258.103970 86.071823 31 1
-49.797012 248.657810 61.330105 31 1
-87.847397 198.303730 38.845310 28 1
-10.933394 194.179170 29.094482 0 0
-74.499794 203.391420 28.332443 28 1
6.423387 243.031170 65.275948 26 1
46.897217 166.575090 -58.452236 35 1
1.161707 137.226880 15.014946 0 0
109.482640 208.205290 28.700197 37 1
-26.479382 204.222810 95.436722 30 1
-39.669765 253.916930 54.391140 31 1
-31.613884 198.899080 103.398570 30 1
-61.198917 245.766050 48.558640 27 1
-95.624268 166.833920 -14.002196 39 1
25.190218 235.835040 33.266140 26 1
-159.977390 139.045820 30.794512 2 1
-3.063182 248.872330 15.617128 32 1
30.520170 93.081619 -12.861453 19 1
-29.344612 214.679280 83.903763 30 1
-47.019039 111.796360 -52.660305 12 1
-94.842766 204.573010 114.916740 24 1
-100.766430 199.249370 109.532760 24 1
-86.303169 217.989650 69.643661 28 1
-23.349539 95.368622 23.670137 0 0
20.783438 253.019240 19.949436 26 1
-74.153633 240.189560 75.560822 29 1
-19.895437 258.623170 25.479540 32 1
-22.911644 210.801040 87.756172 33 1
52.798286 165.623120 -19.513742 36 1
33.407394 99.345810 14.614366 13 1
53.720737 52.077332 -64.289505 4 1
-92.720901 168.939650 15.835836 3 1
23.467472 236.215530 24.298897 26 1
-4.575573 71.483658 2.365743 0 0
-10.157817 239.399400 57.593815 33 1
5.956991 155.265980 -46.349449 1 1
2.625515 265.914060 51.513447 32 1
81.946449 201.481120 53.584290 21 1
25.509678 151.640500 -61.610558 1 1
-9.513063 103.103220 29.480537 20 1
-120.250410 200.625230 89.330765 24 1
7.323637 263.675810 36.897404 32 1
66.835419 149.893680 -36.291733 36 1
-59.591995 215.239400 52.132633 28 1
-41.990719 253.396790 71.676949 31 1
15.631227 94.517937 64.030518 16 1
-40.292175 247.949160 35.452385 27 1
56.172771 213.140550 -0.334146 38 1
128.554930 190.118390 14.209842 37 1
26.718719 95.878548 0.512757 19 1
52.657234 219.681490 30.532768 26 1
76.101357 209.132980 46.487026 21 1
61.551926 152.887120 -29.280258 36 1
-29.445217 246.792620 49.504776 33 1
-48.634769 118.741570 -18.132324 34 1
88.133522 221.265780 32.648739 37 1
-53.006222 212.440870 80.938705 30 1
15.445598 40.724010 -12.413766 0 0
32.156658 49.019367 -67.988640 4 1
48.635681 96.406494 -29.928097 8 1
-90.839790 229.502400 77.812195 29 1
63.305744 148.507340 -15.799752 36 1
-105.061920 199.207760 57.778664 28 1
46.477432 227.224810 99.292336 22 1
34.033115 236.574100 26.008898 26 1
-68.711319 235.513530 69.170700 29 1
-105.389500 125.810230 49.566711 3 1
-14.703559 239.374650 30.013508 0 0
-4.265523 256.063570 18.241066 32 1
-94.130913 204.293810 51.567657 28 1
-18.154747 122.978930 -30.795002 23 1
-98.079681 209.241700 106.106330 24 1
-6.039771 63.429523 4.435312 0 0
-20.412138 225.148190 76.226341 33 1
27.009377 99.995621 33.874443 18 1
-71.526535 239.793430 70.771713 29 1
-10.276937 261.290010 64.636940 31 1
35.623470 180.439420 22.973141 0 0
-30.011339 247.408340 81.415710 31 1
30.091160 89.060844 20.159132 13 1
-103.805690 219.267230 88.854622 24 1
2.836609 130.111020 13.508492 0 0
58.312912 164.450610 -49.209312 35 1
-11.541494 115.537370 -18.756496 23 1
34.974197 240.173930 35.510132 26 1
99.410553 217.214220 22.923130 37 1
57.520237 208.093430 32.487423 21 1
62.128185 188.322250 -22.514322 38 1
19.419437 73.703651 6.696999 0 0
3.982938 100.829940 34.630013 20 1
80.568741 94.033134 -27.907576 7 1
-97.819489 160.011080 -16.121973 39 1
35.904575 97.596161 49.012444 11 1
-70.332611 237.825060 48.951534 29 1
20.749846 165.070560 -45.730324 1 1
34.090355 244.488080 92.768463 22 1
-59.137531 241.710040 45.912312 29 1
-99.244019 160.720840 17.464453 3 1
132.167710 182.407290 19.508518 37 1
1.599835 95.417686 104.373150 9 1
34.790699 220.169420 110.936770 22 1
25.463581 92.715202 -5.697839 19 1
12.391947 250.984650 106.125400 22 1
-78.919350 212.361500 49.684010 28 1
60.234619 195.272380 70.199211 21 1
10.891217 267.857360 57.133194 26 1
53.212914 225.060170 95.215370 22 1
-74.639626 241.665080 63.293892 29 1
2.541562 101.112370 79.945305 16 1
33.357853 237.857070 101.701920 22 1
-33.624889 189.200470 113.322400 30 1
52.497238 79.293434 61.696114 11 1
-67.526955 237.361880 14.748847 27 1
54.340969 86.278793 21.740835 13 1
54.116726 184.846920 70.201385 21 1
-1.280910 -0.451354 -2.251160 0 0
83.544754 129.715550 -87.860893 35 1
65.994217 211.428700 34.988102 21 1
10.844178 57.356441 1.620814 0 0
46.338215 53.286354 -61.605038 4 1
27.869894 236.001680 50.578678 26 1
23.902975 264.533420 72.047234 22 1
-7.392360 97.678154 13.071373 0 0
-23.434652 259.719360 46.157761 31 1
-42.108231 121.283980 -13.028230 34 1
-126.136730 168.281770 24.200335 2 1
-0.748545 151.631300 -52.289970 1 1
-118.287300 209.789600 85.819374 24 1
5.378226 162.263990 -42.761623 1 1
-43.147655 254.923400 90.591415 31 1
53.819931 159.161510 -42.439602 36 1
-90.131874 218.153550 102.613640 24 1
91.536179 222.522920 26.497799 37 1
19.645325 125.086870 -24.132507 0 0
-50.461655 217.124680 52.724281 28 1
-107.695490 158.791260 -11.219316 39 1
-0.646215 124.840080 14.104468 0 0
115.551060 208.029650 10.472575 37 1
-5.041739 179.377780 21.491726 0 0
-14.634085 111.709340 44.954597 15 1
-51.190140 223.104050 70.177681 30 1
-59.522846 233.709460 65.081329 29 1
-52.269455 247.086330 54.157612 31 1
28.214148 252.650380 93.554398 22 1
-150.268360 154.258320 3.565305 2 1
-7.072497 146.663250 13.813527 0 0
-104.869500 206.899580 102.634760 24 1
41.261539 240.799770 88.702309 22 1
65.134613 209.085250 2.503166 38 1
-80.049904 151.449510 4.310185 0 0
32.579483 43.901501 -59.817070 5 1
47.232445 92.827385 -33.795216 8 1
-161.595230 142.413530 13.825781 2 1
25.712805 262.659330 58.225269 26 1
-82.535667 170.810620 -19.822411 39 1
64.694534 103.850450 -15.559023 7 1
69.087776 102.008940 -22.055288 7 1
-116.067950 148.776990 22.429802 3 1
-95.028702 225.314060 75.428146 29 1
63.564137 95.512466 -11.651600 17 1
71.732246 148.664510 -81.098022 35 1
-6.910513 129.354280 14.135002 0 0
-132.882570 164.550370 18.078964 2 1
-28.825169 241.462140 94.740448 30 1
-42.266560 119.324120 -44.185699 12 1
-1.740934 99.267883 36.564941 20 1
-47.954960 243.533660 45.873260 27 1
-6.016092 197.075670 19.979893 0 0
-81.022987 222.851200 43.406052 28 1
-7.921541 84.687775 10.640059 0 0
34.714867 231.678090 52.874817 26 1
-102.142670 164.383160 5.502823 3 1
-12.107923 220.996230 28.427067 0 0
48.539368 244.376530 76.284767 22 1
38.337688 165.247510 -54.280552 36 1
51.458065 164.592900 -29.295126 36 1
-84.489723 188.933360 24.296658 28 1
63.437191 199.989490 -11.965597 38 1
48.436409 94.996452 -6.910570 17 1
-53.809166 131.715470 3.467826 0 0
-106.488830 154.080380 28.811167 3 1
-6.270830 133.918030 9.414903 0 0
31.085129 250.010850 79.349678 22 1
45.420128 93.417259 39.237213 11 1
-20.315483 245.347060 83.492714 33 1
-30.721989 257.206850 50.304337 31 1
43.339859 102.831360 -17.896053 8 1
31.965664 63.871513 -49.320999 5 1
113.261470 201.673030 38.810211 37 1
15.473270 135.596650 -69.599358 1 1
-0.918228 143.099470 19.846590 0 0
-48.630898 198.957030 104.540340 30 1
-93.261322 183.490250 38.312332 28 1
-98.414650 229.704280 79.125000 24 1
-39.753620 239.835390 80.294998 30 1
