-71.833984 202.387390 -31.871237 21 1
-4.702723 235.351070 42.224174 14 1
2.432297 90.369179 21.021709 25 1
11.762335 10.537045 -13.240658 33 1
-54.941685 53.851295 -7.967761 6 1
10.025947 227.818150 31.903553 10 1
-0.087379 59.863537 109.510790 1 1
28.391344 197.007680 56.524593 10 1
-104.575980 203.471100 -14.321869 5 1
-55.972946 207.075350 -17.418930 21 1
-63.251934 179.516300 -62.862705 21 1
-38.219612 113.752430 -60.544724 29 1
-0.324368 75.296364 5.213945 0 0
-27.031338 72.975342 61.902271 30 1
-40.651760 121.520110 -112.296280 12 1
-39.750694 47.073090 70.499855 30 1
-52.700600 221.116470 37.616371 18 1
-19.719460 222.240110 24.751266 14 1
-10.420454 84.847328 -27.208918 22 1
-76.852470 207.739270 -13.375999 17 1
-9.793042 74.412308 -41.726654 22 1
-11.784039 37.736923 1.833753 0 0
68.703156 167.679780 5.461139 13 1
52.422318 169.523220 73.831261 11 1
22.525578 210.432430 52.838127 10 1
-1.687021 14.108262 8.268505 32 1
-27.034008 217.458940 70.355698 14 1
26.983250 52.419315 81.541344 31 1
-87.819138 193.256390 12.134539 17 1
-65.447830 90.889206 25.027046 4 1
16.348230 95.468224 -73.156113 23 1
-75.361862 204.731480 12.631100 17 1
-73.366234 205.609300 1.910856 17 1
8.043191 74.055984 86.339882 31 1
-46.050842 108.043270 -49.355728 29 1
-122.723080 193.216710 -15.597586 5 1
7.217377 77.128670 -4.526637 0 0
-42.659649 198.521040 -38.872952 21 1
41.736607 183.002230 15.680255 13 1
-126.762840 179.441280 -34.759724 5 1
-3.798703 67.353142 22.293934 0 0
-91.949295 194.694200 6.310728 17 1
59.174801 195.996410 43.239853 13 1
-19.322184 76.213989 0.208326 27 1
-9.208450 239.385700 68.524597 9 1
-33.336529 208.738270 -25.010765 19 1
33.434067 161.440990 83.140770 11 1
0.628393 55.288338 8.479258 0 0
41.108078 194.176150 38.332989 13 1
-13.384084 225.167140 33.520092 14 1
-12.422214 137.514400 -59.796345 0 0
-147.318540 177.140080 -28.208107 5 1
-111.651720 205.004750 -39.154472 5 1
5.619023 114.733440 16.468828 0 0
-61.491783 212.871110 -15.154831 20 1
-10.010180 79.972176 -36.090816 22 1
57.831421 187.015010 13.534658 13 1
-0.619749 67.633324 31.854908 0 0
-34.512432 116.076830 -66.803032 29 1
33.159916 61.383671 56.525635 31 1
-4.475475 228.195910 50.133957 10 1
14.172625 113.618410 -80.332390 23 1
21.797047 49.647919 -22.112757 0 0
-42.135773 192.694080 -38.580559 21 1
11.892136 214.064000 60.965721 10 1
-6.423793 203.773960 93.288147 9 1
26.274244 62.535183 62.148582 31 1
-4.275047 61.542252 3.999416 0 0
51.637981 175.792660 1.872245 13 1
30.905878 181.337570 52.026989 11 1
-34.646595 42.660618 81.111153 30 1
27.268995 69.975143 57.385708 31 1
-28.308899 127.060970 -77.582550 29 1
57.147076 156.121200 75.379204 11 1
-93.813828 207.344530 -20.957220 5 1
-111.338100 201.526630 -13.341968 5 1
46.449734 174.308850 4.721430 13 1
2.706723 50.332687 115.467320 1 1
57.389900 162.450130 72.110023 11 1
-6.273561 186.763110 22.491850 0 0
-55.107086 220.473500 32.660973 18 1
-50.135391 188.182070 -49.635380 21 1
-101.704950 208.388870 -24.308002 5 1
22.495989 209.133650 29.636084 10 1
-45.129597 214.176770 -14.122207 20 1
9.577078 112.629140 -86.674263 23 1
-52.555046 93.845177 -60.350357 29 1
-90.228340 83.307457 11.483295 3 1
-27.961737 133.429900 -71.336578 29 1
-15.804180 175.004710 11.908886 0 0
-96.625000 179.635310 12.390834 17 1
-7.835550 229.566220 80.478653 9 1
5.501518 92.623718 32.036583 15 1
-84.199455 185.977420 25.314888 17 1
7.649365 234.552720 66.752571 9 1
-117.886950 201.225740 -11.314144 5 1
3.743410 76.440048 0.270403 0 0
-60.155857 49.013195 6.052532 2 1
-34.038269 135.492870 -93.160385 12 1
-36.138977 134.414140 -99.702629 12 1
-1.393801 212.271840 90.603889 9 1
44.157681 164.452220 82.097435 11 1
-27.510485 134.048170 -45.557388 29 1
12.635627 8.050370 23.244015 32 1
-27.684135 217.111310 42.393536 14 1
4.570475 10.422390 -20.232990 33 1
-61.571564 44.896870 -0.587379 34 1
21.504230 70.846130 57.452320 31 1
-12.513518 86.806587 -7.735319 26 1
-1.664858 122.451020 -50.831810 0 0
20.090727 75.909889 42.239506 15 1
25.280161 178.734190 33.099613 13 1
-20.499981 78.152931 62.751602 30 1
-54.106113 52.632179 -14.144734 6 1
9.838041 230.262880 48.141266 10 1
5.604065 205.960540 93.482376 9 1
8.407057 213.329940 80.674652 9 1
19.751675 72.550972 22.334116 25 1
-37.672665 222.121350 33.756084 14 1
20.233204 60.665794 86.036041 31 1
-125.557980 199.535030 -8.826858 5 1
13.286496 10.024448 4.264161 32 1
58.939426 158.481280 -0.007464 13 1
-10.047492 235.926800 55.638546 14 1
-89.027733 198.622060 3.411530 17 1
-38.235310 38.529968 79.324669 30 1
-70.516396 196.258190 -32.949219 21 1
-7.771070 125.066460 -55.089043 0 0
-70.510071 190.862900 -39.622231 21 1
-56.961720 37.168003 21.677908 2 1
-12.078786 78.255890 86.658882 1 1
-70.640961 212.751210 -24.722889 20 1
51.928795 191.862640 48.901306 11 1
-135.742900 187.583450 -23.916262 5 1
-20.379801 229.317790 30.407228 14 1
54.516735 170.398530 66.519272 11 1
-18.146761 223.045610 85.943924 9 1
-0.327226 89.283295 25.335327 25 1
63.301762 182.597640 29.049881 13 1
-10.887841 214.211900 86.607323 9 1
-3.488111 9.932792 4.271991 32 1
-64.974648 202.224720 -32.181980 21 1
-44.919304 215.945430 48.373024 14 1
0.914217 228.141300 37.289196 10 1
-124.992450 200.812290 -14.154078 5 1
13.703070 65.662033 77.149010 31 1
20.039711 214.990950 45.700523 10 1
-1.878514 133.559810 -71.618790 23 1
35.310753 160.051480 26.909672 0 0
-63.271225 204.704180 -4.120853 21 1
-23.432499 146.009320 5.266704 0 0
-55.750622 82.446571 -27.064213 8 1
-44.987907 214.697590 -24.237644 19 1
-68.132332 196.024490 33.182781 17 1
-2.179016 51.465725 6.020066 0 0
-30.111599 228.757720 29.458025 14 1
-2.435132 113.891210 -45.825977 0 0
-57.861160 182.712100 -57.103661 21 1
-88.091782 179.512940 13.960411 17 1
-4.591004 74.954071 77.512184 31 1
-13.193631 43.679649 120.164300 1 1
-18.861277 80.589668 3.335430 27 1
23.551075 71.346497 62.442196 31 1
-45.590008 48.629135 67.113182 30 1
-2.964792 71.712700 97.935959 1 1
25.960859 57.029800 77.833786 31 1
19.603701 1.419599 24.811285 32 1
47.349617 193.888730 27.925030 13 1
52.606224 191.275470 20.603287 13 1
-44.702721 185.791440 -50.296085 21 1
7.705803 208.290880 84.975471 9 1
29.603626 178.508610 67.237625 11 1
-18.718388 54.800537 2.075749 0 0
13.483467 209.223860 49.322502 10 1
-12.521523 80.312813 65.740723 30 1
8.938012 70.272682 75.716431 31 1
-12.376878 79.608253 6.340475 0 0
-50.185513 98.180077 -58.127823 29 1
52.786293 159.216630 -3.061023 13 1
47.309200 188.193740 42.731064 11 1
-0.647522 40.242172 4.971676 0 0
-28.263462 217.151500 37.014671 14 1
-16.778988 230.057190 61.171703 14 1
-83.510826 179.175430 44.435051 17 1
-2.518094 240.292450 60.396580 9 1
6.557121 232.133010 56.986713 10 1
-0.569628 55.066113 0.172864 0 0
43.959915 190.283810 10.405687 13 1
-48.166370 82.870041 -46.908047 8 1
-10.924061 82.568481 -10.157559 26 1
-58.606976 197.647000 -3.605566 0 0
-38.859261 91.333954 -32.883598 8 1
-17.692104 183.299450 11.781915 0 0
-102.803960 208.549670 -18.298138 5 1
-23.997366 232.695280 37.238205 14 1
-29.262796 124.595570 -70.096252 29 1
-53.843376 46.518082 7.781954 2 1
-23.622849 67.680984 75.222473 30 1
-38.253719 75.506218 -5.941412 24 1
-1.494239 55.003765 112.806690 1 1
-62.142773 72.607307 -12.858093 7 1
6.792944 118.870030 -85.348557 23 1
-5.554115 80.419060 74.547623 31 1
27.708664 192.775330 29.169067 13 1
-18.821150 85.229134 -27.239317 22 1
-14.214657 79.225014 13.710601 27 1
-53.797398 220.539250 17.100828 18 1
11.788686 225.192870 76.909935 9 1
28.050865 155.433060 23.595407 0 0
-29.330946 214.847720 -12.197005 19 1
-47.884064 48.488438 -19.173389 6 1
-55.966171 81.434013 -32.661484 8 1
-54.976002 43.038982 -16.485474 6 1
-43.661186 41.275513 70.828323 30 1
-73.803925 32.247330 -4.123620 34 1
-59.434605 199.945740 -17.396372 21 1
11.897434 227.168400 40.728256 10 1
55.154205 177.623660 28.147881 13 1
-23.143143 216.990750 13.598974 0 0
-43.827736 189.879270 -43.463333 21 1
-59.694454 91.222717 2.751115 7 1
8.810751 77.767937 63.252251 31 1
-0.928714 69.926010 53.854916 0 0
-55.879402 215.327820 14.481868 18 1
-63.542038 206.007600 -21.440430 21 1
-101.537610 70.538620 20.434504 3 1
21.641457 65.129578 64.023567 31 1
-74.730080 87.749870 21.562569 4 1
-42.977474 216.176960 40.898842 14 1
-2.050518 87.166908 2.865631 0 0
-43.303177 86.977554 -27.610786 8 1
-43.367001 193.012370 61.166290 14 1
1.899165 74.334785 94.886101 1 1
-55.777855 192.909680 -42.670399 21 1
-23.752394 63.862999 103.575130 1 1
-4.144689 95.095139 32.124012 25 1
0.282658 26.942204 -0.190280 0 0
-19.139309 227.581480 17.403057 0 0
-35.435375 221.302690 -7.280500 19 1
-31.954388 128.942180 -63.051960 29 1
-53.387604 184.054090 -54.885918 21 1
59.502819 164.660690 1.811739 13 1
-8.049376 197.543090 27.289631 0 0
41.710320 185.046970 56.486076 11 1
-61.783245 215.197620 33.976749 18 1
2.793638 66.963997 102.333270 1 1
-43.671288 104.659520 -127.979930 12 1
-117.092640 200.382640 -37.178078 5 1
74.825287 196.900100 47.247631 13 1
-40.866978 59.832745 59.546196 30 1
62.844749 175.524960 7.849321 13 1
-42.932137 134.823850 -93.401154 12 1
-67.364105 207.439040 -7.467068 21 1
-1.670364 103.627740 5.406456 0 0
24.071350 195.725450 45.294064 10 1
-65.908669 182.591660 -54.760757 21 1
63.265781 178.068910 53.339458 11 1
-80.981018 90.302994 9.478469 3 1
-18.589474 139.219730 -82.234619 12 1
-65.465065 203.606140 2.195896 17 1
-35.701572 113.643530 -79.406815 29 1
11.641100 49.486416 116.008610 1 1
-33.065086 139.276950 -84.100029 12 1
-37.549156 115.935410 -121.940390 12 1
-2.466530 227.125820 73.246956 9 1
-98.910942 167.480580 31.618952 17 1
13.767458 196.063830 97.778763 9 1
25.014666 188.126540 32.038273 13 1
-20.069315 210.635560 16.685764 0 0
-1.393809 62.391369 8.300448 0 0
39.640526 173.387660 31.540070 13 1
12.448828 84.789261 28.836412 25 1
4.551734 81.292702 -0.846054 0 0
-2.750125 16.101915 -17.554979 33 1
-114.581470 190.886690 -34.215176 5 1
34.484062 190.877230 33.664795 13 1
43.995213 194.952300 19.594528 13 1
-29.349331 140.634690 -88.368088 12 1
-9.027814 222.072480 86.976822 9 1
3.373831 216.928830 57.641376 10 1
-27.440100 157.412540 -1.264422 0 0
25.956032 144.662510 22.546268 0 0
-67.467979 92.857468 14.108366 7 1
-44.730663 183.678090 -55.047348 21 1
2.083635 233.540910 66.792671 9 1
47.102371 180.676240 2.959916 13 1
-0.070557 74.316757 -2.402558 0 0
-11.962444 225.142000 38.780258 14 1
-128.286070 193.618850 -12.551149 5 1
-33.921558 85.177170 -10.590800 24 1
-85.093674 209.799680 -6.875938 5 1
-73.379257 200.167800 22.629902 17 1
-101.034910 69.118721 9.393192 3 1
33.775665 181.486770 19.910738 13 1
-13.324683 234.435240 74.292725 9 1
-74.993217 206.863100 -22.482050 21 1
3.272917 83.252922 17.097685 28 1
15.686166 76.973373 48.647980 15 1
-73.375397 82.762383 26.387844 4 1
3.970001 83.019020 66.659622 31 1
-8.072900 113.100230 6.883348 0 0
-33.202408 119.199650 -72.863426 29 1
-18.461699 132.005950 -114.469690 12 1
-143.896550 176.488970 -34.794811 5 1
13.076503 118.967100 -68.003418 23 1
3.276109 233.639280 48.469582 10 1
-30.459404 216.916240 26.329987 14 1
5.409786 216.595630 85.208008 9 1
-22.402515 96.060707 22.354939 0 0
-60.253246 196.899890 -9.245529 0 0
6.160412 222.025180 61.004913 10 1
-80.920868 180.900820 31.955395 17 1
-3.038465 228.150310 80.428436 9 1
-71.162903 36.779396 -12.570368 34 1
6.258799 200.959240 92.747131 9 1
-49.459328 35.000641 72.663971 30 1
-20.959394 192.291550 15.493811 0 0
7.071903 127.266360 -68.816002 23 1
-20.373672 86.162346 50.502136 16 1
-68.981697 200.743590 35.302101 17 1
62.633060 182.135310 23.388620 13 1
25.605316 190.275280 53.102840 10 1
42.821503 177.405490 71.043587 11 1
36.894909 185.832000 64.247780 11 1
-6.573063 224.604510 31.952143 0 0
-14.764060 133.438170 10.173094 0 0
-121.293400 191.125600 -45.265011 5 1
-27.757128 134.552540 -100.016780 12 1
-43.921638 107.123180 -58.916183 29 1
-64.077469 202.798900 -9.585598 21 1
-132.155760 179.959400 -42.376644 5 1
-30.976267 122.535840 -76.983208 29 1
-47.186607 128.935590 -97.245041 12 1
-53.353096 185.551360 -42.949730 21 1
-52.137753 198.879640 -35.301453 21 1
-0.385021 234.006590 72.668381 9 1
0.415510 215.149780 82.702736 9 1
-64.128319 83.310600 -2.401590 7 1
-0.962266 199.886430 95.271957 9 1
-65.058113 39.553715 -2.487346 34 1
4.707430 120.300960 -90.516792 23 1
41.618595 183.011990 26.053642 13 1
12.822761 205.265370 86.316185 9 1
-87.197052 182.440610 28.985794 17 1
-35.914406 213.007950 -25.621136 19 1
-137.868560 173.135760 -41.954597 5 1
-20.766670 77.267456 -46.211067 22 1
64.919121 187.100400 26.625566 13 1
-64.452446 202.243330 26.672312 17 1
48.351330 184.097240 54.798214 11 1
-34.088108 210.936200 43.955933 14 1
-35.433228 114.920280 -74.545418 29 1
1.041890 57.845860 4.268739 0 0
12.301757 214.067690 33.938786 10 1
-36.904156 51.072227 71.899040 30 1
-45.956776 189.795590 64.155312 14 1
32.149422 185.833830 38.891006 13 1
42.182682 184.820360 36.862827 11 1
8.834800 75.846954 81.733246 31 1
43.270557 171.912720 69.870178 11 1
-64.064636 202.056820 20.813433 17 1
7.497788 71.072411 99.606560 1 1
-64.285233 43.047676 -10.786460 34 1
-59.784595 194.344390 -26.302517 21 1
-91.285919 170.074070 29.563185 17 1
-26.386482 134.308150 -65.693466 29 1
-100.098230 175.191880 23.097645 17 1
51.342968 173.905520 64.729065 11 1
22.531044 202.646680 58.384998 10 1
-37.167248 84.991745 -16.967310 24 1
29.385515 65.740433 60.068748 31 1
-30.588926 125.928600 -112.631740 12 1
51.441166 179.499160 58.705063 11 1
-7.822358 61.363495 107.993420 1 1
-10.928730 235.035100 46.389832 14 1
-73.640114 193.771740 4.422260 17 1
-102.749500 200.943890 -18.120138 5 1
-14.948865 74.048439 71.273651 30 1
-5.978645 70.458412 2.787656 0 0
46.186832 178.169170 8.174067 13 1
12.460829 80.781723 9.385496 28 1
-135.286180 175.907520 -28.465834 5 1
2.228095 17.440687 -6.129599 33 1
-88.882202 213.562990 -15.085665 5 1
-77.452217 78.701233 30.597473 4 1
1.091026 75.734268 71.049141 31 1
-45.659546 78.428070 8.501079 0 0
-60.687252 187.805250 -40.375214 21 1
15.391129 211.941850 27.570938 10 1
0.521612 119.091550 -77.001343 23 1
-36.825245 121.015560 -67.179703 29 1
-41.982315 219.335830 32.038841 14 1
-14.970007 139.235550 -74.396523 29 1
-60.560333 77.057709 -40.662758 8 1
-14.440957 174.720790 16.604298 0 0
5.982596 129.098010 -82.080940 23 1
-59.301537 84.775681 -4.370255 7 1
26.122551 201.391720 50.264099 10 1
-70.295784 191.773910 31.847576 17 1
65.268257 173.551070 57.524406 11 1
-16.137211 84.630104 45.587452 16 1
10.335155 224.948460 71.959335 9 1
-73.598129 78.426529 -9.449672 7 1
-2.435892 81.087959 -10.243632 26 1
-67.037498 179.514040 -59.012733 21 1
4.092547 78.102562 77.320297 31 1
-125.803930 190.751740 -37.108276 5 1
37.898617 188.314650 30.724554 13 1
-71.518692 39.269588 1.581137 34 1
-73.417671 205.925570 7.758934 17 1
-13.038059 161.053410 15.335160 0 0
-16.952061 86.332474 53.991993 16 1
-23.221628 229.619460 53.642788 14 1
41.154945 177.086290 0.408130 13 1
-46.733353 196.382340 -40.490658 21 1
-77.902153 209.008260 -19.207661 21 1
-11.706335 166.273420 13.879818 0 0
-14.036387 79.635994 -33.367405 22 1
6.226649 11.169398 4.084273 32 1
-37.167469 194.587070 -43.744419 21 1
-47.935680 211.952710 64.836533 14 1
35.957516 176.046720 27.987265 13 1
59.748009 180.176620 8.967784 13 1
-27.326500 90.906235 -35.470909 22 1
51.093266 180.487880 27.928177 13 1
-36.028282 122.581340 -77.918228 29 1
-41.818737 108.394420 -74.227066 29 1
-19.128937 214.567280 89.758003 9 1
22.043749 210.612240 59.898319 10 1
-60.585697 218.486620 16.646845 18 1
-77.816704 210.234910 -30.753523 20 1
-57.777836 213.110500 -18.339306 20 1
-25.865383 230.161930 46.962299 14 1
-31.693600 71.130928 57.302235 30 1
-129.194560 194.002620 -21.190228 5 1
-30.224920 79.033279 -22.875923 24 1
-70.633965 74.565071 -11.275127 7 1
-10.048774 125.049070 11.161162 0 0
5.706604 136.396380 -61.849808 23 1
-32.118469 213.927760 -21.632362 19 1
-71.044624 45.554573 -0.401582 34 1
-127.205310 180.269870 -40.748158 5 1
-61.512878 182.172970 -52.719151 21 1
-6.734388 132.123200 -61.497032 0 0
-57.624748 206.051850 -9.945533 21 1
-9.450410 133.110720 9.587183 0 0
-68.894447 200.283950 -24.992647 21 1
-133.281850 184.334720 -32.812099 5 1
-78.961662 94.826363 9.186471 3 1
-57.130619 49.576431 1.517526 2 1
-25.256691 217.106700 58.391945 14 1
-70.740501 39.200508 -8.104173 34 1
-21.289339 68.292900 80.861427 30 1
-59.334476 52.966461 -2.560411 2 1
-63.355373 211.547500 2.562368 17 1
-80.050362 180.821820 39.435814 17 1
-42.417778 51.614735 60.793236 30 1
33.172607 51.023689 62.307320 31 1
21.589964 203.815090 34.168644 10 1
-49.236263 183.227290 -57.384022 21 1
4.030001 87.771645 27.828873 25 1
21.225689 211.134340 39.347534 10 1
18.939930 68.708000 46.971333 15 1
61.652752 165.233280 67.809357 11 1
7.006836 82.867729 47.836143 15 1
7.791081 74.516457 12.355431 28 1
-101.365690 202.160060 -26.585487 5 1
6.213205 69.130692 -8.342422 0 0
-5.121493 3.079389 0.589501 32 1
46.658413 186.377400 26.321804 13 1
-37.690193 121.844670 -57.409721 29 1
1.665228 220.912060 77.842346 9 1
-4.383399 76.635033 -4.034456 0 0
3.530488 79.123367 14.407766 28 1
-19.504585 199.055850 14.104788 0 0
49.770821 146.772290 84.033157 11 1
-47.040020 43.558578 -4.864237 0 0
-48.629810 218.882800 -3.918224 20 1
10.005947 90.405128 30.938042 15 1
-17.732275 72.088554 11.891000 0 0
-37.230934 165.574920 -3.443728 0 0
-36.730633 112.899950 -70.264191 29 1
-43.863136 216.965650 -8.160309 20 1
-26.250891 124.614130 -118.673580 12 1
-8.026769 72.232613 -15.349205 0 0
15.712606 103.807610 -73.655815 23 1
59.260109 177.140780 61.997604 11 1
-139.436200 183.245150 -26.380657 5 1
-69.447556 185.820190 -47.233185 21 1
1.041326 39.923286 -2.243359 0 0
-63.455643 38.480194 16.282097 2 1
30.375359 171.980790 73.234222 11 1
-7.691880 204.644260 98.549927 9 1
-57.717937 188.027940 -48.553799 21 1
-26.256483 86.826683 46.101368 16 1
-37.170227 103.753320 -127.895360 12 1
-28.108681 229.752500 39.750168 14 1
-63.582729 210.302290 21.214010 17 1
-65.311836 48.257793 1.398830 2 1
22.036390 200.840100 41.594166 10 1
69.269180 200.788540 43.814651 13 1
-22.332407 74.318382 65.150223 30 1
22.881956 67.331718 69.230583 31 1
-61.620575 87.899063 33.522644 4 1
-80.374611 185.457060 13.171366 17 1
13.711530 110.210780 -69.799522 23 1
-73.425690 191.605590 8.690716 17 1
19.395535 120.085040 -75.236862 23 1
-83.337280 89.915314 2.206714 3 1
-6.887125 12.482224 1.813321 33 1
0.876561 208.324200 87.286385 9 1
-38.233669 137.141590 -91.244499 12 1
18.138216 111.548360 -74.284897 23 1
-1.201779 70.594345 5.322112 0 0
6.157971 221.013950 35.818829 10 1
-48.022568 220.223820 28.771589 18 1
-47.267059 101.335720 -60.225708 29 1
11.743635 15.385859 5.146750 32 1
-45.302322 202.137470 50.282887 14 1
-47.482529 179.687990 -6.270508 0 0
37.462597 188.291820 10.921117 13 1
-48.450573 185.233960 60.257439 14 1
-47.551422 122.351450 -107.596230 12 1
13.322469 79.213394 67.096245 31 1
3.729975 12.207701 22.444872 32 1
9.094530 217.634290 77.050858 9 1
25.549450 201.428970 32.784050 10 1
37.169514 158.586000 81.328796 11 1
28.884634 50.547634 76.640495 31 1
48.648178 164.236280 74.315002 11 1
-98.029068 208.273990 -13.930075 5 1
-130.168660 175.746720 -33.889107 5 1
-51.916378 51.726940 2.284363 2 1
15.429317 222.637590 72.476730 9 1
17.437698 76.357780 20.175430 25 1
-43.683273 103.825900 -74.024429 29 1
-45.984806 198.887420 45.098495 14 1
-83.263351 86.123116 10.315033 3 1
-61.849957 95.372849 22.195641 4 1
-58.728294 49.939632 -13.201324 6 1
-7.438815 133.118820 -52.231613 0 0
-38.031311 48.194824 79.920517 30 1
55.562923 151.518770 77.307899 11 1
-55.059391 86.167976 8.973067 0 0
49.218071 191.090870 16.830629 13 1
-0.420767 81.519028 70.015015 31 1
-54.207584 49.500690 -5.539268 6 1
-41.208801 221.024490 4.104003 18 1
26.492010 187.601380 41.605213 10 1
-56.077320 87.029007 -1.645473 7 1
-67.819260 215.300250 -11.599903 20 1
44.345253 169.948750 77.838547 11 1
-51.058414 188.184340 -39.745327 21 1
-70.946831 192.701490 39.853184 17 1
-18.814318 127.704150 -122.463700 12 1
-90.703644 80.803520 17.385284 3 1
43.546070 154.091420 85.289940 11 1
-74.371567 207.214420 -3.629701 17 1
4.011577 116.835980 -80.383873 23 1
0.541458 14.001722 15.172268 32 1
-38.219193 211.315120 -30.312267 19 1
-14.611897 215.708440 92.296074 9 1
-17.613445 73.561073 93.522400 1 1
-45.325039 76.601906 -8.492860 24 1
-17.136860 140.206440 3.988688 0 0
-54.359699 40.201645 -20.216537 6 1
10.058872 64.150581 105.849040 1 1
-2.219660 111.161250 8.099695 0 0
-50.138016 88.873268 -22.627171 8 1
53.753933 178.955690 5.170334 13 1
-16.069172 81.059525 -13.059387 26 1
21.347477 121.730030 -62.873764 23 1
-74.956078 70.768723 42.648994 4 1
-4.116650 127.689360 -58.519093 0 0
67.031410 178.299730 16.032635 13 1
-88.487007 182.138410 9.126634 17 1
-5.607593 133.455930 -79.185448 23 1
6.702851 6.901631 24.634026 32 1
-47.843697 201.495160 -23.662430 21 1
-28.636501 132.557970 -61.266560 29 1
-63.604233 50.385014 -3.211569 2 1
5.394840 86.955544 36.978897 15 1
-15.510540 57.714046 109.305750 1 1
-70.522430 91.189774 17.593458 4 1
-34.498257 126.500340 -57.466850 29 1
61.896061 190.790390 17.791174 13 1
-7.604362 81.644814 -5.630939 0 0
-1.355098 71.347466 61.779366 0 0
8.086026 73.972954 18.537876 25 1
0.568954 207.689620 93.499733 9 1
14.378857 72.378807 49.145489 15 1
-9.044762 142.565480 -67.086479 0 0
-64.503632 212.833210 -24.640198 20 1
-38.054913 138.385650 -86.671928 12 1
47.334450 174.910250 70.968353 11 1
-57.456833 89.295357 6.425364 7 1
21.757175 209.329060 79.741669 9 1
-30.254435 138.279160 -93.806610 12 1
-29.922787 129.605270 -47.247776 29 1
-76.882080 186.097670 22.074673 17 1
73.247452 174.170700 12.099046 13 1
-101.239790 173.714420 18.004610 17 1
-5.648245 17.898081 6.845155 32 1
37.906380 186.683150 53.196075 11 1
-16.741680 224.899000 41.573761 14 1
3.591191 228.155520 77.906036 9 1
-12.000891 229.734160 75.827545 9 1
9.929908 75.524742 -11.762899 0 0
-41.562668 223.298400 42.641815 14 1
-44.718361 87.514442 -41.666248 8 1
-10.444374 90.491493 43.200352 16 1
20.554630 212.154280 21.287746 10 1
-28.657475 129.550890 -54.080357 29 1
-30.628090 211.516910 60.639721 14 1
-54.835026 77.423798 -46.366604 8 1
-14.110563 157.584150 12.394853 0 0
18.780365 140.597120 18.866539 0 0
14.777180 118.397700 -81.722725 23 1
-65.517960 208.022540 -11.715119 21 1
28.535942 171.420230 77.893532 11 1
-57.543541 180.153610 -61.063026 21 1
42.205765 150.661940 82.288666 11 1
-86.234489 174.529940 37.178867 17 1
-27.995861 226.294570 24.034834 14 1
-62.734253 217.496340 -6.480102 20 1
-118.580920 198.094960 -41.937622 5 1
20.107187 217.294340 74.997795 9 1
-94.658150 208.253570 -25.518496 5 1
17.497528 80.649475 39.668934 15 1
-9.095405 222.193050 81.683731 9 1
-97.423317 177.498470 17.772415 17 1
-75.734222 94.736023 17.034746 4 1
-35.920235 92.971642 -28.493973 8 1
8.238426 56.147652 111.440940 1 1
-2.875788 88.140503 7.347241 0 0
40.724087 193.172470 13.137449 13 1
-36.416142 207.204820 62.331417 14 1
19.775572 112.037480 -65.540390 23 1
-25.582758 82.945694 -38.604485 22 1
-90.203026 189.426470 3.615586 17 1
-128.702700 189.940930 -30.638882 5 1
-58.476521 41.726891 8.921817 2 1
-5.045476 230.801240 43.704464 10 1
1.223624 48.538277 4.795164 0 0
-79.544823 192.731170 21.770098 17 1
-17.590761 72.801445 76.955963 30 1
-48.203407 53.389637 -14.875611 6 1
-124.934400 180.580600 -26.742022 5 1
-55.507725 221.634050 -5.911958 20 1
58.407242 167.614320 72.496384 11 1
-69.595078 184.524550 -52.699619 21 1
53.040272 184.732220 50.263256 11 1
-24.870138 72.350426 57.231548 30 1
-21.576355 61.073627 83.509331 30 1
20.253611 65.691673 78.961143 31 1
1.144676 134.743480 -68.099449 23 1
-2.943919 75.812729 88.918037 1 1
-20.294981 78.716011 12.144299 0 0
11.553276 115.199510 -76.847069 23 1
40.676941 190.962100 24.290874 13 1
-25.207548 218.567890 52.646603 14 1
30.225655 56.209770 69.582077 31 1
5.450785 115.770160 -71.080002 23 1
-51.534348 204.645720 -18.725496 21 1
-60.807480 208.899110 10.367010 17 1
-45.785202 220.041840 14.287997 18 1
47.175297 186.260770 50.537899 11 1
-15.966652 61.248081 82.417824 30 1
-74.265488 188.777240 18.176609 17 1
-35.719921 217.295140 0.207991 19 1
-25.556290 73.234459 5.110411 27 1
27.701284 69.658173 52.722462 31 1
25.853226 67.503304 63.787689 31 1
-29.634352 119.402760 -120.475460 12 1
-4.714412 128.769170 -54.066113 0 0
-59.798573 33.003193 -26.252768 6 1
-67.016418 193.566280 -40.976933 21 1
49.134678 177.210020 67.104240 11 1
-58.560528 214.661220 -10.064561 20 1
-22.275785 207.124690 14.622653 0 0
-5.080532 97.499931 7.968826 0 0
-30.048243 214.625060 45.484138 14 1
-58.966522 196.218430 -38.517895 21 1
-22.777584 84.234680 17.312658 0 0
-39.670963 212.043550 5.828402 19 1
-52.601814 46.165989 -13.833099 6 1
-107.490320 196.564590 -20.896425 5 1
-17.437281 234.596910 38.075283 14 1
-42.379406 50.850014 70.175133 30 1
-43.840057 215.675130 57.690712 14 1
-43.176403 109.941310 -124.149700 12 1
-12.152719 77.806015 75.830933 30 1
-25.077499 87.236252 -24.684549 22 1
68.920212 198.073730 52.771744 13 1
-82.922157 183.602160 41.737179 17 1
-31.486084 78.717590 -2.873449 24 1
-98.321205 165.970600 37.441170 17 1
-5.134191 90.792389 4.085583 0 0
-43.745441 44.418625 67.450081 30 1
-138.350890 181.390530 -22.303341 5 1
-46.525131 220.048450 -10.314124 20 1
-31.561068 129.171590 -74.867027 29 1
-36.786068 206.670730 56.047863 14 1
-8.009234 48.873238 114.945930 1 1
-49.526134 102.639390 -50.669750 29 1
-4.548524 37.782764 5.645571 0 0
8.035293 196.533570 99.290543 9 1
2.449310 106.027450 10.012912 0 0
-75.955833 214.568160 -13.040952 20 1
-81.730927 91.041306 17.047771 3 1
-15.569065 222.856860 16.069471 0 0
-21.299982 220.393330 16.649994 0 0
8.965938 12.691320 12.467382 32 1
-3.637259 107.879330 4.632469 0 0
-31.753113 227.224300 38.202477 14 1
27.268429 180.484270 29.193323 13 1
-48.756187 200.817210 -32.260010 21 1
-31.379007 49.635357 86.473808 30 1
-7.541601 121.795170 9.109503 0 0
-8.246078 190.473370 24.342707 0 0
-1.083255 22.061108 -1.471725 33 1
21.846195 69.739449 50.445259 15 1
4.449461 60.827278 108.986160 1 1
-68.385460 82.229744 35.410118 4 1
-95.713730 175.615570 10.370604 17 1
38.459423 196.122480 47.395493 11 1
-82.319847 209.975950 -13.291060 5 1
-29.290098 88.337898 -17.862236 24 1
-6.096241 84.307892 -18.115305 0 0
-3.938255 209.180160 93.464699 9 1
-20.172005 52.846333 5.961159 0 0
-19.931128 58.076939 7.006434 0 0
2.137883 17.497196 2.635506 32 1
-15.919893 69.750504 85.114548 30 1
-25.922274 216.752520 65.959808 14 1
-0.855613 91.312782 16.991268 25 1
9.848039 70.705673 69.901047 31 1
12.796421 109.433600 -78.547508 23 1
-12.637037 172.406270 20.206734 0 0
59.216351 195.809330 35.385067 13 1
11.310036 121.069190 14.295693 0 0
31.769598 56.471878 62.237617 31 1
-35.434765 220.629170 54.731529 14 1
28.632072 180.528050 71.834381 11 1
-91.035133 181.557880 20.603048 17 1
-10.952129 79.668045 -0.772912 0 0
36.453827 189.035610 60.495277 11 1
46.832767 177.881640 62.870766 11 1
0.038714 76.123436 13.797993 28 1
-15.099670 79.921310 -8.737680 26 1
65.177963 187.190460 11.847200 13 1
-48.328224 196.104930 -26.927845 21 1
-6.010135 74.354042 68.050262 0 0
-26.795773 129.480530 -111.353510 12 1
-24.018423 220.426540 44.165138 14 1
18.669662 215.755340 62.682919 10 1
-14.956311 57.880783 78.616112 30 1
66.476387 186.003270 21.691504 13 1
20.850012 7.180529 9.518970 32 1
28.809319 181.978850 64.381096 11 1
-18.178213 143.791820 -91.321426 12 1
-66.274193 80.209213 -6.278600 7 1
-30.749901 84.159599 -7.359850 24 1
-69.691055 88.794220 25.805130 4 1
-34.474060 208.685590 67.344330 14 1
-125.441410 186.573790 -44.496265 5 1
57.881447 182.243230 57.144547 11 1
-16.200161 67.528381 81.076012 30 1
38.703571 180.575240 2.526960 13 1
49.744427 171.133150 3.003129 13 1
-29.817076 201.884990 10.047004 0 0
-33.188667 132.187420 -106.756170 12 1
-1.684336 90.783180 -21.731785 0 0
-44.394753 175.282040 -5.831632 0 0
-107.360960 197.102460 -32.246517 5 1
5.649898 14.854296 -9.609065 33 1
-24.423956 78.354233 2.513598 27 1
-1.935364 223.477140 83.585495 9 1
-71.656982 94.175781 11.821982 7 1
-24.626806 152.796980 -0.110145 0 0
2.716920 234.474580 53.756813 10 1
-65.170975 76.168335 -12.912796 7 1
60.287369 192.556270 22.450169 13 1
-48.256832 74.027596 -1.945487 24 1
-23.082291 136.274370 -56.910122 29 1
23.709414 196.426760 40.590183 10 1
-31.950275 132.849000 -100.511640 12 1
15.949976 220.456620 38.463306 10 1
-31.786522 123.098960 -59.039627 29 1
13.190087 11.239122 11.623999 32 1
-131.989200 172.966420 -37.224533 5 1
-26.061813 129.621060 -68.712837 29 1
25.339266 48.027096 -27.954853 0 0
2.178691 50.157169 -3.763424 0 0
-0.445905 7.840986 1.633153 32 1
-5.448718 136.707930 -72.503204 23 1
-15.167553 62.886856 104.217450 1 1
11.738569 69.768608 19.009504 25 1
23.833904 70.384644 40.817429 15 1
-3.939816 89.611855 36.470352 16 1
-53.916870 191.583530 -8.102938 0 0
-21.649406 133.542330 -108.925650 12 1
-89.291618 173.105910 42.169365 17 1
-23.437082 69.917885 71.283974 30 1
-41.311398 82.221451 -10.425123 24 1
-42.264557 202.536680 -27.718937 21 1
-101.750610 211.923100 -7.806323 5 1
-20.699533 222.389470 39.734093 14 1
-19.352446 80.319611 58.946125 16 1
-28.292797 67.374619 67.800606 30 1
-33.741589 224.061740 42.352283 14 1
-72.711662 84.194939 -3.293705 7 1
36.464363 177.705640 66.315582 11 1
-40.111328 62.113838 55.065712 30 1
-23.037983 139.820020 -94.617928 12 1
18.380159 218.196010 55.845573 10 1
-13.945416 227.165420 8.676292 0 0
-38.122307 45.883335 -1.829056 0 0
-48.445271 86.297462 -36.378960 8 1
-4.342186 86.232254 -13.775759 26 1
-6.592688 73.015739 95.441208 1 1
29.046482 186.859540 55.198185 11 1
-48.361996 218.935170 6.974505 18 1
-93.835548 181.192750 6.537478 17 1
20.355875 74.821556 54.772888 31 1
-2.786060 35.420425 -0.631101 0 0
34.065510 194.807740 43.044926 11 1
25.450714 62.076122 71.825577 31 1
-39.301506 130.543000 -100.190030 12 1
-80.130684 202.747130 2.580212 17 1
54.356472 159.800740 78.898331 11 1
-136.576320 181.584790 -31.432129 5 1
29.852356 191.289950 61.768326 11 1
-6.243704 235.190690 72.926392 9 1
-29.572962 205.632430 7.499557 19 1
-7.111843 16.440201 -16.475435 33 1
-61.885910 186.258210 -50.225399 21 1
-30.067596 220.751140 22.944445 14 1
-60.875607 219.485500 31.287773 18 1
-24.344656 200.947650 14.052363 0 0
-67.509758 198.085250 10.286045 17 1
14.919889 129.456730 19.588993 0 0
-2.766758 231.504730 56.476948 10 1
35.599953 190.033460 5.544261 13 1
-16.670187 225.703510 46.979088 14 1
-0.556586 16.338243 -10.867148 33 1
-91.950134 212.434080 -18.179354 5 1
1.703313 93.603882 39.143803 15 1
-33.611866 210.654420 30.441854 14 1
66.590019 196.479750 48.622261 13 1
-75.292130 89.799797 17.535084 4 1
2.771864 91.203201 35.401241 15 1
10.180756 81.866943 16.960749 25 1
-3.970846 86.683113 -5.792326 26 1
-72.117310 88.622864 -1.604797 7 1
-63.803364 92.090111 9.176763 0 0
-51.958412 93.718750 -64.876068 29 1
-32.180592 83.326073 -21.913721 24 1
-42.525608 111.291590 -53.995323 29 1
6.700274 82.319290 22.885204 25 1
-94.882370 187.250950 7.068896 17 1
-60.522842 206.685970 -18.175913 21 1
-19.846603 145.250960 2.114150 0 0
-41.816441 221.771900 12.961053 18 1
0.259052 240.100630 63.920887 9 1
23.678413 61.334366 77.505836 31 1
-37.049446 119.124790 -75.166534 29 1
52.020340 192.700380 26.420029 13 1
-19.006006 223.182370 32.438297 14 1
8.399721 223.260820 27.010687 10 1
14.294836 221.413040 23.938581 10 1
-6.133985 71.139542 48.019413 0 0
41.233475 186.343670 19.073673 13 1
32.043842 155.636350 25.692230 0 0
11.434484 230.168730 73.034721 9 1
-43.090900 131.076870 -96.165657 12 1
11.238294 42.861240 -10.515408 0 0
-1.347907 143.249440 -62.101009 23 1
-145.070820 170.178220 -42.259956 5 1
15.496445 211.550480 61.793198 10 1
-5.373129 121.351550 -53.152267 0 0
-17.839773 232.625310 51.986229 14 1
-12.356647 50.973301 114.092480 1 1
-35.347759 42.819298 85.523155 30 1
11.672876 212.275740 41.319668 10 1
-23.886209 132.881010 -73.870628 29 1
-3.839343 216.666600 88.389610 9 1
58.431732 172.127260 6.141150 13 1
-33.560799 214.827150 65.603462 14 1
-64.879295 83.693207 31.481640 4 1
-44.407986 212.467090 -29.127327 19 1
-6.428820 118.977450 -46.424484 0 0
40.274891 187.177460 4.370815 13 1
-68.164612 203.525240 -28.833910 21 1
-98.167839 171.198640 23.748913 17 1
-15.073257 153.088270 12.922498 0 0
1.181014 82.840683 -3.658821 26 1
-22.862984 85.085533 -45.676529 22 1
27.440823 175.066220 70.960442 11 1
13.916651 209.584930 86.507744 9 1
-99.678619 203.522870 -20.898979 5 1
-36.527752 120.920330 -115.050340 12 1
12.096923 75.278648 11.428898 28 1
13.554014 8.075977 18.880835 32 1
44.742256 195.247760 24.401815 13 1
68.451515 159.339490 2.275476 13 1
33.278076 183.556720 24.019207 13 1
1.220292 224.860660 40.287800 10 1
-89.604309 79.448097 9.351810 3 1
55.311832 175.862430 65.220352 11 1
-62.096363 205.142330 12.378642 17 1
-23.245436 86.180077 -36.606857 22 1
-6.634719 228.431110 35.964855 14 1
-21.921116 129.178420 -115.882550 12 1
-62.956306 49.316376 -11.961014 6 1
-57.109650 188.798220 -33.251106 21 1
48.265980 170.635730 75.049225 11 1
-35.534054 223.739720 27.685467 14 1
-110.044600 209.693590 -7.680742 5 1
-34.402584 213.426860 -17.282742 19 1
-65.255356 208.407210 5.142108 17 1
-60.768963 217.758180 -13.544558 20 1
-88.063644 178.667270 41.241711 17 1
-62.184361 46.259060 9.239834 2 1
-34.194683 216.921260 -7.148726 19 1
-36.947811 218.736020 -3.877519 19 1
-30.098652 87.045532 -26.700979 24 1
-78.242393 91.796471 20.550299 4 1
24.292652 197.002620 33.485847 10 1
13.120854 132.208620 -65.765457 23 1
-45.087227 84.164253 -33.256363 8 1
-3.120433 226.871140 46.119003 10 1
13.150577 213.819180 82.768761 9 1
2.616446 33.639622 1.997598 0 0
-71.440315 203.618500 -7.739160 17 1
-70.597847 192.461170 20.471291 17 1
-2.238443 61.862900 105.974620 1 1
-60.778385 90.946289 30.120113 4 1
45.510387 185.199570 58.761932 11 1
19.351902 209.798680 26.584301 10 1
4.694519 122.997110 -83.944786 23 1
-33.825264 217.098600 -14.500318 19 1
-90.131737 173.289630 22.180342 17 1
47.900032 189.877320 12.779228 13 1
2.745174 81.818962 8.307621 28 1
-49.988499 83.822052 -30.928612 8 1
-1.037594 194.819700 99.984306 9 1
-11.424770 70.137009 99.010704 1 1
10.106704 12.372502 1.913669 32 1
-10.435153 231.593170 51.424393 14 1
-6.704102 78.563232 3.159512 0 0
-83.963966 91.517609 22.484392 3 1
-67.131828 210.778460 -19.111689 20 1
42.510571 186.541760 51.296143 11 1
-52.840759 192.327190 -27.965963 21 1
-3.279209 106.713090 11.070267 0 0
-45.369068 223.122390 32.489105 18 1
-21.194426 226.406460 26.771204 14 1
37.174965 153.412090 84.601242 11 1
-8.412070 200.850010 101.603880 9 1
18.658285 129.732100 -61.555763 23 1
-42.499634 217.021420 -16.694006 19 1
-31.030323 212.241390 53.501064 14 1
-20.630274 77.624359 -3.769793 27 1
-57.220757 45.585793 -13.268546 6 1
-38.137039 216.050020 26.302320 14 1
-17.268541 220.014400 9.616651 0 0
-34.110703 87.330421 -20.513845 24 1
-90.571579 186.624400 12.872599 17 1
56.687885 192.531490 40.344093 13 1
-121.664920 184.394180 -34.584648 5 1
-21.379341 74.331512 3.835322 27 1
-19.176647 53.565968 113.789900 1 1
-71.257217 33.318886 -18.875906 34 1
53.260574 184.822850 21.450891 13 1
-3.203928 -0.493678 2.463159 32 1
-83.147972 180.186050 21.961948 17 1
7.370726 15.425758 8.902888 32 1
61.655788 173.067640 60.238239 11 1
-64.775909 200.616550 16.687372 17 1
-70.248627 209.210620 -27.304749 20 1
37.252934 182.962550 16.553234 13 1
-92.718117 172.750370 36.617786 17 1
-91.923378 168.372680 35.221783 17 1
6.354711 57.641678 -5.916247 0 0
-6.949127 124.734400 5.846944 0 0
-80.813484 182.841800 19.245323 17 1
-3.462893 76.877159 72.869522 31 1
64.493759 168.673680 4.294303 13 1
-76.690567 198.215320 -3.308827 17 1
18.369793 60.557896 71.363174 31 1
-137.910080 188.170730 -20.040436 5 1
24.189522 123.962320 -60.184582 23 1
-10.775967 227.770830 83.435493 9 1
-69.520798 195.928540 3.748514 17 1
-135.599460 191.696330 -16.127193 5 1
-30.118015 87.930611 -12.427408 24 1
-6.384870 19.957706 -10.012178 33 1
27.590757 149.938810 20.948801 0 0
-19.399944 231.160720 14.879344 0 0
-14.586828 83.402092 -27.502686 22 1
71.236618 181.139620 14.385923 13 1
-44.405411 114.100150 -119.702800 12 1
-51.714859 217.108810 -16.392437 20 1
5.967880 81.335396 62.132999 31 1
-71.264748 208.401000 -9.223121 21 1
-7.376431 67.489319 102.316030 1 1
-117.974240 195.381420 -15.949334 5 1
-72.199287 205.755660 -13.111630 21 1
-37.569458 89.010643 -29.380613 8 1
-0.163530 92.404289 29.852100 25 1
-21.242420 83.512161 10.539525 27 1
9.893459 125.312180 15.308444 0 0
-32.112682 92.750015 -26.342354 8 1
-51.189934 50.423969 7.009644 2 1
12.468197 202.862610 90.137108 9 1
-1.765306 78.738014 7.505132 0 0
-117.860260 199.160840 -33.044857 5 1
2.920879 228.287190 70.585953 9 1
-6.573726 236.096600 46.109974 14 1
49.323719 152.494550 82.851967 11 1
32.188820 46.294838 72.204239 31 1
-43.338150 208.350810 44.849075 14 1
51.026917 157.509750 81.094536 11 1
-58.787609 38.633987 -21.391809 6 1
-84.532249 197.440930 11.363882 17 1
-0.323562 234.592030 40.701351 10 1
-16.721901 76.160606 10.652593 27 1
13.404297 77.998993 24.978781 25 1
12.815251 72.397141 82.231293 31 1
-10.046659 83.544731 6.790720 0 0
-42.897087 105.533440 -65.709694 29 1
3.548387 231.065030 74.645065 9 1
-70.847794 203.539790 21.480618 17 1
-4.840709 231.103840 77.419777 9 1
-40.256279 43.311783 72.820145 30 1
-15.474698 76.818001 -42.480038 22 1
-71.103577 71.494286 40.455246 4 1
-18.051838 92.791046 35.109936 16 1
-41.409229 113.746670 -63.567459 29 1
40.425514 163.746610 77.423950 11 1
-28.675537 212.307720 -19.342045 19 1
-9.569514 119.172990 6.254961 0 0
20.051243 3.340286 20.883600 32 1
26.270765 53.693089 73.479378 31 1
58.070908 172.863010 67.086128 11 1
12.023487 80.012436 51.167988 15 1
-79.195251 86.467979 26.456757 4 1
10.288423 13.774586 -3.366471 33 1
26.698132 188.610960 63.136227 10 1
0.243273 237.764830 67.599953 9 1
-43.911865 123.648640 -110.138280 12 1
10.436980 79.624413 13.066568 28 1
6.535450 88.956299 46.407467 15 1
13.486353 79.831436 37.882576 15 1
-39.958496 212.668110 -22.620644 19 1
-1.890608 95.837524 3.992825 0 0
21.764727 211.432950 48.313515 10 1
-16.398716 228.431270 54.827496 14 1
-46.814095 197.846070 53.273701 14 1
-49.838032 93.069244 -71.205978 29 1
-35.860714 213.965000 60.463047 14 1
-12.905599 139.149900 7.568007 0 0
-69.139488 44.974953 -4.273890 34 1
36.106300 166.825580 76.535912 11 1
0.769171 16.787796 11.815552 32 1
-78.608398 193.797350 1.417726 17 1
-78.107124 97.265121 14.050241 3 1
-95.372810 165.675580 44.372501 17 1
-25.530388 59.663380 85.968193 30 1
1.785980 131.785170 -82.856201 23 1
-8.009970 202.239960 29.270460 0 0
-3.837447 72.322189 51.681824 0 0
-66.122917 218.493590 -9.181361 20 1
-59.963726 202.371660 -8.146260 0 0
-60.581303 202.304430 -30.906296 21 1
-114.077940 193.513150 -19.187321 5 1
-21.955276 137.983540 -69.217873 29 1
-48.613049 117.719730 -113.896530 12 1
4.744817 206.434810 87.884972 9 1
-30.431608 88.395119 -33.108490 22 1
20.968208 65.543648 54.390060 15 1
5.108555 213.134340 87.929092 9 1
-93.171249 83.738449 21.000792 3 1
-11.483395 81.287788 -39.996120 22 1
-0.616678 94.553665 8.167828 0 0
-46.557404 96.244713 -73.969086 29 1
12.718334 221.045430 78.930824 9 1
-84.174065 196.525940 -2.276978 17 1
-8.379831 85.453926 0.279405 0 0
-25.112581 59.840836 4.396862 0 0
1.642025 59.423817 9.348783 0 0
-114.197350 205.760760 -12.524217 5 1
-72.660988 36.538269 -4.925861 34 1
14.282494 124.800370 -81.752327 23 1
48.210522 171.285000 68.551773 11 1
-91.513054 78.105453 2.671915 3 1
-55.151115 39.777122 15.924900 2 1
-95.182060 77.911690 11.076305 3 1
-13.594544 216.105000 13.771779 0 0
24.318129 63.355869 49.431820 15 1
-72.506180 78.698753 30.676188 4 1
24.281956 117.381290 -67.693619 23 1
24.264317 204.950940 45.114380 10 1
-75.865891 186.575150 42.311604 17 1
-52.194851 203.126560 -27.223541 21 1
13.731313 39.928143 -14.918921 0 0
-97.976608 163.149990 32.099018 17 1
-8.065629 87.412437 -4.608402 26 1
-45.193291 99.911934 -71.484856 29 1
23.959143 198.750530 56.673149 10 1
-43.131687 219.840930 -0.856623 19 1
-2.837579 70.095123 39.257450 0 0
-10.600126 140.673280 -77.550423 23 1
-50.968674 98.296738 -53.650059 29 1
3.878306 8.469753 1.659812 32 1
16.349627 71.760727 74.612350 31 1
-1.910721 79.761124 -1.961148 26 1
-77.685989 78.631386 34.910477 4 1
-106.506140 208.142960 -9.672039 5 1
-41.516876 89.168350 -35.758129 8 1
-54.103806 186.860550 -50.710182 21 1
-41.305908 189.387340 -50.673054 21 1
-8.938728 78.828568 83.689590 1 1
57.841000 167.453700 67.607086 11 1
13.605438 208.775680 53.614155 10 1
-50.354187 125.878520 -104.234400 12 1
-16.651480 141.264430 -68.038803 29 1
65.221138 168.562820 68.023521 11 1
12.240174 227.524920 45.296551 10 1
-124.544650 185.149930 -21.840012 5 1
12.658305 76.758476 41.335266 15 1
-138.271100 173.577270 -30.983318 5 1
-73.945091 28.227552 -5.673857 34 1
-39.542427 115.535710 -67.484795 29 1
-15.084824 163.806590 17.944361 0 0
6.994378 127.779270 -87.102753 23 1
55.646488 170.448760 70.788521 11 1
-54.924465 221.495710 9.530476 18 1
15.969185 206.380520 47.251514 10 1
8.277180 135.388500 -65.717018 23 1
-27.266075 197.145580 15.757844 0 0
-62.509697 215.711910 28.499161 18 1
-38.446526 194.682300 -39.571190 21 1
-9.002645 232.956150 37.001945 14 1
-12.726850 84.565224 50.592731 16 1
-33.517399 208.988010 9.777736 0 0
-33.009659 124.625360 -50.192749 29 1
-13.442885 143.545640 10.363776 0 0
9.366152 74.807808 -7.442104 0 0
-39.373234 57.141590 65.985840 30 1
-50.158134 50.015877 -4.073577 0 0
38.574577 164.949200 83.049324 11 1
-70.450874 194.199300 12.574738 17 1
-36.877110 218.182740 -11.512827 19 1
-6.728851 82.042847 -10.935113 0 0
-65.877579 208.545650 16.310997 17 1
21.273064 127.958520 -58.373329 23 1
20.570114 44.007832 -21.507698 0 0
-37.936378 108.596500 -78.390778 29 1
-90.455429 210.843380 -12.074285 5 1
-2.359665 65.149162 25.684925 0 0
39.301830 180.167540 8.967424 13 1
10.619653 83.914238 22.164728 25 1
-49.987972 36.433052 -25.108385 6 1
-0.960567 60.241627 -12.311196 0 0
-61.344257 80.337784 -3.812921 7 1
-0.449531 11.374376 21.967535 32 1
-56.409210 198.984680 -34.938454 21 1
-15.730761 76.525711 6.043001 27 1
31.587746 183.998830 61.816162 11 1
-37.907425 79.623154 -4.800883 24 1
-6.078100 233.778370 68.459145 9 1
-65.893860 86.326195 -4.879288 7 1
54.978569 185.840290 54.258553 11 1
-46.049141 111.689290 -46.798164 29 1
63.877087 195.834610 35.043667 13 1
-58.215073 43.439083 14.978460 2 1
5.475213 50.540142 -6.491748 0 0
61.601250 180.141080 16.120449 13 1
-51.729153 49.544781 -17.364956 6 1
-38.400146 111.806020 -124.272150 12 1
16.904915 217.085560 22.049784 10 1
31.136751 179.181610 46.142754 11 1
-44.711945 80.408165 -15.107724 24 1
-25.560299 135.923030 -53.195156 29 1
-62.794006 198.291320 -19.460087 21 1
-96.020813 206.586410 -17.305183 5 1
-52.256855 82.763878 -41.328270 8 1
-71.727943 74.293129 36.491047 4 1
-33.284492 57.753819 71.542282 30 1
-59.152241 190.337250 -45.259743 21 1
-45.785046 221.082600 22.109203 18 1
43.461994 157.129440 79.981941 11 1
-68.132645 207.153920 9.318849 17 1
-31.377750 113.629530 -126.333110 12 1
7.793491 83.445099 36.601006 15 1
60.304352 185.403340 51.285950 11 1
-13.539552 137.855220 -70.029633 0 0
42.731186 176.736150 32.422596 11 1
-48.101582 39.287174 68.878426 30 1
20.760662 4.660367 13.563855 32 1
-58.203415 216.966640 -22.048378 20 1
-40.781948 116.546250 -58.595211 29 1
60.372169 177.382630 56.393398 11 1
1.498367 86.462181 19.596754 25 1
17.218742 67.765511 64.658905 31 1
-55.863766 53.634026 2.247654 2 1
-20.181702 226.741440 10.520732 0 0
-7.781501 218.249100 88.718735 9 1
-89.696182 87.235382 21.378649 3 1
47.188904 167.075330 -1.243867 13 1
0.564772 134.443620 -77.139099 23 1
2.890208 11.031816 -5.209062 33 1
-48.377762 191.733720 56.267723 14 1
-38.953960 221.130130 39.383152 14 1
28.080935 167.126020 78.008858 11 1
-12.068128 48.934509 3.069113 0 0
-68.708931 200.696810 31.046721 17 1
-70.825211 44.660946 6.713681 2 1
5.937794 231.791150 40.028507 10 1
18.060820 72.640366 70.203354 31 1
-42.322517 192.694120 69.876572 14 1
-97.656563 171.649140 28.823332 17 1
2.762870 110.871220 15.023767 0 0
-59.264679 203.352460 -3.380510 21 1
-107.962520 205.239030 -25.694712 5 1
2.993402 56.170650 -12.152191 0 0
6.140119 225.712750 29.646986 10 1
-25.652903 82.627602 -9.435327 24 1
-41.457764 218.988400 47.869160 14 1
-5.306655 125.379860 -51.574249 0 0
-18.864744 83.951164 -35.081314 22 1
-82.329636 202.801730 -1.671858 17 1
-6.338237 13.809391 -2.213459 33 1
66.551376 180.487470 12.425535 13 1
-101.963400 208.766240 -10.670177 5 1
-71.863281 200.652330 -27.998537 21 1
69.077568 183.747560 17.150785 13 1
-28.263046 64.333641 4.704367 0 0
17.588881 214.835830 79.216156 9 1
-66.403954 202.890840 -1.917611 17 1
15.286417 132.846100 -60.915344 23 1
-51.504513 188.965820 49.329475 14 1
-64.561943 38.877930 -7.003218 34 1
-48.387924 193.691310 48.473248 14 1
-19.139381 212.306000 12.173635 0 0
9.479113 85.754684 45.861130 15 1
-22.386808 229.146940 58.449680 14 1
-19.573410 67.924438 98.587570 1 1
-142.337680 179.940490 -23.591467 5 1
-75.750702 72.984962 36.410393 4 1
-20.676523 89.662064 42.475582 16 1
-73.494881 196.937970 25.684179 17 1
-25.702267 220.029920 35.011425 14 1
-94.084633 180.031100 17.212204 17 1
-131.290570 194.503360 -9.696805 5 1
47.539864 159.108700 77.897827 11 1
-8.352450 130.313770 -55.761147 0 0
53.586304 181.171100 13.588845 13 1
-40.273102 115.275710 -118.297580 12 1
34.577778 181.610870 34.475136 13 1
-10.093778 133.813740 -59.575577 0 0
41.301888 177.243730 65.570198 11 1
38.891415 168.332380 29.695641 0 0
-45.660404 193.447100 -44.883167 21 1
-79.878250 188.639400 29.363106 17 1
19.710772 213.852660 25.060553 10 1
-20.971857 233.227020 40.255661 14 1
-46.607388 212.501250 59.093189 14 1
-8.832931 197.747760 31.430546 0 0
-73.823784 195.108540 -36.254112 21 1
24.595135 189.979780 37.999550 10 1
11.180562 217.925830 62.541428 10 1
30.107363 184.293580 35.001678 13 1
-13.063695 74.413010 92.234146 1 1
12.278957 79.557701 58.908806 31 1
-46.869869 100.562420 -64.510216 29 1
-38.338848 78.965271 -10.232683 24 1
-111.628210 193.106200 -30.193396 5 1
-71.439743 47.292778 3.416590 2 1
23.620453 198.475920 48.536697 10 1
-103.920370 208.788100 -34.714149 5 1
0.743064 102.421550 8.662544 0 0
56.984001 193.686970 29.450171 13 1
-51.810837 218.353740 34.193253 18 1
-16.385368 141.247340 -98.715279 12 1
-4.385646 216.627040 83.645912 9 1
-5.523968 237.176480 66.041817 9 1
-19.571035 94.575905 25.330763 0 0
-25.325867 84.140610 -33.126259 22 1
-12.057476 76.151398 -44.837337 22 1
-34.511951 160.669110 -1.984892 0 0
-4.341708 70.001740 -3.520656 0 0
-11.033203 84.641098 19.326254 0 0
17.761560 9.861681 3.027909 32 1
-68.983101 32.344688 -4.420437 34 1
-48.536938 191.351210 -35.206490 21 1
-131.722840 181.583180 -21.938620 5 1
-14.479601 148.747830 12.008760 0 0
-31.964912 63.427181 61.960194 30 1
-9.644182 44.039078 117.950010 1 1
-73.581680 79.868225 34.642521 4 1
-0.833154 0.528911 -1.502824 32 1
-38.683079 120.783420 -40.078758 29 1
-9.961913 63.921104 105.443880 1 1
-22.380211 69.377731 64.087097 30 1
-32.989239 83.895737 -14.618249 24 1
-16.347464 221.873610 89.606903 9 1
44.388485 171.423480 -3.326394 13 1
-35.417271 121.183720 -51.299992 29 1
62.924042 158.185230 76.546608 11 1
41.603539 190.383130 53.435867 11 1
-40.327950 212.845780 -17.140484 19 1
-43.240601 212.056470 36.820423 14 1
-54.793972 90.050865 -65.102768 29 1
6.871319 219.594700 82.625702 9 1
-23.486227 88.868782 22.441452 0 0
-30.046316 130.852250 -66.524513 29 1
-62.041412 87.978233 14.020501 0 0
7.173216 90.367561 35.314491 15 1
-37.637806 92.075752 -38.733952 8 1
-3.708107 236.901930 49.490913 10 1
21.080500 107.947360 -68.549950 23 1
-27.043762 59.604343 77.963020 30 1
-28.907471 215.190890 50.406090 14 1
37.219059 185.711260 7.630081 13 1
-38.589729 201.947050 68.322838 14 1
-64.133377 88.932266 1.884355 7 1
7.930530 81.757935 43.164112 15 1
-40.073647 81.907936 -15.380561 24 1
