53.881741 190.977680 3.369106 17 1
-55.899738 84.981339 11.691505 6 1
48.798157 155.515930 59.066063 9 1
1.712677 203.472290 -93.413612 19 1
-0.439669 50.621090 3.828661 0 0
23.434566 174.352360 -61.036282 20 1
-60.008430 169.873030 -65.604759 21 1
-81.939445 126.350360 31.565180 4 1
-43.279163 216.587040 -42.228901 14 1
20.811794 162.253620 -86.067528 20 1
30.915239 234.160930 28.858124 15 1
-50.752888 119.978000 -6.754832 0 0
10.802886 6.490073 -33.488159 26 1
-5.706105 238.148300 10.221630 24 1
18.502972 224.729230 64.128586 8 1
9.534080 240.880490 -44.896587 18 1
20.871794 16.456718 5.825743 27 1
46.176529 158.517650 -10.693190 10 1
40.437901 216.643630 16.788555 17 1
-19.649845 205.295390 -58.889500 21 1
22.127060 223.262920 18.027962 24 1
58.818874 173.063310 22.848906 9 1
35.268608 207.550580 3.249876 17 1
26.027279 168.893050 -60.800659 20 1
32.925373 208.845050 -41.877525 18 1
-21.779402 197.654660 -77.429985 21 1
-22.246416 77.871735 29.584387 7 1
-16.372229 192.914180 45.907375 22 1
-6.214968 177.610120 -147.129650 13 1
-16.901701 34.559040 1.392182 0 0
24.897755 233.738600 11.076668 15 1
16.403408 59.438232 5.069781 29 1
-89.002991 142.072400 -37.928234 2 1
-2.192183 207.585600 -109.840190 13 1
-3.560039 158.139770 7.441332 0 0
130.999820 112.289210 11.640521 1 1
-10.309531 234.197680 18.279655 24 1
-62.529381 165.367800 -67.605347 21 1
11.153356 191.006730 -88.199326 19 1
-63.325874 145.922490 8.351465 4 1
31.770668 189.828770 88.896599 8 1
-29.951000 77.685486 35.195400 7 1
14.315533 228.476490 30.644564 24 1
-51.433521 171.419300 -83.860291 21 1
19.040462 191.117360 -92.214180 19 1
-56.445908 85.595123 21.843140 6 1
3.134201 220.355740 -89.415939 19 1
10.018677 206.567460 -92.375099 19 1
-71.464745 133.894120 -25.732754 3 1
-60.913570 126.204780 -40.283783 3 1
-41.046612 197.222240 -48.654236 14 1
-35.165386 195.526020 -59.761402 21 1
24.623095 228.992050 32.059120 24 1
-53.659828 177.762280 -61.252060 21 1
16.729828 224.809980 72.217781 8 1
29.760649 225.767840 62.766060 8 1
37.860321 196.460170 -47.185055 18 1
48.959942 200.310100 3.860225 17 1
34.960743 65.468636 -47.821201 23 1
-16.488661 218.439180 40.607967 22 1
-38.295776 188.718720 -72.439964 21 1
-36.228428 206.356720 -55.713345 21 1
16.409864 21.020895 14.998769 27 1
-22.320610 198.906050 45.838242 22 1
-50.385113 187.762370 -58.261166 21 1
9.386786 228.642210 23.745676 24 1
1.802795 13.560236 -22.392357 26 1
77.930901 80.528091 -27.333143 12 1
4.602948 195.701290 -88.941010 19 1
-86.222382 116.930790 28.753260 4 1
100.760040 161.570390 18.205717 1 1
23.012260 155.644210 -80.023056 20 1
24.027044 228.741550 57.648571 8 1
14.932149 179.042080 -72.347710 20 1
-28.526581 179.489650 48.095306 22 1
-63.852242 136.165240 -24.952227 3 1
-42.970997 201.277970 -55.366844 14 1
17.071838 229.701610 2.192864 16 1
5.756245 204.679380 22.295975 0 0
-36.641598 219.934710 -48.917400 14 1
124.317500 134.333020 15.897454 1 1
61.735481 150.188630 -18.825306 10 1
-74.316193 83.895798 16.845547 6 1
20.552900 214.921200 75.981949 8 1
22.910898 224.693370 -51.691345 18 1
65.302750 76.361259 14.752022 25 1
12.211290 199.184980 -92.327385 19 1
107.399210 150.249880 13.993288 1 1
-69.306618 137.292860 27.598539 4 1
-27.177122 81.052948 24.856329 7 1
-14.284699 230.334750 34.106590 24 1
5.060780 18.416676 10.488828 27 1
131.497860 119.908540 18.981472 1 1
28.579960 229.043440 8.256117 17 1
-25.670361 90.916389 -1.423751 0 0
-26.175285 232.914080 -54.332844 14 1
-1.199907 236.982590 -48.531746 0 0
-52.391560 128.398500 -37.325672 3 1
0.645351 201.789320 -3.991645 0 0
14.869614 196.854160 -66.365105 20 1
33.217674 214.059680 -54.409328 18 1
-6.426045 68.768982 1.874732 0 0
-5.462327 234.327130 20.225058 24 1
-21.522169 179.099760 53.240883 22 1
5.525050 193.518890 -83.897346 20 1
-46.008175 111.292430 -5.082660 0 0
72.228722 76.735634 6.254241 25 1
61.000710 86.125389 2.962158 25 1
28.634630 146.136340 -78.191154 20 1
-1.166673 145.632340 0.794180 0 0
-3.248727 190.718380 -123.681630 13 1
43.118793 165.479450 -9.512741 10 1
-49.917805 180.844500 -75.761658 21 1
62.108093 80.524788 -41.027916 12 1
90.078384 161.670900 7.549163 1 1
-14.868497 202.236430 -115.616150 13 1
7.191368 193.344180 -62.955002 20 1
111.600690 135.165190 4.969098 1 1
-6.511357 173.540630 -4.375391 0 0
70.150948 164.446470 -4.838994 10 1
-5.664670 112.628330 0.680288 0 0
-28.139601 83.606598 18.945450 7 1
0.500265 184.724520 -82.489227 20 1
71.490105 167.888820 2.503843 10 1
-3.803903 8.411490 -0.794776 0 0
-14.974346 74.587883 -2.510720 0 0
0.727620 0.934344 0.272525 0 0
-61.863628 131.708280 -27.850306 3 1
-12.112187 226.767840 30.541647 24 1
20.337034 211.180850 79.728821 8 1
5.823120 4.651563 -31.554564 26 1
4.018436 175.124620 15.926853 0 0
49.283676 204.577360 7.150316 17 1
-5.354886 99.116974 -1.248597 0 0
-85.656288 127.086380 17.496450 4 1
-23.796911 211.527540 37.358997 22 1
5.825332 19.780502 -11.443294 26 1
24.378361 153.867050 56.758446 9 1
-9.446633 210.778000 -79.252708 21 1
41.419800 223.965450 65.755478 8 1
50.440708 184.359660 -9.737992 17 1
27.413467 55.677082 -51.627930 23 1
37.154774 201.217090 85.451401 8 1
32.210236 224.064940 7.086545 17 1
-5.333330 216.308900 -11.766451 0 0
-75.464012 80.207253 26.244469 6 1
-76.877594 126.399250 32.560574 4 1
35.718430 222.244960 -8.240991 16 1
33.495838 221.607360 66.366982 8 1
-46.858841 200.990740 -46.133614 14 1
3.614669 233.479190 -71.418175 19 1
26.066051 65.233246 -48.983326 23 1
-71.596634 83.382637 12.388628 6 1
40.716354 155.860200 55.056431 9 1
11.800258 219.981000 -87.605324 19 1
-71.626343 149.640300 -86.599113 21 1
-17.950262 199.475140 51.580242 22 1
-75.902809 79.934387 36.148113 6 1
-4.104893 66.993530 -2.460325 0 0
-62.992012 155.521730 -85.402451 21 1
45.753853 73.777534 -47.280594 23 1
33.303711 52.146908 -54.434460 23 1
-49.246109 67.968323 11.858973 5 1
-75.141930 130.523030 27.348726 4 1
10.904781 27.606901 18.243053 27 1
66.333076 83.273651 -10.889875 25 1
35.588829 139.105160 71.044563 9 1
-50.504784 55.032066 3.418118 5 1
-63.976910 145.221440 16.514084 4 1
-43.072018 51.303883 3.471489 5 1
-8.426114 216.570010 -91.156761 13 1
-73.821960 102.013330 -55.573845 3 1
25.041885 235.937990 22.400011 17 1
-108.848270 136.459700 -43.789665 2 1
-85.214409 139.680050 -30.887814 2 1
57.185162 125.112160 -36.959457 10 1
-54.025955 177.395870 -77.923157 21 1
7.766070 204.246630 -57.339672 20 1
42.373764 210.483760 5.406622 17 1
43.145031 209.329640 78.605339 8 1
23.121044 167.622250 -65.878494 20 1
73.473381 71.718040 -47.098289 12 1
-21.105928 204.378630 -50.041691 21 1
-29.107147 185.814190 41.929111 22 1
-39.829498 104.521340 -3.603123 0 0
6.771176 21.657574 22.749868 27 1
-59.159740 164.942260 -82.259010 21 1
-10.647684 237.782060 14.156107 24 1
49.190334 148.941710 -23.979399 10 1
56.875076 169.885650 1.450724 10 1
42.181160 205.880520 -0.749905 17 1
-2.713439 171.989030 0.572501 0 0
-91.365364 143.559780 -20.201935 2 1
24.191219 49.087593 29.260195 28 1
-11.532274 36.419559 2.334430 0 0
-26.802492 171.186200 51.170673 22 1
57.834011 87.264877 -9.442482 25 1
55.172604 181.564330 2.234482 17 1
51.544865 157.161390 -8.946145 10 1
10.705978 189.234390 -64.171661 20 1
-43.411961 201.479810 -42.014397 14 1
130.101410 126.599840 24.463036 1 1
-36.866840 206.125200 -48.895126 14 1
52.294125 86.743179 -33.298607 23 1
-19.533850 68.218834 44.216820 7 1
26.311438 216.081270 1.577417 24 1
0.053159 194.841290 -3.916153 0 0
-9.163336 231.672530 30.247078 24 1
54.358429 171.642000 39.032562 9 1
71.009552 129.898040 -29.163511 10 1
-42.267223 66.688553 6.023446 5 1
-28.948898 196.470350 -78.344032 21 1
-80.357033 131.543490 12.808433 4 1
20.693045 176.470120 -72.449867 20 1
-17.440903 213.175600 43.944862 22 1
-131.627900 117.773600 -37.091801 2 1
-64.263016 85.448837 9.393422 6 1
-1.488574 43.158321 -1.277218 0 0
-3.208917 204.925380 -101.059610 13 1
-51.662567 72.351883 13.789247 5 1
-1.685818 162.754380 9.593336 0 0
-18.742615 230.438250 -51.343460 14 1
47.793457 195.047530 6.276254 17 1
-95.226830 143.633740 -29.864727 2 1
-75.666367 136.290220 -28.577127 3 1
-88.543892 143.655180 -27.184277 2 1
96.384628 163.059230 16.055969 1 1
73.071960 172.446200 15.384054 1 1
65.514740 166.588560 3.899561 10 1
-3.127959 16.710295 -1.316030 0 0
-2.429028 192.246150 -17.892653 0 0
-56.595154 44.403587 8.005402 5 1
24.155142 160.223210 -72.011696 20 1
19.347944 213.652650 -87.164665 19 1
-2.248450 15.957029 -24.171677 26 1
-67.000877 107.931590 -53.539234 3 1
32.140842 173.995390 31.948431 9 1
7.941091 184.936290 -95.926636 19 1
33.496147 221.832600 71.416801 8 1
-35.917236 230.329040 -40.815727 14 1
86.369087 59.247284 -41.882664 12 1
-3.547094 207.531560 -7.590476 0 0
-68.435631 86.638641 31.291410 6 1
-4.906606 18.545502 -19.275627 26 1
-54.452526 115.785050 -52.845112 3 1
69.546341 76.358490 -39.818569 12 1
34.194439 214.822050 -36.714500 18 1
23.715925 169.768370 -72.632706 20 1
-3.343909 227.406480 -16.459314 0 0
-7.493697 227.397130 48.735889 22 1
10.580618 17.645235 -11.306125 26 1
42.099506 176.324480 23.266468 9 1
-5.931961 237.596180 -47.056728 14 1
48.198502 212.098250 11.663764 17 1
129.977740 124.811500 19.785042 1 1
54.536896 137.719510 -30.100313 10 1
7.036624 56.578003 16.936779 30 1
38.006046 193.141330 84.388184 8 1
-2.302955 181.922710 -141.892110 13 1
-20.224249 63.670128 46.515469 7 1
16.563721 230.187670 -47.185383 18 1
-70.000572 154.671800 -78.584656 21 1
-45.887257 190.891480 -66.975662 21 1
-73.172813 130.876070 -34.611996 3 1
84.928467 177.224790 22.687840 1 1
-3.395494 242.955760 -48.932632 14 1
1.001363 229.396740 44.240917 22 1
-52.489086 123.299310 -44.526817 3 1
39.583160 229.025680 30.955347 15 1
48.158825 75.068718 -42.561005 23 1
37.489853 219.241350 27.392176 15 1
12.225504 19.511021 10.503655 27 1
9.498482 228.622910 -74.027962 19 1
16.480253 180.508650 -66.035332 20 1
-31.747086 216.462520 -44.609322 14 1
34.438210 217.924800 -43.648735 18 1
-42.701660 212.262530 -38.554646 14 1
-24.747215 71.899826 43.994526 7 1
-12.311773 70.405357 -4.866782 0 0
81.804390 56.560211 -49.958988 12 1
-11.851822 214.781590 -96.412849 13 1
2.051765 204.472990 -85.765480 19 1
50.031239 195.977680 1.645320 17 1
-3.204158 212.307420 -83.567123 21 1
34.063507 224.510960 1.290424 16 1
-4.416585 209.301760 -95.611328 13 1
27.554295 233.438710 57.194569 8 1
38.903698 213.070880 72.469780 8 1
41.322506 222.552670 35.994160 15 1
-29.292686 224.463780 -40.672531 14 1
33.276089 220.201600 -33.356979 18 1
-70.864082 82.773193 21.208364 6 1
-24.079435 209.047260 -103.718370 11 1
122.663800 143.686370 21.140915 1 1
-50.677795 78.765182 15.368436 5 1
20.194139 141.364810 66.382095 9 1
10.540797 242.107830 -38.858482 18 1
30.891794 147.151960 -67.981918 20 1
-15.342398 203.558840 -73.936012 21 1
-2.226904 18.723377 -14.801514 26 1
15.683243 187.620740 -93.826332 19 1
-22.358482 228.387800 -46.436207 14 1
21.515770 220.912170 -48.644672 18 1
56.939777 172.163160 7.148789 10 1
-70.173294 138.076720 -10.418292 14 1
-3.837404 216.813540 -6.007648 0 0
-13.510027 182.122380 -142.129620 13 1
15.692325 235.475480 -38.771042 18 1
-65.574127 138.837450 -18.143457 3 1
-69.620468 121.845640 -40.786976 3 1
29.995579 209.425870 -51.845394 18 1
1.608697 229.137280 -79.850624 19 1
13.515443 8.568525 -29.248934 26 1
4.869817 16.755028 -19.434687 26 1
-53.728096 88.485985 27.075899 6 1
-1.051166 218.960620 -33.501736 0 0
-31.368559 200.298510 -57.193058 21 1
2.267124 182.092800 -92.895264 19 1
-18.186014 242.978290 -42.865875 14 1
-0.024616 232.891360 -42.009132 0 0
22.548828 53.903229 22.882792 28 1
-86.839615 110.241070 34.898651 4 1
-2.906286 213.834760 35.657688 24 1
-73.195244 137.140090 21.059378 4 1
-42.444584 81.675117 28.839798 7 1
-76.046906 148.124400 -83.158371 21 1
4.097816 227.816010 -75.472298 19 1
8.202393 241.083770 -75.393707 19 1
10.541690 226.298310 -85.064758 19 1
-21.651577 162.774310 54.103008 22 1
12.599863 229.094410 38.349770 22 1
90.837128 166.718830 10.799214 1 1
76.242500 150.340820 -12.428274 10 1
-60.145985 84.830963 16.185835 6 1
-39.623951 69.018394 9.403725 5 1
98.857666 156.851350 4.435177 1 1
-71.312012 133.304240 29.573524 4 1
-2.076282 8.051193 -28.865685 26 1
-4.408691 212.429200 -101.723950 13 1
64.962952 173.550260 10.366653 10 1
-27.454689 207.965680 35.714813 22 1
57.179871 153.069980 -17.511852 10 1
-46.606514 192.762630 -60.740894 21 1
-3.360204 133.245990 2.982066 0 0
-36.995724 197.958650 -72.459312 21 1
-2.593329 234.753850 11.874917 24 1
13.112366 235.000400 54.679066 8 1
-16.875887 238.748110 -52.956734 14 1
84.331390 52.033295 -45.708115 12 1
26.896473 136.383610 70.495392 9 1
-9.815721 199.263340 -108.342450 13 1
-83.712296 126.385090 26.833643 4 1
-16.595058 184.135930 50.224277 22 1
26.612074 221.378070 18.100605 24 1
47.373390 201.811870 80.595665 8 1
15.512844 58.744408 13.213737 29 1
-47.900337 195.215590 -41.596436 14 1
-83.535362 75.873711 24.813929 6 1
-34.049057 192.214070 -81.611969 21 1
-69.045670 141.380200 -15.235916 3 1
123.527210 123.767560 14.112928 1 1
-2.391031 120.367550 -1.634512 0 0
-3.467641 73.122322 3.155741 0 0
84.545677 168.965210 5.573134 1 1
35.226852 75.063515 -37.784283 23 1
45.347767 194.817900 1.101073 17 1
-69.535728 99.490097 -57.972492 3 1
-3.998288 29.793633 3.524181 0 0
1.575669 197.323270 -66.646950 20 1
3.918689 19.954739 -6.341884 26 1
-83.844070 114.904340 39.306007 4 1
-7.531037 181.516140 -138.424070 13 1
-25.560991 197.658660 38.545589 22 1
3.990437 168.683980 14.687886 0 0
5.786561 10.542515 -25.725494 26 1
113.011960 147.792510 18.345018 1 1
36.355686 193.152450 -54.952343 18 1
-34.296982 220.205870 -53.399353 14 1
122.938350 130.009660 17.636158 1 1
-41.445606 192.390990 -53.875446 21 1
-12.303663 201.323490 -78.553253 21 1
29.805862 233.429060 17.578850 15 1
-3.811256 92.769493 3.922384 0 0
-5.303903 12.330477 -25.902397 26 1
87.822006 162.448940 3.332471 1 1
29.639452 229.136280 -8.400688 16 1
-22.966223 231.361590 -42.465508 14 1
-11.014492 214.050480 35.579807 24 1
97.105217 161.739940 9.291709 1 1
-39.832428 225.242130 -40.088646 14 1
69.285179 84.824417 -29.349880 12 1
-14.249593 209.859500 52.566841 22 1
4.355242 241.142230 -67.309303 19 1
-79.777176 79.419960 22.587631 6 1
19.008841 170.585680 -74.532951 20 1
-14.418121 191.393420 -130.516240 13 1
85.246201 62.925674 -37.232872 12 1
18.726660 231.242680 27.349895 17 1
-50.129902 182.230670 -71.019684 21 1
2.892487 18.426653 -15.285185 26 1
17.740410 182.490770 -60.910812 20 1
-21.879059 203.885650 -77.665291 21 1
-26.838554 239.920090 -43.469208 14 1
28.911364 160.695370 50.618988 9 1
10.273792 206.961470 -81.040993 19 1
-16.630314 206.279790 -107.112930 13 1
-41.819843 72.412056 12.618716 5 1
-18.023031 206.302320 37.552532 24 1
-22.525381 81.257454 26.061337 7 1
-37.593578 208.568130 -44.325489 14 1
-4.316363 229.793060 -42.381905 0 0
20.669538 236.539170 17.383942 17 1
-5.444072 204.593570 -27.040630 0 0
-76.541885 108.843410 -50.748379 3 1
0.707771 154.036320 9.504646 0 0
45.176403 221.737840 -5.148630 16 1
-21.498817 225.159910 35.134029 24 1
-82.914551 130.481380 20.387362 4 1
112.874980 161.384860 24.935402 1 1
30.235233 132.382170 -80.683769 20 1
9.920023 59.169575 19.842916 30 1
-3.403457 216.639740 -92.068687 19 1
-12.537367 201.097700 52.521561 22 1
-19.572548 208.996440 -91.234329 21 1
9.169787 202.928530 -66.732162 20 1
73.308296 171.486820 10.693246 1 1
-7.987046 121.674860 -2.792095 0 0
1.237678 201.635390 -117.259280 13 1
48.180214 215.202330 36.678116 15 1
30.479433 152.509110 -69.079933 20 1
-16.166275 165.178100 55.043293 22 1
49.682041 173.154850 87.966553 8 1
-11.070015 204.687450 -100.811100 13 1
46.206070 169.216830 -5.346687 10 1
47.906116 166.349370 -1.681995 10 1
-12.700026 239.368650 -49.102222 14 1
13.431428 228.963900 5.319144 16 1
-90.521683 125.269550 17.162788 4 1
44.913425 86.485092 -31.234291 23 1
24.292856 205.902310 82.066559 8 1
33.312038 68.879837 -44.212204 23 1
-5.945252 207.255450 -75.533722 21 1
22.743151 229.126040 -37.049377 18 1
41.809761 164.198530 48.584309 9 1
-43.181496 197.546740 -68.737015 21 1
31.776604 134.469130 73.479546 9 1
14.499603 237.022450 -78.486694 19 1
23.673819 21.482841 19.418415 27 1
0.120091 25.170723 1.018150 0 0
21.516256 226.366180 67.454849 8 1
6.357296 189.807310 -95.246796 19 1
8.565455 230.092360 45.703316 22 1
-17.012032 212.244570 -104.212460 13 1
3.277782 230.714340 34.939682 22 1
66.137108 157.004260 -6.654854 10 1
54.065639 174.165190 29.313082 9 1
52.454411 164.292500 -8.125477 10 1
37.950859 220.213650 72.667404 8 1
-45.012295 203.854250 -38.207188 14 1
56.240459 204.759280 13.811230 17 1
127.745720 130.825640 25.160160 1 1
120.409360 121.467320 9.054333 1 1
-77.626274 141.832240 -16.070570 2 1
9.914517 231.011060 29.160559 24 1
-1.163917 234.393810 -79.227043 19 1
-6.944350 194.490170 -19.992796 0 0
-20.744822 208.182250 -74.201485 21 1
8.009831 63.796860 13.423678 30 1
-13.979288 208.698560 -79.761345 21 1
-4.914279 49.601269 2.327081 0 0
-42.018814 208.961940 -48.177341 14 1
16.310863 225.926940 -80.885597 19 1
119.640520 125.512580 4.106709 1 1
-90.230774 103.262860 38.463654 4 1
-18.387711 230.952500 26.690758 24 1
11.129496 12.658718 -22.585869 26 1
71.563217 145.950730 -14.811155 10 1
109.361340 137.078250 0.619138 1 1
0.694547 224.662630 46.973408 22 1
28.707479 205.924300 80.063919 8 1
38.386803 229.317470 24.780499 15 1
46.209808 140.516070 -32.003830 10 1
62.122540 114.353830 -39.060978 10 1
-62.634205 141.287570 -13.471385 3 1
13.203844 213.034420 -79.146423 19 1
41.291279 60.810642 -51.263405 23 1
54.466137 118.174450 -41.670910 10 1
-11.447925 206.719560 -56.650932 21 1
43.135368 201.004820 84.000854 8 1
58.043774 89.319191 -3.844211 25 1
-25.687305 77.180717 32.886684 7 1
-85.436501 107.409690 43.283867 4 1
65.199181 165.797670 -5.507143 10 1
57.603935 186.424880 6.495247 17 1
32.749638 200.407390 -51.351540 18 1
37.020889 82.922676 -32.747231 23 1
-13.663088 195.036620 -52.368923 21 1
-1.774055 105.888140 -1.027003 0 0
-46.073708 184.393450 -63.094997 21 1
-4.250600 38.415115 2.883495 0 0
41.179024 217.513030 10.772496 17 1
-1.155838 81.665497 1.787259 0 0
-54.990089 135.695760 -24.863234 3 1
-42.906532 183.450760 -75.702049 21 1
-80.402771 134.285460 6.762783 4 1
127.364980 128.621520 16.536068 1 1
-76.625702 133.766160 -33.215824 3 1
25.880514 227.540910 -56.145279 18 1
87.695206 55.328548 -44.290192 12 1
-17.729536 205.803240 -116.727290 13 1
126.632130 118.967290 13.831419 1 1
-82.178978 110.721390 42.502060 4 1
46.151875 216.103970 17.650961 17 1
-33.294792 81.342796 26.770535 7 1
-12.269932 190.192060 53.852665 22 1
32.723949 142.031080 -73.620926 20 1
-73.368202 150.145890 -77.574982 21 1
30.974503 215.091610 72.239799 8 1
-14.985519 223.822940 36.387897 24 1
59.811958 81.696091 -45.844585 12 1
38.714489 228.958630 61.180237 8 1
-3.615638 242.960140 -37.998558 14 1
47.951504 148.932980 -19.450054 10 1
49.500511 87.023163 -23.127483 0 0
22.099482 235.391450 53.641743 8 1
10.067754 59.133644 8.436234 0 0
48.905781 215.225770 31.672577 15 1
48.894146 155.287260 -17.804817 10 1
-36.883911 210.935270 -54.899681 14 1
91.362877 158.678240 -0.065046 1 1
37.553238 213.429760 77.921463 8 1
-10.468666 193.516110 -124.468060 13 1
-19.695932 188.998950 52.832336 22 1
28.665575 222.854250 25.521082 15 1
-35.431568 199.446880 -53.222298 21 1
56.376369 194.163500 8.444509 17 1
-120.932620 130.323380 -32.019756 2 1
-18.564711 73.248032 37.250854 7 1
24.580561 178.847200 -62.094307 20 1
24.433056 219.264910 69.779999 8 1
-44.306011 187.547910 -78.758392 21 1
20.854870 225.123660 -41.701912 18 1
60.595394 83.759933 -32.409508 12 1
4.959593 201.338420 -79.813721 20 1
61.076958 85.801544 -15.717715 25 1
12.488743 15.791107 -15.317333 26 1
35.564190 217.651470 17.604832 17 1
80.339027 74.988449 -32.731602 12 1
4.321406 210.917660 -81.554657 19 1
13.773284 228.314420 22.174351 24 1
67.223587 127.504100 -31.582743 10 1
30.715899 161.339920 -61.574490 20 1
15.622497 230.126330 56.771515 8 1
29.328577 214.838010 78.895592 8 1
-51.838951 183.354750 -54.381035 21 1
-9.935015 175.689160 -144.867920 13 1
19.813635 163.794570 48.186363 9 1
4.624017 15.964071 1.658211 27 1
-16.169058 68.338043 40.977318 7 1
14.995006 219.747760 78.012115 8 1
-0.633912 149.544530 3.801257 0 0
50.459869 166.105350 43.827469 9 1
3.197434 206.842090 -59.433556 20 1
-11.720338 190.454010 -55.055000 21 1
7.154702 100.103000 6.225975 0 0
43.196075 152.683430 -22.284878 10 1
3.044758 49.806725 -0.556972 0 0
36.031509 196.245970 87.490295 8 1
10.890500 193.797470 -82.222626 20 1
-8.999704 241.109150 -35.101826 14 1
-27.102833 199.965870 -63.150261 21 1
-5.849871 78.044945 1.408563 0 0
47.535435 153.563130 12.325091 0 0
-6.159652 187.925840 -126.830310 13 1
10.458241 19.526800 -0.299699 27 1
-20.870668 222.123150 31.267477 24 1
3.673532 202.438870 -112.104970 13 1
11.269305 182.768420 -83.833023 20 1
119.790870 137.345810 19.513256 1 1
55.282188 91.179413 3.574919 25 1
-65.706589 86.934486 18.426954 6 1
-29.911568 200.831910 -76.138901 21 1
-19.467260 208.831180 -55.897240 21 1
13.427657 19.602388 -8.215490 26 1
125.876030 137.970080 22.378052 1 1
107.608220 153.814150 16.946495 1 1
8.169334 233.964660 15.778131 24 1
-74.747520 136.745000 3.388745 4 1
-76.574860 125.534360 -36.968117 3 1
67.337051 147.860240 -14.397746 10 1
-6.866798 170.871310 -152.010740 13 1
16.955887 232.533520 14.713121 15 1
40.576725 144.252670 70.285515 9 1
-12.458344 190.592590 60.947765 22 1
-16.477709 213.147080 -90.504433 11 1
37.494461 188.331180 -47.396305 18 1
-15.199611 73.585144 33.161697 7 1
-65.887718 159.532290 -76.598724 21 1
62.737461 170.165740 7.984184 10 1
-2.924130 90.549767 -0.927938 0 0
44.506775 77.003517 -39.166485 23 1
90.382019 175.416630 24.305866 1 1
29.582130 196.767400 85.076492 8 1
67.379890 117.389500 -38.617035 10 1
51.310471 191.896510 7.077754 17 1
-75.395721 129.118990 36.378490 4 1
-58.735493 104.350590 -57.056973 3 1
-5.018554 204.432890 -115.054190 13 1
29.644394 213.870210 4.696363 24 1
-47.405743 61.332211 7.679106 5 1
44.556274 219.110120 30.017773 15 1
12.111130 200.306530 -57.834236 20 1
49.524071 141.195110 -27.825472 10 1
4.005771 233.706600 19.711910 24 1
1.313420 190.289220 -125.128850 13 1
18.133986 221.493710 -82.131401 19 1
124.973330 117.493540 4.878808 1 1
0.003193 90.202888 4.830227 0 0
21.443430 230.981050 2.750280 16 1
-24.747692 206.243700 39.664944 22 1
2.225574 197.125050 -122.516690 13 1
-118.592970 135.323150 -20.576830 2 1
36.539421 55.942814 -53.502914 23 1
-106.942470 146.464080 -12.553119 2 1
-49.246288 83.900574 21.337204 6 1
-24.544031 227.853740 -55.783527 14 1
40.768257 157.922210 -15.585363 10 1
34.485149 193.362960 -46.018368 18 1
6.211451 204.169510 0.791006 0 0
53.393379 92.558273 -9.897751 25 1
-16.364149 76.481590 29.810343 7 1
-48.938587 196.798980 -45.765423 14 1
-29.056356 225.282530 -58.706917 14 1
-51.626301 172.783370 -78.216072 21 1
-4.492496 21.197134 -0.121140 0 0
41.737171 224.383090 -3.693156 16 1
-8.697788 199.624650 -48.516708 21 1
4.899282 194.090810 -66.842484 20 1
-18.967064 217.921480 32.545349 24 1
-10.618784 172.310070 -44.459221 0 0
87.919746 171.298800 17.009506 1 1
96.571945 153.508680 -3.126169 1 1
-22.279541 203.851560 43.885536 22 1
-18.148449 235.907640 -56.595882 14 1
-4.432040 181.452640 -0.769284 0 0
72.892723 151.270970 -15.797882 10 1
42.264160 172.717290 89.587875 8 1
18.549051 176.117140 -68.440346 20 1
-17.253769 212.284960 -85.116592 11 1
5.116042 242.646880 -58.716408 19 1
24.720528 210.423250 78.738655 8 1
16.012253 55.626213 19.873940 28 1
-1.186504 54.729538 -0.438435 0 0
-71.059441 138.162950 -22.022118 3 1
5.749779 215.119510 -94.061195 19 1
36.990170 224.134090 34.844704 15 1
-68.024033 86.452103 12.707521 6 1
-39.346703 199.986080 -68.748283 21 1
12.107262 61.778183 13.688473 0 0
-4.997155 189.428470 -131.762190 13 1
7.004489 233.924210 10.185914 24 1
-31.636892 225.104640 -54.481529 14 1
52.367016 164.279820 50.677185 9 1
-56.198650 174.923220 -74.486832 21 1
94.151527 156.823320 3.144853 1 1
4.841392 60.412525 15.180324 30 1
14.117463 15.837012 1.213664 27 1
58.217945 164.822280 1.474685 10 1
-12.329696 181.003860 53.366386 22 1
-5.192012 177.934570 -4.436602 0 0
-122.362980 125.196690 -42.242748 2 1
-0.590928 97.400467 2.746985 0 0
-4.296121 118.169120 -7.220558 0 0
-6.086714 167.802110 -1.702722 0 0
-33.022377 235.643720 -39.736313 14 1
11.010190 186.564500 -68.568741 20 1
-29.118956 218.995410 -47.291618 14 1
43.611702 165.344600 89.255241 8 1
53.352669 163.175670 -2.441312 10 1
105.306790 162.110090 18.551670 1 1
-105.073830 136.316860 -39.577415 2 1
-5.692994 138.925870 0.827683 0 0
18.122694 14.800321 -19.318235 26 1
-39.696659 189.578750 -66.077744 21 1
28.584066 174.174010 -55.175411 20 1
45.124912 179.729660 90.285629 8 1
13.023810 241.522780 -53.782337 18 1
-24.176086 202.245030 36.891624 22 1
9.006756 14.521372 -19.026814 26 1
-82.278549 144.677140 -17.797417 2 1
-23.812712 194.370300 45.951542 22 1
3.235913 206.292310 -63.947983 20 1
44.396069 219.681340 72.061691 8 1
-77.279869 135.230610 20.861053 4 1
-14.368231 239.420850 -42.971092 14 1
28.834648 213.277250 -1.396852 24 1
60.498871 178.628520 8.591384 17 1
50.955711 165.067520 88.454254 8 1
-63.627750 159.493480 -81.058273 21 1
45.977375 205.176510 10.814593 17 1
53.750015 90.084717 -2.062734 25 1
38.142208 227.384410 65.366989 8 1
-5.650162 214.960340 -33.689747 0 0
-67.964020 125.828310 -39.490158 3 1
52.703732 169.875760 -0.386948 10 1
20.473982 231.739090 9.542970 17 1
31.536789 227.072860 -42.266575 18 1
43.156200 219.435760 -9.646685 16 1
45.081631 224.007050 25.759304 15 1
45.839119 196.704820 -4.924056 17 1
-31.667290 195.497920 -66.375160 21 1
-3.951880 127.089140 2.397755 0 0
-58.536129 53.421059 6.832222 5 1
50.668037 187.037060 1.044914 17 1
123.418280 146.161210 24.963758 1 1
43.549259 80.706703 -35.416916 23 1
2.325906 239.536970 -47.414574 19 1
44.043156 212.582820 9.011446 17 1
31.981998 208.970720 82.521263 8 1
-74.855858 135.482420 7.698621 4 1
27.385201 213.905810 -43.719650 18 1
28.440132 232.288770 -39.269485 18 1
9.808132 233.903260 -80.705658 19 1
-80.093185 112.326760 46.417183 4 1
-3.779581 192.905060 -2.470831 0 0
20.028114 184.715470 -55.677650 20 1
39.473915 196.538100 81.663368 8 1
-60.171764 61.419216 8.177023 5 1
-82.792007 144.016540 -22.640511 2 1
52.021748 200.448670 7.353564 17 1
49.372913 160.761550 -7.386436 10 1
-79.838127 138.363780 -3.429053 4 1
-64.226036 104.378940 -57.101444 3 1
-4.380658 143.732940 3.783266 0 0
-56.786110 166.908070 -73.126480 21 1
14.828853 195.980960 -61.792641 20 1
5.128815 238.806460 -54.837090 19 1
18.349487 239.556350 -40.422138 18 1
-3.558539 85.833908 -0.915755 0 0
85.390282 169.861390 12.006285 1 1
-63.073429 115.357300 -49.606934 3 1
-9.396816 213.351060 -83.569672 21 1
3.504024 18.591455 15.555289 27 1
-71.145157 94.087151 -59.221832 3 1
33.497341 230.503620 61.595509 8 1
34.393356 151.431640 57.704838 9 1
12.503374 223.152650 27.256590 24 1
103.962180 158.423200 13.357532 1 1
47.501442 134.560990 -33.602432 10 1
-46.304302 79.088455 16.198933 0 0
30.493076 140.538210 -77.799461 20 1
-4.125096 223.105680 -9.005871 0 0
3.510890 207.537280 -93.814117 19 1
-0.900489 179.035660 -2.476161 0 0
57.421440 157.103180 -14.505078 10 1
57.186115 157.085430 -7.781983 10 1
-55.832336 67.754768 7.323931 5 1
26.855408 218.818740 -1.900316 24 1
-59.492714 87.959991 29.910866 6 1
-107.575110 142.140780 -20.693411 2 1
79.343048 65.034752 -43.033100 12 1
-91.316200 141.195050 -29.656237 2 1
6.976817 210.978290 23.472967 0 0
-13.097065 44.157940 5.817371 0 0
123.584720 116.666970 9.565596 1 1
119.925830 128.273530 12.557690 1 1
-59.165897 137.776110 -22.192207 3 1
28.631046 222.587130 71.268799 8 1
-78.350609 118.042140 45.781284 4 1
71.146408 160.398820 -9.248902 10 1
1.027215 200.578600 -60.021187 20 1
22.267418 124.850470 6.957087 0 0
16.143179 22.156078 10.707798 27 1
50.689732 169.744140 37.405319 9 1
26.060045 151.535780 -71.901756 20 1
-0.709003 229.726300 24.593479 24 1
34.549732 170.095170 38.538502 9 1
-0.212963 235.761640 -72.018044 19 1
-50.799591 175.289460 -73.129517 21 1
46.125767 160.266160 52.084503 9 1
21.846413 216.048750 -81.269524 19 1
-69.837143 130.869600 -29.745329 3 1
-12.233275 185.219960 56.280540 22 1
-11.512957 211.624070 -103.936960 13 1
48.115307 192.300960 82.501221 8 1
-0.009357 202.512530 -109.580010 13 1
26.222614 201.128720 87.350716 8 1
-27.626802 234.677410 -38.097675 14 1
-90.077377 113.448680 26.888186 4 1
33.849648 190.165540 -52.705757 18 1
39.016453 78.641136 -41.136806 23 1
18.214760 55.697170 6.576420 29 1
59.997040 171.599120 -5.990252 17 1
-11.094709 205.201550 43.973454 22 1
-78.850288 137.458540 13.177928 4 1
33.690388 214.435590 -1.048643 17 1
41.630074 72.183548 -47.294285 23 1
16.354874 240.179080 -47.099545 18 1
63.108501 175.522030 20.819206 9 1
7.196516 191.610790 -130.535420 13 1
0.312832 217.098920 35.755569 22 1
2.208530 205.499650 -73.005692 20 1
21.226357 223.203410 2.918444 24 1
24.727343 232.778110 -55.753223 18 1
-10.402042 185.265930 -51.440033 0 0
38.564243 204.767650 5.220696 17 1
27.517803 173.288380 -59.753235 20 1
-5.177136 233.005740 24.423071 24 1
14.831286 178.413940 -95.553551 19 1
37.617409 201.656950 -44.261707 18 1
13.323459 232.859600 9.694555 16 1
14.315857 208.303860 -90.310616 19 1
-59.187359 111.628840 -54.032410 3 1
19.618702 229.544190 -50.294312 18 1
48.250954 70.471512 -49.215965 23 1
-6.846436 131.296300 -16.989233 0 0
-48.378761 56.861721 6.813870 5 1
40.164497 177.140780 27.463282 9 1
-53.095779 134.578290 -30.700890 3 1
6.886462 191.928470 -88.768051 19 1
-30.175005 233.187300 -46.559395 14 1
22.479227 209.074620 -86.258652 19 1
-63.363674 98.100975 -61.403324 3 1
22.977102 233.113130 57.307159 8 1
5.057944 223.427290 40.164551 22 1
-39.234890 77.719658 11.512797 0 0
3.211477 232.836260 26.295145 24 1
-26.423820 209.003080 -99.897034 11 1
1.025086 212.039170 -2.905314 0 0
-77.985825 123.248390 40.699726 4 1
-4.817580 32.439079 -0.418859 0 0
36.131691 141.894320 11.092649 0 0
-5.761415 59.160328 1.875774 0 0
11.143438 111.031670 5.915582 0 0
-30.545935 203.417360 -107.097510 11 1
64.736107 85.146156 -27.302294 12 1
16.573616 172.239490 -78.670898 20 1
9.505624 20.696945 13.741825 27 1
36.473034 226.787290 -2.937446 16 1
36.833584 211.326930 10.995741 17 1
16.893955 188.424180 -64.202217 20 1
-42.253853 81.850800 20.924576 7 1
15.504206 12.332026 -22.571386 26 1
126.565500 132.309480 19.745836 1 1
-38.788574 200.255950 -56.204212 21 1
57.635128 169.963530 14.293696 0 0
57.547646 85.670258 -38.052040 12 1
-65.447487 130.554020 -30.091461 3 1
12.673053 198.310090 -84.521271 19 1
-16.656185 198.395100 41.903118 22 1
5.226632 191.470610 -71.934509 20 1
-84.831909 142.650160 -35.499050 2 1
-21.362501 216.690960 36.044525 22 1
-10.777811 225.764630 42.865387 22 1
35.518345 210.317960 -45.915798 18 1
42.353294 208.022950 10.407025 17 1
-57.551006 168.817980 -80.411163 21 1
-24.731878 229.947720 30.795952 24 1
-35.241089 83.498260 20.479040 7 1
21.479496 173.142070 -64.900658 20 1
-9.456333 208.939540 -108.682550 13 1
-8.381326 72.831612 -4.538245 0 0
26.759274 228.133580 64.875053 8 1
-2.587624 209.905080 -87.206779 19 1
61.665207 145.009920 -21.285255 10 1
49.245396 210.579970 75.996895 8 1
-58.973022 88.706314 20.119898 6 1
-107.479830 136.241910 -35.081871 2 1
19.577990 208.528840 -82.479820 19 1
1.530666 234.203160 9.570096 24 1
37.016823 209.968350 -2.509707 17 1
106.176320 149.448380 5.613702 1 1
46.922230 163.612730 -10.520216 10 1
3.086197 188.492170 -131.500050 13 1
20.577370 165.821260 -76.995155 20 1
46.040104 149.005450 65.169548 9 1
-50.644966 180.260540 -58.785801 21 1
107.256680 141.895070 4.717806 1 1
50.027843 161.408750 12.712965 0 0
0.144621 201.193700 0.288815 0 0
-77.408974 120.709120 -41.820297 3 1
-3.746361 146.915040 -2.465050 0 0
-21.282631 202.436740 -64.397903 21 1
5.939812 200.236530 -55.708778 20 1
34.117702 220.174790 22.154243 24 1
17.376064 171.903700 -85.801804 20 1
53.253693 162.275730 54.778786 9 1
-57.471027 130.132390 -29.247375 3 1
19.269398 219.290820 77.374458 8 1
-80.412018 144.426470 -28.574566 2 1
30.372980 131.031430 8.540559 0 0
15.488416 194.224040 -74.975273 20 1
30.902088 153.771220 -64.359154 20 1
23.555313 159.733990 -81.595924 20 1
55.053753 131.257250 -32.155060 10 1
23.644768 179.143590 -56.204243 20 1
-67.267395 91.015526 -59.680679 3 1
-1.287208 217.118530 -13.479907 0 0
3.180910 239.796250 -63.153103 19 1
10.416057 229.070040 33.008076 22 1
11.382243 17.840975 6.589309 27 1
-47.668415 186.512360 -54.993263 21 1
16.536098 52.224483 28.755100 28 1
-4.714972 209.992860 -70.593536 21 1
40.712440 183.249730 88.042931 8 1
-40.175724 204.707520 -55.006027 14 1
29.348930 205.691500 84.850212 8 1
-65.993645 137.893660 -8.710734 14 1
-2.748842 194.179920 -119.825110 13 1
20.131531 228.629880 54.934853 8 1
14.314931 178.593930 -76.610390 20 1
48.929329 158.292630 55.592659 9 1
-0.950249 219.310780 43.307606 22 1
35.402908 197.531310 -43.785152 18 1
-38.828148 211.082870 -40.965824 14 1
-39.765862 76.207802 17.229185 0 0
-73.038948 134.198990 15.041301 4 1
51.757713 176.225890 22.206619 9 1
33.452709 192.731700 85.949692 8 1
8.826031 242.144450 -51.529217 18 1
-3.399405 203.260710 -4.421617 0 0
58.932705 168.366000 -2.036752 10 1
60.222641 88.130257 -23.843021 25 1
-39.443859 202.172610 -63.311428 21 1
114.402930 137.916400 6.778436 1 1
26.842983 165.360520 -66.820503 20 1
26.627735 211.986340 -48.294952 18 1
37.747677 218.193440 8.237519 17 1
-28.778698 75.049919 40.464272 7 1
0.137370 150.009630 8.049905 0 0
15.040081 29.164774 19.768236 27 1
-101.962490 138.987960 -33.262848 2 1
59.302242 151.293490 -12.543316 10 1
-72.060768 84.075432 31.843750 6 1
-3.346976 229.810760 43.557606 22 1
12.983183 200.280030 -68.370514 20 1
17.341217 185.902110 -75.880699 20 1
31.901932 73.897514 -40.418907 23 1
38.372223 205.392680 78.305069 8 1
17.204252 231.736340 23.129223 24 1
116.244580 144.359760 13.655514 1 1
5.227062 22.134182 18.753767 27 1
-65.411629 151.426680 -89.671677 21 1
-0.590667 187.771010 -86.807831 20 1
53.665794 125.866680 -39.329285 10 1
12.970699 233.507580 37.958771 22 1
-35.520058 195.722920 -79.558762 21 1
23.101631 230.717160 -1.441396 16 1
49.308643 158.276460 -14.701996 10 1
72.356873 78.946190 -32.403542 12 1
22.336224 234.012880 -36.045559 18 1
-86.598381 115.366860 33.355530 4 1
44.394970 202.330350 -1.756152 17 1
-58.666664 117.826330 -47.767349 3 1
-27.292425 191.175480 40.538414 22 1
29.615461 144.183760 -70.823311 20 1
-12.934705 237.396300 -54.029865 14 1
38.034447 219.694720 67.929199 8 1
54.893764 166.405940 46.172440 9 1
-29.189682 200.766600 38.255493 22 1
-11.557974 239.247250 -39.014606 14 1
-64.979355 93.716209 -62.613361 3 1
17.887444 230.471820 32.406227 24 1
-35.914619 228.261180 -36.999363 14 1
97.338737 158.270000 11.900179 1 1
49.970570 218.177950 28.738211 15 1
28.742357 224.349500 -34.396992 18 1
-3.765156 108.845950 1.417137 0 0
28.173086 222.077670 66.668976 8 1
-31.002291 194.959670 -74.887245 21 1
-108.560460 137.198730 -28.264269 2 1
-12.954011 197.495940 -122.335200 13 1
-17.493025 196.207400 -49.849171 21 1
49.072823 93.913811 -14.257581 25 1
16.671495 16.546759 4.738081 27 1
2.537084 237.516310 -79.070320 19 1
37.387989 209.162160 -41.150650 18 1
-2.272915 224.818160 31.784338 24 1
-0.102005 19.440912 5.081258 27 1
-15.627966 207.896010 -92.863335 21 1
-85.648872 144.415150 -14.662633 2 1
-20.162977 181.767820 49.982288 22 1
103.834790 154.344380 7.970135 1 1
-2.165027 96.039032 -1.002471 0 0
63.977173 81.793098 -34.161533 12 1
63.943439 85.772453 -19.502470 25 1
-1.843710 227.459810 -85.422157 19 1
45.739971 174.314940 31.010559 9 1
59.250549 85.517548 6.852971 25 1
-72.096939 105.206590 -53.160080 3 1
-80.957199 123.016000 28.897099 4 1
9.517799 12.157215 -27.175512 26 1
-1.139791 206.918230 -57.833599 20 1
14.731560 186.756480 -60.408821 20 1
4.816587 194.308440 -95.062927 19 1
112.515890 144.380580 9.732122 1 1
17.351578 25.373177 15.919751 27 1
19.245293 16.364344 -11.756464 26 1
-82.490913 120.484810 37.043922 4 1
-78.528748 77.970901 31.236916 6 1
54.654785 182.361820 -5.074771 17 1
71.497169 159.234990 -0.457589 10 1
-39.236652 204.765210 -105.957440 11 1
-53.143642 175.134250 -68.377327 21 1
12.237142 192.314970 -55.219864 20 1
45.592564 187.354710 85.842377 8 1
119.418600 136.072400 11.756424 1 1
22.217028 29.102795 20.772202 27 1
-73.348007 83.659515 24.614523 6 1
111.901800 148.176450 11.911510 1 1
-68.927818 141.066440 -1.705620 4 1
22.408640 167.393390 -81.468521 20 1
-2.629739 207.638730 -25.695004 0 0
-34.991222 204.140140 -110.669360 11 1
39.164703 228.416870 19.476154 15 1
55.723213 87.876228 -27.700205 0 0
26.469131 225.346970 1.257080 16 1
76.715294 63.226978 -49.146339 12 1
86.550804 165.768400 10.508782 1 1
-9.246592 239.947240 -51.908638 14 1
-31.682798 64.337372 14.684967 0 0
-72.918083 138.339290 -4.110815 4 1
-87.387238 106.790720 37.335526 4 1
-2.327900 160.940990 -0.775376 0 0
-79.072807 129.428650 30.525787 4 1
-22.358042 239.636870 -40.339661 14 1
25.578350 140.294400 69.006134 9 1
40.815468 67.208481 -47.029144 23 1
39.333553 154.519930 59.509293 9 1
-6.526093 127.234840 -14.413630 0 0
-16.402040 209.230300 -63.696251 21 1
-22.287321 202.734210 -120.584090 13 1
104.811760 146.891270 0.129434 1 1
30.818350 228.868670 -33.226402 18 1
66.737534 75.590141 -45.498650 12 1
51.386658 90.364609 -21.303013 25 1
-60.925945 85.144775 12.023046 6 1
14.990656 224.103620 68.408836 8 1
57.672863 175.242220 26.308249 9 1
-48.490246 179.912380 -80.745926 21 1
11.686543 222.133730 -76.191750 19 1
48.496136 185.032460 87.885437 8 1
11.732907 187.257580 -90.119408 19 1
38.028938 77.868774 -35.901443 23 1
20.263933 174.057570 -77.090134 20 1
107.490230 157.532360 20.620455 1 1
-6.812729 238.578580 -42.557388 14 1
-44.662624 73.426498 15.596090 5 1
46.338425 219.106860 36.300610 15 1
-26.251822 59.254818 13.563188 0 0
65.812477 137.431550 -24.358810 10 1
39.204697 199.732510 -5.737155 24 1
41.464527 150.474790 8.444369 0 0
-44.910469 186.821850 -59.707073 21 1
16.367189 227.654890 26.904545 24 1
-36.381531 82.136154 32.345848 7 1
-10.963953 206.666020 50.430405 22 1
59.731285 168.735980 44.090305 9 1
-11.859318 219.824070 48.703625 22 1
34.609550 227.905780 -6.810724 16 1
41.158840 193.037490 87.208626 8 1
-44.138596 199.166750 -61.332642 21 1
-0.969876 219.371200 -89.652237 19 1
75.798553 156.872990 -6.169334 10 1
-45.255135 182.961030 -68.679848 21 1
-18.530674 174.638700 53.299473 22 1
128.757260 115.779170 9.661335 1 1
69.927933 174.353990 18.156704 1 1
-76.763489 129.865310 21.323774 4 1
-117.770090 134.904690 -25.239548 2 1
6.457193 17.404097 6.485140 27 1
39.782578 221.961590 -9.423720 16 1
50.265789 175.421400 26.159325 9 1
-16.446560 168.342100 58.114033 22 1
-38.545731 212.384430 -51.303181 14 1
64.821106 120.523610 -35.484364 10 1
43.341427 195.144590 82.601326 8 1
30.814369 220.895340 -54.475780 18 1
-42.727798 182.517550 -82.798309 21 1
29.069138 221.485110 21.555635 24 1
49.473606 129.596590 -36.311481 10 1
13.684155 191.884980 -93.658073 19 1
-0.656570 222.858900 -11.484755 0 0
107.418480 165.307980 23.418493 1 1
12.382582 221.131990 5.441052 0 0
-18.835772 207.375810 45.608002 22 1
99.830246 158.379410 8.336174 1 1
16.347601 199.897740 -90.803925 19 1
-19.562675 47.863323 9.014408 0 0
-21.477207 233.825870 23.559343 24 1
-33.699497 227.013790 -47.511162 14 1
-111.684500 136.282410 -36.039413 2 1
-0.183944 179.321880 -146.352940 13 1
-61.038074 163.574810 -78.559967 21 1
129.383930 109.952910 8.539944 1 1
37.031559 203.552030 -4.932140 24 1
-41.545570 200.016010 -45.484032 14 1
-13.180400 205.156220 -52.727882 21 1
-41.089874 203.243640 -71.104889 21 1
54.187107 211.111080 34.661781 15 1
-41.191711 59.792946 3.243871 5 1
18.205727 230.267300 -82.430458 19 1
-19.395674 80.638313 -3.284741 0 0
-6.660079 158.367420 -2.597923 0 0
-2.431487 61.090343 3.555521 0 0
-3.447363 66.135567 3.323081 0 0
-3.864268 202.164320 -68.444359 20 1
76.981140 169.254970 8.972405 1 1
-13.786047 234.202040 20.726320 24 1
-96.730713 142.389950 -36.003094 2 1
23.370409 209.972400 82.947258 8 1
83.051239 174.740810 19.654682 1 1
20.867064 19.861465 8.270083 27 1
20.092117 231.310270 60.016064 8 1
-4.328737 201.983840 -105.537470 13 1
48.096245 219.330310 -10.871624 16 1
-13.620559 177.934040 58.170845 22 1
36.475883 225.540280 11.949314 17 1
55.235874 200.733920 13.228412 17 1
6.668713 52.198154 -0.706676 0 0
-62.986362 88.883774 34.997063 6 1
-56.654243 64.002777 5.638291 5 1
-79.368423 142.847290 -24.748373 2 1
-2.845838 204.495320 -74.981850 20 1
-17.120476 203.110820 -49.935333 21 1
10.143720 227.895320 9.928369 24 1
45.904518 175.899000 27.034927 9 1
1.373455 194.415650 -125.807150 13 1
1.637706 224.942610 -83.124107 19 1
93.431198 164.030380 8.604496 1 1
-6.519949 127.278380 -9.956023 0 0
-12.919932 199.174060 48.009239 22 1
-45.790943 209.152620 -41.812611 14 1
-18.401476 179.325650 56.010204 22 1
43.177017 214.342500 71.982849 8 1
-46.516247 79.974358 20.308723 0 0
-19.619038 209.583620 35.523273 24 1
-2.208238 198.902040 -120.279460 13 1
-58.542274 163.094410 -86.579704 21 1
48.067055 145.034040 -25.038727 10 1
-68.234802 136.447780 -25.045450 3 1
115.250150 151.617070 18.109835 1 1
69.721527 80.566513 -36.251053 12 1
-86.604156 142.631150 -23.613249 2 1
-33.601704 213.673050 -57.249985 14 1
64.360481 132.725660 -28.849424 10 1
-36.795250 69.080841 18.919905 0 0
9.592706 20.692192 3.937967 27 1
-51.430042 120.640620 -48.387379 3 1
81.368996 71.099663 -36.354015 12 1
72.222298 165.653730 -1.385881 10 1
-120.805590 129.046480 -40.322651 2 1
-66.710121 141.752400 -6.586757 4 1
32.061302 136.195600 7.180058 0 0
-13.472620 71.865288 -8.597431 0 0
37.133629 223.393750 64.740456 8 1
-2.049006 124.699420 -0.624317 0 0
5.729944 104.564580 8.343758 0 0
3.445745 217.495900 -96.846611 13 1
-9.687793 208.863140 -62.691990 21 1
26.308615 171.580080 37.708233 9 1
26.532694 227.476120 60.722267 8 1
35.819546 178.127060 27.313406 9 1
-74.941666 141.425260 -12.108497 2 1
72.353432 121.804360 -33.090427 10 1
-2.328631 141.150730 -0.433905 0 0
59.994198 174.348500 2.773045 17 1
-69.947815 137.157930 18.467360 4 1
36.962044 197.799770 -51.609909 18 1
19.337606 187.104810 -90.446022 19 1
6.132404 196.355410 -123.969950 13 1
-22.440050 74.245758 35.951393 7 1
55.487934 146.228610 -18.425854 10 1
-84.979805 119.255880 32.961700 4 1
110.793460 151.695980 18.827246 1 1
24.390215 219.651920 9.349665 24 1
56.800552 163.361740 -8.537373 10 1
118.178630 141.025310 20.717516 1 1
-34.602009 215.349140 -41.653957 14 1
1.849416 168.520780 11.140689 0 0
74.746010 83.887459 -26.292107 12 1
27.317537 157.454390 -72.355957 20 1
-7.016976 228.005680 -14.281047 0 0
-23.989927 222.915760 -50.630119 14 1
-13.007683 180.088180 -44.948448 0 0
74.412689 68.671951 -49.740646 12 1
-24.591579 214.977340 33.645489 22 1
76.489265 70.370026 -44.036175 12 1
-57.499695 132.086930 -33.056980 3 1
-1.746759 210.736280 -29.825094 0 0
-0.844219 187.717990 -2.811816 0 0
35.463253 156.221330 52.842194 9 1
29.283743 225.827420 32.206299 15 1
47.170273 152.666730 -21.141552 10 1
53.572941 139.939850 -26.748787 10 1
-73.900475 112.053780 -49.905029 3 1
6.502787 227.421200 -85.266655 19 1
10.950710 67.762016 16.734451 30 1
-0.305125 33.016388 -0.536125 0 0
47.681309 79.155388 -42.200764 23 1
50.091888 80.590660 -37.152863 23 1
-12.114680 207.028080 38.321812 24 1
68.262840 144.728260 -16.969938 10 1
-28.785440 196.708330 -71.607338 21 1
13.501513 194.351460 -86.253906 19 1
39.784256 180.194720 20.026155 9 1
8.640719 198.528630 19.783745 0 0
15.841988 231.869020 -40.771946 18 1
-21.973537 191.682310 49.594650 22 1
33.563686 232.819790 23.773800 15 1
26.826441 142.435060 -78.430717 20 1
-2.763380 20.619644 -11.167921 26 1
-43.384098 194.531490 -74.821007 21 1
-36.316360 223.560150 -46.925098 14 1
23.557381 219.472530 4.752145 24 1
48.293491 151.227260 -16.040716 10 1
7.075817 189.720570 -83.483353 20 1
22.368341 233.512860 42.535164 8 1
-10.369277 154.458570 -31.368565 0 0
0.653676 10.255379 0.947451 0 0
3.963098 198.886050 -115.726370 13 1
-23.476320 235.557560 -55.981236 14 1
-102.688790 142.069670 -26.976311 2 1
26.928463 229.388730 4.339376 17 1
39.494762 206.911180 -3.789848 24 1
-84.203529 143.645400 -30.376339 2 1
-37.714905 188.332930 -81.083122 21 1
33.967934 226.642910 66.476669 8 1
27.217770 146.242000 64.378960 9 1
-52.925552 58.704044 7.669131 5 1
-4.848897 100.307410 2.678695 0 0
26.933119 147.313810 -74.633011 20 1
-54.727623 48.031155 7.471370 5 1
38.783958 172.564640 32.242081 9 1
27.999079 231.784790 -48.114529 18 1
4.215791 56.157417 5.330847 0 0
1.236799 231.930300 30.918264 24 1
22.162544 231.292570 29.700516 17 1
-13.305100 186.311360 -135.037930 13 1
24.859419 217.810750 76.664917 8 1
41.397129 222.665890 70.195450 8 1
8.807547 15.798308 -1.759247 27 1
-113.146180 134.174160 -41.091885 2 1
35.857327 204.853150 -51.357906 18 1
-3.072073 184.369090 -133.151860 13 1
20.224646 219.107970 71.390800 8 1
-4.746986 179.057330 -140.177670 13 1
15.308667 225.639220 15.535398 24 1
-12.739747 201.075160 44.041603 22 1
-3.419527 226.515140 51.252155 22 1
49.397095 202.244860 11.169672 17 1
-19.861370 156.963500 54.529156 22 1
21.130373 156.578770 52.316490 9 1
29.253149 45.316341 30.237604 28 1
11.405249 242.840120 -72.887466 19 1
75.632256 74.998932 -37.999352 12 1
7.429133 226.809200 34.682743 22 1
-25.853466 204.158220 -57.576885 21 1
7.040075 203.839920 -71.928581 20 1
0.543582 207.253310 -7.059244 0 0
28.663279 70.225746 -44.937347 23 1
40.213413 147.424130 63.913750 9 1
-14.641424 173.285280 54.809132 22 1
48.419304 178.633990 14.489188 9 1
-45.090698 64.515648 8.805513 5 1
67.908722 169.820590 2.053184 10 1
-1.901959 149.822890 -0.081211 0 0
-26.456490 231.323560 -40.131474 14 1
13.861234 200.911700 -73.425026 20 1
-17.851606 236.127470 19.577778 24 1
-4.202441 213.197360 39.484756 22 1
23.396168 145.816540 62.401211 9 1
-6.814846 138.677810 -17.867952 0 0
-0.274465 185.690690 -137.090410 13 1
-120.886500 130.219640 -27.083059 2 1
36.641491 216.465470 -40.252407 18 1
7.028527 231.795200 24.891348 24 1
-3.366796 85.268982 3.651375 0 0
27.989273 217.894490 -54.247070 18 1
32.251175 143.543210 68.261696 9 1
48.558662 202.547680 76.650742 8 1
-65.627197 100.620250 -58.960636 3 1
-16.734772 209.118900 -110.048980 13 1
81.403206 169.478650 13.969616 1 1
20.645529 223.655620 72.057785 8 1
24.432335 20.627899 12.757816 27 1
-8.638328 230.134900 39.312599 22 1
-24.382317 206.319180 -63.553020 21 1
-1.843989 223.634160 -15.880685 0 0
-76.080856 137.353680 -1.717462 4 1
39.373257 144.720700 12.037565 0 0
-43.586700 54.903107 5.580879 5 1
39.309406 221.336380 -2.014625 16 1
-21.990614 53.849232 12.114776 0 0
-7.835133 219.699430 56.180698 22 1
-32.102375 212.651030 -52.877728 14 1
53.017765 189.940230 84.411514 8 1
33.129013 227.766460 34.589252 15 1
-68.261070 152.483440 -81.593842 21 1
18.943413 189.352830 -55.235554 20 1
62.971786 127.061740 -33.396374 10 1
-53.456646 169.711980 -80.289688 21 1
-67.323013 86.578850 27.374399 6 1
-124.039340 131.748630 -20.199852 2 1
-36.751419 71.073273 7.031511 5 1
68.477661 81.639351 -2.463085 25 1
115.942710 155.005970 22.488640 1 1
-71.743988 141.930020 -18.331501 2 1
-3.502846 13.956142 5.385469 0 0
2.239609 189.805820 -95.540787 19 1
65.911674 149.416920 -18.533678 10 1
16.426298 16.668715 -16.128040 26 1
-0.196472 213.061390 -102.195690 13 1
9.492454 213.061220 -91.677216 19 1
8.933321 24.540728 14.940788 27 1
29.942514 138.308440 -73.989830 20 1
-75.702560 144.336060 -18.632288 2 1
-8.101088 220.865980 33.051350 24 1
98.900673 153.392780 6.571241 1 1
77.016418 173.114640 10.345053 1 1
-35.400280 191.494400 -70.532257 21 1
4.006855 186.615310 -92.121956 19 1
-12.225244 203.329620 -104.710030 13 1
31.853065 171.894740 35.673843 9 1
5.958743 198.208560 -94.429062 19 1
-25.117945 72.947006 39.954994 7 1
66.187302 156.055690 -13.096003 10 1
-87.554298 102.307530 43.553104 4 1
-81.026848 129.374850 26.162256 4 1
46.369392 223.313800 32.515175 15 1
