-0.462647 55.103275 26.043186 6 1
4.933636 51.128273 -20.500103 9 1
22.065624 47.371796 8.229028 10 1
2.879659 51.780457 27.237387 6 1
-6.433656 63.903820 0.228995 3 1
-37.411003 49.720634 18.266813 7 1
-7.522500 67.872345 -2.166731 3 1
12.968498 51.174423 -13.740501 9 1
15.601154 52.130131 14.013657 10 1
-1.850839 35.673264 4.202179 0 0
-9.334305 21.023081 -13.791705 4 1
-4.656880 42.254814 0.999724 0 0
-25.268993 53.140919 23.361570 7 1
10.116434 45.247761 -26.647385 9 1
-16.092592 55.241718 50.879959 5 1
-7.426518 50.988956 -1.222003 3 1
-17.431534 22.497030 -18.890186 4 1
23.169451 50.560783 33.435436 6 1
-8.853878 20.033295 -2.989589 4 1
12.198390 52.380814 26.860941 6 1
-7.097650 48.375786 14.930490 0 0
28.238586 51.142349 -9.153108 8 1
-1.027184 58.275723 17.856382 6 1
-4.490570 19.293869 -1.303431 4 1
30.428944 49.972252 -16.224583 8 1
17.481686 52.358463 -1.401218 10 1
-28.808283 52.302532 10.154341 7 1
-27.197683 54.943394 4.824728 7 1
-7.976572 22.000477 -5.328953 4 1
-8.060152 22.647032 -10.772794 4 1
-1.879940 45.913441 5.222537 0 0
14.965442 46.979156 -22.982317 9 1
-19.916164 54.512096 15.914124 7 1
-14.824638 53.693188 56.508728 5 1
-1.568316 19.202190 20.725021 1 1
-13.749978 21.198812 1.547640 4 1
29.712572 50.519581 -21.604847 8 1
8.958897 41.943043 -33.214737 9 1
5.567286 46.396328 -31.004011 9 1
1.961169 55.526947 22.644567 6 1
26.223085 52.989952 -20.984097 8 1
-37.229012 51.160030 9.734310 7 1
-9.746727 63.561718 -4.166689 3 1
27.181915 48.887627 -11.272569 8 1
8.188102 52.244141 31.407146 6 1
-9.516451 21.527159 -19.433235 4 1
-30.762861 56.155079 47.178509 5 1
23.542923 49.382614 -1.195051 10 1
7.425344 13.950995 24.784014 1 1
-12.367461 55.802483 43.367775 5 1
1.452020 52.353596 36.306389 6 1
-1.919146 22.689173 12.636457 1 1
-7.801519 59.210415 41.607262 5 1
14.547917 50.133816 -19.550673 9 1
-21.251637 53.897957 21.964235 7 1
9.656134 48.607754 -20.180799 9 1
0.610270 24.622223 4.616654 0 0
-25.072601 15.746970 -17.488653 4 1
-2.619216 36.518875 1.336628 0 0
-3.472097 55.672619 29.804798 6 1
15.531332 52.958790 27.517231 6 1
10.277542 15.394700 15.562102 1 1
5.180182 17.360283 15.800992 1 1
18.217937 51.240055 9.693093 10 1
-18.845581 18.520500 -11.131461 4 1
22.113535 50.911091 -8.642219 8 1
22.859177 52.879414 -13.548822 8 1
-21.908157 17.325102 -12.982499 4 1
14.956171 51.863964 10.197423 10 1
4.581050 52.752068 31.427835 6 1
8.451097 54.467861 -12.517310 9 1
-14.068000 57.370396 34.521626 5 1
-5.541244 46.962379 -0.633495 0 0
-15.058877 57.246983 12.926000 7 1
-9.342136 50.472008 4.873567 11 1
-14.942030 18.559431 -7.050733 4 1
14.628821 46.825153 38.075211 6 1
-2.285628 48.536278 0.950177 0 0
-7.235893 56.605526 3.622588 2 1
11.824409 48.199638 34.634773 6 1
9.421475 48.248558 38.115345 6 1
-13.015309 21.998549 -4.543724 4 1
-0.146919 22.818632 2.189693 0 0
17.502619 53.633305 25.195049 6 1
22.760176 48.254223 3.654874 10 1
-27.213995 56.680336 43.679794 5 1
-24.443748 18.890074 -21.084858 4 1
0.183951 54.062500 33.612846 6 1
-33.473110 52.036438 6.393403 7 1
-5.062869 52.848286 -1.089675 3 1
-22.782417 53.596634 12.604511 7 1
11.229591 40.922455 -35.391644 9 1
-7.563686 59.865391 2.290349 3 1
2.240377 21.479815 10.169230 1 1
7.634204 49.660740 32.821678 6 1
0.283221 44.880104 -36.586288 9 1
33.873318 47.585632 -18.806690 8 1
-20.467665 20.683712 -20.906137 4 1
10.780777 37.895294 -38.392628 9 1
34.972069 47.583630 -21.641541 8 1
-29.650036 51.875160 15.916565 7 1
-16.736673 20.296272 -8.699022 4 1
-4.971007 45.792286 8.886663 0 0
-25.504683 53.947556 46.606419 5 1
-28.241730 53.222664 51.261845 5 1
-1.062337 20.839991 14.881389 1 1
-14.518332 55.558640 38.611126 5 1
-1.748770 28.370932 1.399752 0 0
-14.915200 54.921898 47.871105 5 1
-21.992512 54.349316 43.764835 5 1
21.897020 47.284031 18.030455 10 1
-13.889827 59.388237 5.804070 11 1
-19.265800 53.315319 47.359974 5 1
31.333302 48.528267 -13.574784 8 1
15.016153 43.613026 -32.960777 9 1
-24.186808 57.604115 3.022871 7 1
-3.822287 52.537220 4.815877 0 0
10.352096 48.502991 -23.043615 9 1
-21.672064 19.033606 2.736227 4 1
3.046548 39.787693 0.720155 0 0
-17.971315 54.411488 18.204588 7 1
7.489667 55.611469 21.270418 6 1
19.165796 51.091782 -9.305837 8 1
-16.378397 54.403347 45.213963 5 1
13.388643 54.140194 -4.331831 10 1
29.786425 43.348045 16.726460 10 1
-30.156086 50.751823 21.374084 7 1
-21.526625 16.568119 -7.084987 4 1
-11.186189 57.912350 16.445742 7 1
-23.767418 56.954369 40.406792 5 1
-31.492327 51.322353 10.559672 7 1
-22.077833 57.821461 6.260345 7 1
-23.081900 51.816208 55.556469 5 1
6.321952 41.491501 -38.114452 9 1
30.991716 48.364426 -18.658237 8 1
-16.123322 56.914719 29.490028 5 1
19.654692 48.206184 12.464162 10 1
23.511044 50.262470 -12.571509 8 1
0.518716 2.328486 2.142498 0 0
-19.296970 54.422852 52.821819 5 1
29.530910 43.275085 11.904779 10 1
-26.801071 51.399414 13.684663 7 1
7.134284 51.554996 27.584402 6 1
-6.149622 66.491302 2.541622 2 1
17.974457 49.657639 34.855076 6 1
-0.042202 31.448248 4.190616 0 0
-18.250738 20.275152 -15.719898 4 1
17.660519 45.713726 -28.488928 9 1
1.182161 12.388587 4.522387 0 0
-7.802286 52.220112 14.457986 0 0
19.080610 49.318924 17.083874 10 1
19.669838 50.831360 6.359986 10 1
-13.968407 55.364109 52.747810 5 1
-2.677917 55.879097 22.176136 6 1
-13.014656 19.536488 -10.608515 4 1
-2.470118 39.629482 4.715872 0 0
-40.482895 50.409645 10.641126 7 1
-0.440438 54.084595 22.602442 6 1
-19.373024 53.868599 55.682430 5 1
27.862177 42.240601 21.038910 10 1
9.778517 40.485672 -38.087788 9 1
11.669394 17.607544 9.324418 1 1
-16.180920 22.740889 -21.371105 4 1
27.432467 47.441822 2.720545 10 1
17.925310 46.911385 -25.986561 9 1
-20.025030 58.631405 32.523273 5 1
9.143652 46.094795 -30.189564 9 1
2.434866 54.458843 26.620852 6 1
22.968830 45.876091 15.426945 10 1
-19.221277 56.249760 40.963451 5 1
-12.054112 20.734552 -14.282062 4 1
21.300306 52.190948 28.316315 6 1
-16.928368 19.595074 -13.275937 4 1
-4.913811 22.108307 -15.998467 4 1
24.880484 45.569656 9.856397 10 1
4.723071 44.002911 -33.707279 9 1
-0.652317 20.140163 6.054443 0 0
-36.057060 50.956696 12.812249 7 1
-16.622215 55.580124 23.604893 7 1
2.742491 19.460173 12.986858 1 1
11.565489 54.480778 24.944271 6 1
32.905815 50.500107 -8.572895 8 1
16.154793 49.147621 -21.752939 9 1
22.865778 44.630661 21.488220 10 1
16.429045 55.739071 23.771734 6 1
21.196333 48.969463 36.504578 6 1
1.152193 15.273216 2.206805 0 0
-2.434385 30.561642 3.182582 0 0
-24.501720 52.734318 17.510645 7 1
-10.319296 56.137245 49.443325 5 1
-5.318634 54.813332 24.269814 6 1
-32.158474 54.288658 2.701411 7 1
-17.945333 55.985489 12.476867 7 1
-5.865501 21.006292 -20.575861 4 1
6.570236 19.356359 10.235746 1 1
-4.231905 44.695747 2.234011 0 0
9.348714 51.311905 -16.429602 9 1
-7.223033 48.818516 0.424590 3 1
16.110033 51.078857 29.389227 6 1
-18.232279 19.187838 1.217949 4 1
3.259965 50.999519 29.831516 6 1
12.852305 45.237438 -26.931536 9 1
-17.502474 59.342106 8.549725 7 1
-8.595156 21.459328 -0.694678 4 1
37.315651 47.190899 -11.236863 8 1
-7.880555 22.283119 -15.715163 4 1
3.862776 50.373154 32.487862 6 1
-10.210378 58.834820 31.243196 5 1
-2.630227 42.073898 -0.834129 0 0
3.072963 52.039379 -23.686792 9 1
-19.789225 57.296230 10.924120 7 1
-24.825907 53.064014 50.340858 5 1
21.873066 50.689049 4.377163 10 1
-13.634072 21.022146 -1.141623 4 1
0.760641 17.733929 25.125992 1 1
-13.308647 21.158638 -17.135897 4 1
0.381214 17.561926 21.834255 1 1
1.836287 46.332382 -34.959629 9 1
24.513828 48.476295 8.388399 10 1
-2.160294 26.540850 3.586714 0 0
-29.154367 55.443096 2.318041 7 1
-22.715004 55.874798 11.193093 7 1
-7.413221 52.508575 3.900766 0 0
-1.789044 20.978292 3.208114 0 0
24.729998 45.460659 12.515369 10 1
-7.469164 48.681519 3.496167 0 0
5.477621 50.210026 39.103897 6 1
-6.064114 55.682301 19.157402 6 1
8.666157 57.516163 19.416967 6 1
16.947727 51.365795 -10.729537 8 1
-3.416821 21.601778 -3.333118 4 1
3.752875 41.990234 -37.706821 9 1
28.395206 49.872074 -6.836755 8 1
-2.217197 23.026138 -9.033205 4 1
26.747072 51.423462 -15.438866 8 1
8.586128 47.204498 -27.528843 9 1
12.097378 54.480392 -9.190227 9 1
-4.118824 57.984962 0.726766 2 1
-5.276703 64.000046 2.611219 2 1
0.961023 55.008087 -21.958735 9 1
14.158288 16.567509 13.403543 1 1
-1.376246 52.244610 -29.271702 9 1
2.892507 49.849445 -27.322592 9 1
-13.935207 57.615620 31.051908 5 1
-23.224295 15.963002 -5.106958 4 1
-25.057547 53.079014 14.884025 7 1
-32.608875 50.672527 20.438190 7 1
0.968716 20.084621 17.363325 1 1
16.909575 50.524689 -15.832994 9 1
-2.997049 54.866352 26.622389 6 1
-15.835369 18.984209 -2.648923 4 1
3.175202 15.957634 25.716982 1 1
15.537841 51.893528 4.714548 10 1
8.071331 53.749733 26.450930 6 1
19.880733 53.644634 -11.536544 8 1
-10.670475 53.962112 3.466556 11 1
15.154486 45.750401 -29.183208 9 1
-4.983106 40.917473 5.318439 0 0
-17.021128 24.522264 -23.058954 4 1
11.315087 51.073143 29.190357 6 1
10.741371 18.098690 11.953311 1 1
-8.771107 59.034447 -1.094174 3 1
30.430311 45.424904 6.683726 10 1
-15.356424 55.081722 41.091152 5 1
-5.504640 21.390121 -0.176892 4 1
-18.426094 56.643169 32.029644 5 1
2.832021 16.820358 20.722242 1 1
39.363125 46.611256 -19.425270 8 1
5.888761 53.109306 29.225147 6 1
-1.676058 15.924709 5.285040 0 0
-25.495806 13.430595 -6.881834 4 1
26.959362 46.454018 5.436367 10 1
-4.514166 22.560055 -19.024788 4 1
4.136998 56.708042 21.219650 6 1
-25.600603 56.332626 7.940541 7 1
-13.128379 56.838188 47.773170 5 1
-11.184011 21.314451 -2.868234 4 1
-11.452847 58.040211 41.716862 5 1
-24.630266 55.107880 41.968216 5 1
19.046776 46.330791 38.897312 6 1
4.070252 53.249676 24.456751 6 1
23.388905 52.004856 -10.599986 8 1
-6.651217 65.478157 -1.906119 3 1
5.040952 15.401948 24.029076 1 1
-6.320718 56.204544 -2.319502 3 1
9.647448 47.755630 40.715908 6 1
-13.301327 57.084759 4.756524 11 1
33.538448 49.561531 -23.280834 8 1
-5.886350 61.354504 -1.343339 3 1
-0.481479 33.788273 3.174956 0 0
-20.040834 55.035416 49.165180 5 1
-8.279731 54.990677 -0.321377 3 1
-26.859125 53.955723 54.288715 5 1
0.466746 52.417591 26.751482 6 1
-40.602348 49.766319 13.212608 7 1
-24.948151 57.741783 35.542774 5 1
7.294489 43.851036 -30.730234 9 1
-22.638372 52.372807 52.286407 5 1
8.623328 50.650780 29.429447 6 1
-7.250986 62.408798 5.572066 2 1
17.430897 49.982185 5.534757 10 1
14.329737 46.401100 40.850590 6 1
-21.472557 22.528404 -22.464460 4 1
12.993044 18.865110 4.810325 1 1
-1.419915 5.453298 2.997428 0 0
-22.078175 55.594528 38.441105 5 1
10.533897 15.334393 18.077879 1 1
-3.891039 21.546150 -7.845389 4 1
10.560686 48.249352 -6.014373 0 0
-3.637302 54.034481 1.074473 0 0
-11.507050 57.783848 44.667892 5 1
14.708617 54.022320 8.859361 10 1
-0.812700 48.202965 -32.353958 9 1
6.520603 54.556271 24.538612 6 1
13.274114 51.114742 -7.864905 0 0
-22.109287 18.380608 -1.385504 4 1
-24.057877 53.497128 57.137829 5 1
13.054540 57.530125 21.237259 6 1
-0.496061 0.824518 3.978111 0 0
6.606184 13.692882 27.140295 1 1
-0.454371 22.381788 4.935915 0 0
6.809690 48.864243 -24.568254 9 1
-26.235662 14.945867 -15.356296 4 1
0.313362 17.701885 2.738525 0 0
30.620239 50.485458 -9.574475 8 1
16.074224 53.850475 0.065989 10 1
-21.963158 56.258217 35.985802 5 1
-7.427731 52.520885 16.900234 0 0
-21.036289 52.778240 49.516823 5 1
-19.524046 18.938068 -5.742141 4 1
-0.866167 11.344656 3.279546 0 0
-2.294433 47.947800 6.628480 0 0
25.847467 44.455418 19.256962 10 1
-2.818531 19.952049 22.890923 1 1
3.123886 50.475681 34.954693 6 1
14.564244 50.237110 31.134459 6 1
-0.672677 53.302956 30.394753 6 1
-7.005238 62.274979 2.157859 2 1
5.672209 56.063061 -15.190161 9 1
6.613402 16.142401 19.815813 1 1
-9.479894 61.912258 -2.353928 3 1
-28.803724 55.588737 48.555756 5 1
-10.702170 54.162636 19.586632 0 0
-29.223604 54.052200 6.460675 7 1
-12.395510 57.813370 39.064541 5 1
-27.808971 58.121826 39.489815 5 1
37.041588 47.308662 -22.934755 8 1
18.901012 50.594288 11.961143 10 1
9.138231 46.453640 -4.709024 0 0
-26.965635 16.963060 -18.604212 4 1
-1.194020 40.143742 2.678945 0 0
-29.548420 55.849369 43.987076 5 1
-13.025649 19.378645 -5.756212 4 1
25.647377 49.381405 -13.600090 8 1
-24.269899 59.567970 32.435112 5 1
-20.072256 55.856533 43.224190 5 1
11.921220 51.567600 31.593678 6 1
-23.153784 53.862648 45.890877 5 1
-31.868549 53.119652 4.902059 7 1
21.618898 48.008797 5.915536 10 1
4.147380 20.260004 11.158267 1 1
-11.871825 22.191210 -18.825859 4 1
-13.468401 55.180180 20.047310 7 1
-2.173322 43.536629 1.112336 0 0
-3.147005 37.523117 5.734722 0 0
-22.455198 53.894409 54.175400 5 1
-18.108130 56.100536 44.844273 5 1
-31.646210 51.731239 14.164845 7 1
1.038261 7.501827 3.863404 0 0
18.643515 48.740604 10.324270 10 1
28.064779 51.827003 -19.922274 8 1
-33.981731 48.994667 21.972940 7 1
-15.069412 20.934937 -10.343088 4 1
27.078157 46.571369 9.860548 10 1
-11.280024 56.948135 30.179680 5 1
2.534489 14.174912 27.217302 1 1
-26.347853 53.406895 10.138603 7 1
3.131344 18.585955 17.958342 1 1
-9.624083 51.936352 2.686564 11 1
-18.224829 54.319862 42.292191 5 1
26.598114 49.841553 -17.291962 8 1
31.977493 48.324566 -9.007235 8 1
-40.550636 48.827354 16.809530 7 1
6.948944 43.360241 -2.596030 0 0
-14.865432 55.025932 43.441669 5 1
14.705888 47.395790 -25.387163 9 1
-22.265882 51.581436 58.766788 5 1
-11.593152 19.972912 -7.905392 4 1
-10.140682 57.320862 34.291428 5 1
-37.569077 47.818142 19.927605 7 1
-9.841985 52.343273 17.740475 0 0
-21.824898 19.738602 -19.175858 4 1
17.773830 56.884277 22.157972 6 1
13.174356 42.562878 -35.132950 9 1
-1.002004 37.956593 0.320387 0 0
23.983988 53.186646 -17.759764 8 1
0.520859 4.734825 4.229268 0 0
-18.111521 55.452389 37.095318 5 1
6.678452 47.626110 -3.946682 0 0
-22.977137 16.753702 -16.574369 4 1
-25.302843 56.546589 38.548550 5 1
0.179416 54.310875 28.390869 6 1
24.100346 49.931232 2.300763 10 1
24.834255 50.921837 -7.056239 8 1
7.377071 17.693117 11.731343 1 1
12.267432 54.793159 3.144011 10 1
-14.769114 55.683819 36.255047 5 1
-36.394424 48.598495 16.432707 7 1
-6.991164 48.224556 12.409142 0 0
-37.737675 50.105984 14.425672 7 1
16.563459 49.995674 14.356433 10 1
11.575528 50.899784 -15.631718 9 1
-30.200064 50.671028 23.770287 7 1
-26.253658 54.661930 44.483349 5 1
-1.927418 51.204712 4.130548 0 0
19.946209 48.037880 19.126202 10 1
21.154036 49.892277 8.052613 10 1
-7.791496 56.687180 20.824673 6 1
6.739283 42.628525 -33.587093 9 1
28.794979 48.630207 -13.116756 8 1
29.074688 45.560390 10.878180 10 1
-9.914521 58.118824 46.471527 5 1
-8.378752 19.962376 -6.427931 4 1
-11.963677 56.386578 51.977577 5 1
20.916224 52.752422 -9.612068 8 1
21.559322 52.124405 -4.639429 10 1
-15.782145 55.715984 20.197859 7 1
11.011474 50.578377 33.603737 6 1
-17.555693 20.104383 -6.250268 4 1
19.933958 50.577187 2.690506 10 1
-17.868448 56.069229 34.318352 5 1
-27.991238 52.880253 12.314549 7 1
-16.872356 59.017559 5.934832 11 1
1.289107 20.719986 15.050694 1 1
-17.373873 53.164631 52.222610 5 1
5.936353 52.413712 -17.525425 9 1
-13.791321 22.422586 -21.643396 4 1
18.250843 51.761974 30.026716 6 1
-19.551647 58.142719 8.760416 7 1
-3.744642 50.079987 5.072656 0 0
17.548195 52.441635 1.998012 10 1
5.988447 38.886452 -39.918335 9 1
9.205977 21.367178 5.144496 1 1
-7.977360 65.030197 -3.783693 3 1
-7.880236 59.473862 35.999695 5 1
15.622117 49.247936 33.208736 6 1
-20.034975 18.055765 -8.236717 4 1
-22.701298 56.245293 42.588284 5 1
-0.508683 17.824427 6.003006 0 0
-15.680846 21.315825 -17.928873 4 1
-28.612547 51.223801 17.925076 7 1
13.565913 49.432991 35.541920 6 1
-1.454603 8.882606 4.156848 0 0
17.399239 51.374023 -3.495478 10 1
25.773907 45.254570 17.080566 10 1
-5.125703 57.784809 18.938004 6 1
40.331841 45.722290 -14.960339 8 1
-13.050250 55.279152 17.381023 7 1
4.443879 19.327240 14.673865 1 1
-5.773833 44.963722 10.910449 0 0
-17.700256 19.895052 -1.511549 4 1
18.355104 48.108265 15.075795 10 1
-20.962692 53.701458 14.036055 7 1
2.244900 52.613548 31.569670 6 1
5.319015 50.921875 36.280251 6 1
15.897264 53.904995 -8.230104 8 1
13.517494 49.521713 -17.592489 9 1
-0.581734 22.400480 -13.292837 4 1
-11.428833 52.737427 5.716818 11 1
10.168939 52.919971 25.934835 6 1
11.654592 56.587875 -0.280851 10 1
-3.555910 39.740776 2.694844 0 0
6.752280 58.895164 17.960814 6 1
3.885307 42.065201 -0.438794 0 0
35.064278 48.798203 -10.914301 8 1
-19.886063 18.665947 -16.403460 4 1
2.909519 55.488171 -18.248566 9 1
5.601817 47.423084 -28.959877 9 1
-15.352297 55.769161 16.487509 7 1
-3.325271 46.704372 -0.009847 0 0
10.358667 47.438221 -26.026697 9 1
-30.170113 54.237446 51.946411 5 1
1.104857 36.658184 1.153906 0 0
-3.828554 46.071297 4.011061 0 0
-0.907368 15.487957 3.180164 0 0
3.471467 47.511139 -31.114277 9 1
-10.778432 55.950264 7.019876 11 1
3.191232 59.569824 17.976387 6 1
13.055645 47.898354 39.633865 6 1
26.977661 44.042076 15.256763 10 1
-7.542832 55.245872 1.826768 3 1
30.464891 48.905212 -7.386696 8 1
12.988832 44.509636 -32.354820 9 1
-17.064980 54.112244 56.545525 5 1
30.651516 48.950859 -11.266292 8 1
28.898415 50.696251 -14.567825 8 1
-13.573760 56.333126 7.216319 11 1
-20.029434 52.548820 51.778114 5 1
9.148970 45.409801 -34.518032 9 1
23.042942 48.538090 10.718735 10 1
8.359581 19.502296 8.305065 1 1
11.562398 56.733696 2.115299 10 1
-23.295521 52.774536 22.262775 7 1
1.401072 40.275490 -0.783622 0 0
13.670299 55.349503 -1.132480 10 1
12.181459 20.487894 6.157331 1 1
26.711742 46.691113 12.173216 10 1
10.279856 55.034237 22.311058 6 1
4.945633 51.156288 27.971926 6 1
-16.801077 54.261215 48.973713 5 1
21.149546 47.342052 10.372021 10 1
1.264772 51.468102 -27.313536 9 1
38.027512 47.125641 -15.142291 8 1
5.230272 49.927330 -22.386703 9 1
14.768398 53.291084 6.415941 10 1
8.458713 56.675007 -11.522499 9 1
23.996405 47.132153 13.832295 10 1
-28.752131 58.991669 36.988476 5 1
-24.535606 54.976891 48.568462 5 1
21.092581 50.657402 32.575104 6 1
-25.771133 13.162240 -11.530417 4 1
0.738829 46.453529 -32.995552 9 1
16.420614 48.013603 39.090115 6 1
-16.530348 18.317039 -5.361434 4 1
11.623512 44.041946 -29.328173 9 1
1.099367 10.168776 4.225102 0 0
18.858109 49.596626 32.418873 6 1
-20.123480 51.896378 58.165573 5 1
22.838572 47.081917 37.169125 6 1
-6.741077 20.376797 -4.391755 4 1
-6.189352 21.420767 -10.614115 4 1
-17.183924 17.965235 -9.473455 4 1
13.318358 48.493702 -23.062418 9 1
7.366246 50.820347 35.381622 6 1
33.201374 47.720871 -12.428249 8 1
20.221746 51.097778 0.123641 10 1
22.981680 48.386330 0.738199 10 1
-22.643179 52.478603 18.711706 7 1
-26.915070 55.660534 47.379559 5 1
2.853710 20.550640 7.304178 0 0
-26.405687 51.966618 21.854168 7 1
3.940161 53.691486 28.299509 6 1
-26.050457 56.845158 4.342073 7 1
14.211029 55.644657 23.808483 6 1
-9.087464 20.623774 -10.844049 4 1
-23.724075 56.795727 9.030106 7 1
27.999977 44.663136 9.157429 10 1
-34.078381 50.890396 17.089548 7 1
-20.132980 19.113779 -3.178936 4 1
6.687449 18.222233 14.431831 1 1
-20.384022 20.028803 1.239789 4 1
19.141178 53.995735 26.631891 6 1
-0.734035 53.183247 24.670528 6 1
-24.722223 16.746752 -19.854170 4 1
20.659380 53.035954 -13.622272 8 1
-6.258467 42.992073 5.991156 0 0
1.389342 18.512108 4.764555 0 0
16.420424 46.272194 -24.481676 9 1
-2.891257 53.549496 29.920160 6 1
-14.631258 59.589367 7.869926 11 1
12.202291 16.339539 14.999278 1 1
28.857410 48.593689 -16.958624 8 1
21.412346 49.346367 -0.636453 10 1
41.186829 45.245499 -17.450384 8 1
21.496244 48.449108 13.647988 10 1
-26.453281 54.452339 51.636467 5 1
-4.428326 41.477566 8.502838 0 0
8.541944 42.405972 -36.733555 9 1
-36.089527 49.844398 20.021135 7 1
-0.369040 26.575592 4.867517 0 0
1.799099 55.852097 20.477468 6 1
0.896484 39.198204 1.135725 0 0
-16.673483 56.736313 38.243969 5 1
-18.879381 54.639507 13.939008 7 1
16.318750 52.050091 11.937222 10 1
-9.359974 68.450218 -3.251964 3 1
1.505017 55.166393 24.760183 6 1
10.467871 46.527588 -24.020216 9 1
23.641375 47.283756 5.477836 10 1
-14.759604 19.417345 -12.956048 4 1
13.728829 53.381279 0.769058 10 1
-3.480777 21.310877 16.814049 1 1
-35.387310 51.470749 4.857403 7 1
22.551109 55.080647 -18.166529 8 1
-7.763941 50.851353 1.011891 3 1
-23.117683 15.839545 -9.839097 4 1
12.224970 54.420658 5.293333 10 1
-11.475846 56.893925 27.730232 5 1
12.534340 16.280914 10.873665 1 1
8.292519 53.611816 -14.516678 9 1
28.515978 50.795971 -16.859081 8 1
17.941376 50.040752 3.420415 10 1
30.394770 50.348156 -19.537062 8 1
-3.329621 20.753531 19.076258 1 1
-28.748455 56.462330 4.195748 7 1
9.349190 44.308258 -28.616028 9 1
-33.836346 51.263035 14.686131 7 1
7.750077 39.604675 -38.058796 9 1
-19.343082 53.718895 20.937855 7 1
-1.418309 55.478710 24.093550 6 1
-14.462168 18.790947 -9.173259 4 1
-19.492407 55.134506 39.070030 5 1
-10.117889 55.395805 17.900629 7 1
29.817110 51.465221 -23.630365 8 1
-31.532246 56.822857 42.227879 5 1
16.496115 51.392303 0.266171 10 1
16.835894 48.455967 16.994240 10 1
4.771032 58.208366 18.568520 6 1
-12.123356 57.950512 35.260212 5 1
-1.711637 24.288263 1.975694 0 0
19.117855 47.997540 35.788166 6 1
-35.242523 50.452568 10.787332 7 1
5.662406 20.880196 7.701735 1 1
-22.312592 19.166595 -21.243124 4 1
31.445827 49.634441 -22.612350 8 1
-0.435914 52.370522 32.440819 6 1
-17.398630 58.784386 28.407391 5 1
-3.939267 56.088226 1.737131 0 0
-18.918194 57.142685 35.854851 5 1
-9.793357 58.803440 38.359314 5 1
0.298860 14.328361 5.400656 0 0
-26.091047 51.825108 18.667139 7 1
18.221300 53.483101 -8.601281 8 1
-10.019962 21.908367 -4.676172 4 1
-1.739364 23.873865 -15.675950 4 1
-13.766977 56.049881 32.562096 5 1
3.969617 15.519014 22.022881 1 1
0.234231 21.781399 10.890395 1 1
-1.238753 32.939407 1.183241 0 0
1.094871 58.449154 18.067226 6 1
-40.519573 48.523678 9.631627 7 1
-7.736961 21.254225 -12.378488 4 1
9.564042 49.006775 33.504360 6 1
-12.057960 56.155918 40.398987 5 1
2.886853 54.836258 -20.476187 9 1
-1.670627 2.070016 2.386492 0 0
-2.547031 44.311989 3.899133 0 0
-24.672596 17.847378 -17.626007 4 1
28.212881 43.161629 19.144821 10 1
31.404066 49.994839 -5.522826 8 1
-0.423311 19.577623 2.010029 0 0
-26.236652 52.511772 58.083389 5 1
26.567514 49.999714 -7.950526 8 1
10.321848 58.997417 19.387144 6 1
12.884865 52.673771 -12.225739 9 1
-5.242186 45.122723 0.403164 0 0
-4.326228 54.530064 22.266304 6 1
-6.810896 60.489815 -3.058633 3 1
16.473806 47.327366 37.053246 6 1
15.424669 52.566231 -6.268932 10 1
13.385965 47.478607 36.371872 6 1
34.738163 48.305950 -16.921993 8 1
-2.153433 18.043955 1.548503 0 0
15.080577 51.983860 -8.648201 10 1
-25.617611 15.125997 -13.214066 4 1
7.995180 15.218484 21.458658 1 1
4.406951 42.822933 -35.819077 9 1
18.057720 51.808571 7.420904 10 1
4.562313 54.906593 -16.737108 9 1
0.128775 52.222519 -24.822083 9 1
0.162939 27.924191 2.207939 0 0
-12.432063 20.493549 3.053964 4 1
-14.139752 57.010643 43.087883 5 1
-18.617290 21.603453 -20.426331 4 1
-1.543808 37.770756 4.269751 0 0
10.394780 48.386883 36.190022 6 1
25.161877 49.684338 -11.347907 8 1
-0.520599 19.356884 18.888203 1 1
-3.611829 51.797546 0.042311 0 0
-9.446290 20.733131 1.104896 4 1
-9.720365 58.753540 40.625309 5 1
-2.427512 23.000172 -11.660163 4 1
-38.090073 50.411224 6.464006 7 1
-24.743704 53.689331 55.048725 5 1
-26.312883 51.902576 24.754396 7 1
-0.015937 35.806519 2.748594 0 0
-15.911407 20.805681 1.539251 4 1
-15.636142 20.742979 -6.945602 4 1
2.041156 49.210976 -29.469433 9 1
22.018946 50.276871 -2.463060 10 1
-17.865818 20.645844 -17.913765 4 1
-27.973009 52.949493 55.853710 5 1
22.775480 46.044632 19.682482 10 1
-8.501951 63.529240 -0.120904 3 1
6.835323 54.962646 -13.774361 9 1
-35.104687 51.265415 7.532323 7 1
-11.247695 56.299614 22.562798 0 0
23.744307 52.828403 -15.458346 8 1
-10.347085 56.908878 37.464031 5 1
-20.405109 59.110134 30.065405 5 1
-12.434320 21.283943 -6.492359 4 1
-14.425155 54.809437 54.730213 5 1
11.647634 49.381519 -19.635115 9 1
9.029192 51.201744 33.128250 6 1
27.985184 51.903687 -7.174930 8 1
11.784400 44.025780 -34.447201 9 1
-0.208215 48.915993 -30.171089 9 1
32.795025 49.079269 -17.734648 8 1
-7.584133 60.980064 4.072761 2 1
4.062749 48.390980 -26.375900 9 1
-4.105839 22.190231 -12.793778 4 1
-14.451225 58.136475 29.062672 5 1
15.662434 52.085007 -2.399471 10 1
2.868158 44.576996 -34.485863 9 1
11.168506 57.247108 20.152952 6 1
26.791712 50.863277 -10.634377 8 1
-3.368057 35.260548 2.827432 0 0
17.205675 51.604809 -5.574373 10 1
-16.731073 57.902611 31.349957 5 1
-24.827274 14.170949 -9.616934 4 1
8.207774 16.330933 15.015350 1 1
-21.410076 53.646671 17.236460 7 1
-8.089243 52.947948 -0.748208 3 1
34.468555 47.268532 -14.833911 8 1
-38.651260 49.656227 9.956422 7 1
13.976457 55.218506 6.532730 10 1
19.739632 47.220848 17.225563 10 1
-3.053463 57.867783 18.679836 6 1
-7.630379 56.271614 22.851622 6 1
-12.697746 55.644299 45.416317 5 1
-21.341690 53.436069 47.145603 5 1
-4.484596 60.329586 2.793123 2 1
-0.521066 12.409983 5.852464 0 0
-15.374199 53.894890 52.367126 5 1
13.283253 18.886780 9.141437 1 1
5.758083 44.470383 -31.979761 9 1
-27.076014 59.337643 35.813660 5 1
8.334035 55.706112 23.152784 6 1
-16.192722 57.360153 34.046776 5 1
-22.140896 54.814865 49.160885 5 1
-11.077956 57.456120 48.051292 5 1
11.063232 47.521523 39.126316 6 1
22.497742 48.684296 34.220943 6 1
-24.223272 55.551540 46.451149 5 1
14.917357 54.200016 -2.949007 10 1
1.364059 15.805687 24.738909 1 1
-14.634519 20.618546 -2.975942 4 1
26.465269 45.416885 8.011874 10 1
23.018362 46.528091 10.142050 10 1
4.163523 53.033039 -20.539431 9 1
10.319807 14.238489 20.661833 1 1
10.206263 52.186615 30.660614 6 1
-7.736004 50.172600 14.184875 0 0
1.098173 21.162884 5.518166 0 0
-12.798455 22.517096 -23.431082 4 1
20.785053 55.161758 -15.553201 8 1
8.433908 47.905281 -22.660191 9 1
-27.291773 55.944992 6.695391 7 1
9.505886 50.026482 -18.648754 9 1
13.030485 17.320948 7.828698 1 1
-12.224743 58.018833 14.690453 7 1
-17.252451 21.002501 3.845422 4 1
-8.721390 58.964371 43.412361 5 1
26.787188 44.932308 13.375510 10 1
37.728848 47.201599 -17.489908 8 1
-21.992523 58.102978 32.585136 5 1
-20.882870 56.578930 39.766056 5 1
-11.845571 20.100082 -12.210684 4 1
21.648376 52.341465 -7.063818 8 1
-11.740625 21.427902 0.938597 4 1
-2.075264 50.016964 2.332432 0 0
-14.194819 58.663292 11.745604 7 1
-32.390923 50.102798 17.918653 7 1
14.770430 48.296345 -20.528526 9 1
-13.961690 57.314011 37.535469 5 1
12.216963 52.365078 -9.148940 9 1
-0.434288 7.189759 2.473008 0 0
0.122748 52.379524 34.751900 6 1
-5.141136 62.464478 1.285914 2 1
-30.948610 58.078491 40.577873 5 1
-21.389305 18.306093 -17.722334 4 1
-16.602163 56.513477 40.277184 5 1
3.289749 51.984562 33.606655 6 1
-1.903784 41.498642 1.344360 0 0
-28.293262 53.728016 49.296745 5 1
-20.007105 59.188156 4.767466 7 1
-5.669092 59.763771 4.354598 2 1
14.977823 48.691219 37.180836 6 1
6.960931 50.640228 -20.402481 9 1
11.825154 47.178085 -22.610716 9 1
33.327950 48.856201 -14.103466 8 1
-20.230986 17.209763 -11.818095 4 1
20.237015 47.735676 7.440909 10 1
-0.320812 4.164048 1.889807 0 0
-14.552709 55.513641 5.646763 11 1
-8.262338 56.088436 18.950443 0 0
5.813578 50.062630 32.038109 6 1
1.634397 44.222561 -37.937370 9 1
-9.544948 66.552185 -2.590987 3 1
-8.731137 22.155443 -17.684444 4 1
28.981457 50.000816 -10.690552 8 1
4.435007 42.174202 -2.438578 0 0
12.784894 17.624390 12.373027 1 1
2.078763 50.586170 31.411833 6 1
-14.075898 57.037266 27.314657 5 1
-14.416931 21.053616 3.503949 4 1
3.526760 51.119648 -21.954597 9 1
15.507175 50.020119 -17.788485 9 1
10.213644 53.507801 -12.426085 9 1
-35.013199 49.701008 14.038735 7 1
-8.964491 57.516472 50.518890 5 1
-6.483862 20.621662 -6.469186 4 1
18.260178 54.822849 -12.267561 8 1
5.613395 46.211903 -3.006324 0 0
29.699247 48.602650 -14.955770 8 1
5.860546 49.774254 34.572681 6 1
-8.369804 62.111534 -4.042167 3 1
-10.978118 55.752075 53.602341 5 1
20.388206 49.195404 15.550018 10 1
-32.219242 51.630276 8.719270 7 1
16.989681 50.136814 8.561682 10 1
-13.136816 53.684109 5.244043 11 1
-4.055530 54.257427 28.456158 6 1
-15.094708 55.692299 34.163990 5 1
7.449929 52.049335 -16.149128 9 1
34.119324 49.029728 -7.890529 8 1
-28.398937 54.337772 53.070286 5 1
-14.483633 18.804979 -4.516437 4 1
10.590281 17.219168 14.171095 1 1
-5.291663 43.889511 8.286948 0 0
24.693975 51.967968 -13.876594 8 1
-28.462706 50.835064 14.697516 7 1
-4.454901 38.998123 5.204348 0 0
-23.342060 15.920958 -13.016580 4 1
-23.840294 51.532848 57.399208 5 1
-1.767869 32.349991 3.763632 0 0
-23.523539 57.871662 4.889649 7 1
11.659501 43.153111 -31.202131 9 1
-25.564997 56.871277 42.150501 5 1
-15.641011 56.694584 14.748048 7 1
-7.630174 58.627178 -3.276997 3 1
-26.163498 16.773832 -16.136105 4 1
1.226594 52.569809 -22.996613 9 1
-3.099323 41.173275 5.892893 0 0
16.566187 52.162716 9.023825 10 1
-29.024437 53.246986 8.298288 7 1
11.817110 45.493584 -31.090601 9 1
29.482134 50.782314 -5.447752 8 1
16.957090 52.559593 5.927752 10 1
14.698483 54.132713 2.325132 10 1
13.772080 41.063499 -36.312115 9 1
-6.901405 20.515436 -1.276100 4 1
6.063282 11.884808 26.542145 1 1
6.123000 16.178328 17.756649 1 1
-11.175259 19.961910 -9.958205 4 1
23.659763 49.604961 4.811373 10 1
27.819853 49.205433 -9.258579 8 1
8.259934 44.336124 -35.933266 9 1
-5.542527 53.138599 4.002041 0 0
0.060955 50.929989 -29.602882 9 1
25.223642 48.113365 6.441868 10 1
-20.970436 17.547144 -14.818031 4 1
8.884221 12.647126 25.053703 1 1
37.280640 47.541767 -13.362287 8 1
-9.535419 21.435608 -7.052949 4 1
1.392900 51.808388 28.532251 6 1
18.952913 51.796089 -7.476797 8 1
-4.018444 19.679201 0.600289 4 1
17.822184 48.737690 13.287030 10 1
-21.551882 18.613419 0.525414 4 1
14.242510 41.747875 -33.300137 9 1
15.080346 44.708534 -31.218927 9 1
21.204979 48.953884 2.671484 10 1
3.482789 55.013187 23.781771 6 1
-11.213392 21.230110 4.711550 4 1
-21.235607 57.882256 35.149250 5 1
-17.927879 54.027790 16.277155 7 1
16.349886 53.131760 3.394974 10 1
-23.983282 52.382725 53.718754 5 1
-17.876408 61.093033 7.742200 11 1
-28.628321 51.996956 21.792442 7 1
9.138557 45.641285 -32.243759 9 1
7.564365 13.812984 22.834394 1 1
-5.686269 48.290104 4.210696 0 0
-38.127926 47.946590 17.508440 7 1
12.456235 14.555257 17.902546 1 1
6.222515 41.505226 -36.160892 9 1
-22.862362 52.818546 50.214222 5 1
8.680467 49.779812 37.093052 6 1
-7.670885 20.759525 -9.485708 4 1
-12.599529 53.503441 3.293027 11 1
-24.154667 53.796902 11.115905 7 1
-17.984428 54.885216 51.182327 5 1
-0.295508 13.677323 2.762380 0 0
7.476827 45.727127 -31.223984 9 1
37.353699 46.567726 -21.062046 8 1
26.078575 47.306728 8.278344 10 1
11.914395 49.500816 32.256523 6 1
24.049992 44.271343 19.985155 10 1
-11.002492 19.562948 -3.698338 4 1
-5.229606 49.242626 6.299941 0 0
35.578148 46.972893 -18.062275 8 1
-9.727306 56.728313 45.125973 5 1
-1.608259 47.634922 2.562705 0 0
-33.269836 51.679478 11.256465 7 1
20.004896 47.225517 37.423058 6 1
23.424152 49.536682 -9.042463 8 1
7.764316 52.757866 29.578365 6 1
6.665530 52.840572 25.450350 6 1
-28.103529 56.235851 41.955002 5 1
-7.784327 21.181480 -20.232264 4 1
-23.060452 56.433224 7.190619 7 1
6.334855 52.284576 32.107796 6 1
20.911234 50.121689 -9.940945 8 1
-16.909292 54.176991 19.860441 7 1
0.230307 29.964470 2.918151 0 0
14.692521 50.791756 -14.751914 9 1
-1.999156 53.276283 26.149145 6 1
-17.484003 53.999271 46.779369 5 1
-7.203218 64.165619 2.696301 2 1
1.070490 53.117722 -26.320070 9 1
-10.012021 21.323668 -22.546495 4 1
-16.178061 56.452923 44.389942 5 1
14.133297 46.638756 -27.292950 9 1
22.852863 49.409290 9.005015 10 1
-20.768089 55.608807 10.996664 7 1
24.506243 44.738895 15.687351 10 1
-21.075842 52.619194 55.783264 5 1
-2.072713 34.678242 1.136808 0 0
-30.366030 50.429485 14.786507 7 1
-31.955326 55.565254 45.784874 5 1
-12.615740 21.297913 -9.940159 4 1
7.321417 46.518726 -26.232685 9 1
-20.053600 54.606697 41.760334 5 1
4.870460 16.435331 20.591055 1 1
-16.059235 56.269314 46.582230 5 1
-22.515604 53.289516 20.581821 7 1
-3.118670 22.405458 -15.360985 4 1
-13.606093 55.550972 41.889061 5 1
-5.984571 22.076490 -4.877415 4 1
-5.608391 46.868408 11.275805 0 0
-7.891235 21.672916 -3.437772 4 1
18.543304 52.430336 -10.639484 8 1
-21.078846 54.553497 23.827906 7 1
-9.611900 63.864140 -2.240289 3 1
-10.519830 50.363869 3.323150 11 1
11.680303 46.723804 -27.236769 9 1
4.779833 45.945946 -32.787872 9 1
30.519209 44.215309 13.251724 10 1
23.834919 51.749046 -8.562322 8 1
-18.921124 52.719719 53.614899 5 1
-6.146446 57.918179 4.545821 2 1
-5.265979 56.116791 29.205221 6 1
-13.952421 20.938211 -14.586488 4 1
31.115299 42.145275 16.049175 10 1
-14.731406 55.777218 49.577129 5 1
-22.519606 55.608788 45.146622 5 1
-18.780268 57.639179 33.718224 5 1
29.479111 43.239910 14.842880 10 1
-8.873099 53.759560 16.731436 0 0
-19.300404 55.812626 46.309589 5 1
-9.706451 22.464598 -15.040603 4 1
25.068041 53.174728 -19.382820 8 1
11.651279 45.851448 -25.501041 9 1
-7.745199 66.560852 -0.768462 3 1
-34.256615 49.499477 15.792985 7 1
13.861423 53.443977 26.620604 6 1
23.495342 46.534534 17.140125 10 1
-4.032828 21.136806 -1.502674 4 1
-2.297710 28.445717 3.232747 0 0
4.367920 52.220715 26.109390 6 1
-4.961941 57.569782 -0.957996 3 1
19.547611 50.876492 8.352384 10 1
10.362995 41.845203 -36.819668 9 1
-20.850031 53.885841 45.344028 5 1
-6.680043 54.789272 3.463138 0 0
14.522610 51.612385 -12.686648 9 1
16.857557 49.063416 36.279579 6 1
25.757645 49.658691 -15.596418 8 1
22.765774 50.298531 31.568810 6 1
14.078674 51.850239 28.037825 6 1
-25.159010 17.519066 -22.188505 4 1
7.793414 49.843544 30.934708 6 1
-38.125343 49.728485 16.508865 7 1
-30.122162 52.232903 11.521455 7 1
-1.598155 56.737995 19.129440 6 1
9.408018 40.997795 -34.839176 9 1
-29.622612 54.567520 47.185333 5 1
-5.839108 54.443935 -1.754830 3 1
10.227890 50.071201 -5.615248 0 0
20.051632 54.989880 25.216562 6 1
3.127844 15.090883 23.965229 1 1
-2.814982 19.570061 2.465894 0 0
20.524918 51.998234 30.046148 6 1
-18.248100 56.536121 39.335495 5 1
25.908804 49.020176 2.712399 10 1
3.477726 51.766262 36.292732 6 1
19.192293 48.708069 6.074845 10 1
19.007580 51.973450 -2.699911 10 1
0.185580 16.828182 23.566793 1 1
-1.433682 54.972775 21.064999 6 1
5.902463 56.279228 20.447260 6 1
-19.510731 53.546791 17.488979 7 1
13.094093 15.085258 13.901280 1 1
-5.201623 22.603889 -9.347053 4 1
-15.914482 58.904621 9.653728 7 1
30.698090 50.151577 -14.302459 8 1
13.902775 42.727455 -31.719870 9 1
-29.066637 54.981682 50.476883 5 1
-12.323169 55.867085 26.251476 5 1
-40.230083 49.264622 14.993394 7 1
-25.160538 58.227562 37.502842 5 1
12.196744 52.778118 28.704597 6 1
18.449965 50.589214 -0.881510 10 1
-14.031556 19.766533 0.274233 4 1
5.455024 44.330284 -3.212367 0 0
-25.779020 53.566620 48.461079 5 1
-28.818993 54.471535 3.992658 7 1
-22.655489 16.617599 -14.637872 4 1
30.688931 44.494141 11.026722 10 1
2.967044 41.877769 -39.413319 9 1
-6.211805 49.405724 -1.091723 3 1
30.921677 48.809570 -20.628351 8 1
40.118462 45.214165 -20.834127 8 1
31.618393 50.066124 -12.536136 8 1
10.010764 46.633656 -28.609676 9 1
-3.576851 22.331629 -5.256843 4 1
21.330008 49.986507 6.135547 10 1
14.660938 52.986134 11.678094 10 1
-5.533224 22.814554 -11.749916 4 1
7.663211 49.560261 38.682167 6 1
-10.902167 21.666945 -12.990737 4 1
-5.392460 55.986095 25.740753 6 1
-0.963689 50.941990 -27.989996 9 1
16.379707 51.227707 2.975598 10 1
-30.685787 50.629845 16.857056 7 1
-3.885201 53.203243 3.012889 0 0
13.875778 44.542522 -28.428667 9 1
-13.295761 19.218868 -7.715369 4 1
-35.596504 50.346741 18.039534 7 1
29.917332 45.798515 8.555715 10 1
20.240902 49.503254 1.103531 10 1
-11.759797 57.786640 5.571129 11 1
-24.350836 52.711132 13.103157 7 1
-3.633059 55.538815 23.918743 6 1
-29.398270 56.381371 45.770733 5 1
-11.983780 56.942913 24.342712 5 1
16.692205 52.857567 -9.636505 8 1
-19.267876 54.893173 22.417662 7 1
-14.253431 21.345005 -5.778194 4 1
-23.619961 54.452454 50.703636 5 1
0.874272 10.896813 2.521669 0 0
-31.392626 50.885712 12.371037 7 1
-18.279629 19.248907 -8.667730 4 1
0.183460 8.716744 5.032040 0 0
10.818748 41.768848 -33.696861 9 1
-7.515737 57.995434 2.412605 3 1
-3.361985 38.197346 1.669321 0 0
-24.045204 52.706902 24.697552 7 1
-4.997480 20.568415 -3.670426 4 1
-10.101994 56.786240 41.457142 5 1
-10.285542 58.802307 33.101822 5 1
-0.081878 16.209970 25.857243 1 1
6.896401 54.585194 22.717722 6 1
9.726278 16.656099 12.623953 1 1
11.330853 51.749470 -12.651005 9 1
-19.824472 54.706768 51.017746 5 1
-14.757768 54.934982 45.943764 5 1
-27.006302 53.002796 52.704067 5 1
-12.182883 55.235668 3.836433 11 1
-8.582620 56.725658 -0.927076 3 1
2.934155 49.552570 -25.427601 9 1
-16.116982 54.969700 21.929674 7 1
8.783808 15.097978 17.460590 1 1
-12.491065 56.508762 20.891546 7 1
-17.326967 19.466061 -10.644634 4 1
21.978888 51.291561 -13.183465 8 1
33.511814 48.164589 -10.128995 8 1
1.739354 20.473669 11.649055 1 1
15.837822 54.532681 25.223034 6 1
-9.466148 56.621548 47.693859 5 1
-6.960610 55.037830 20.735859 6 1
-12.440143 57.893238 28.970161 5 1
0.915184 57.056961 19.269146 6 1
17.553701 51.011360 13.172928 10 1
27.808405 52.169510 -21.727942 8 1
21.651196 52.941040 -12.054654 8 1
-10.594320 54.100311 6.677130 11 1
-17.126463 19.954912 -3.721528 4 1
-8.137624 59.663586 0.547521 3 1
35.157520 48.320843 -19.960062 8 1
-8.871286 53.678341 3.761998 11 1
-29.379793 57.268753 40.043591 5 1
11.682246 56.882050 22.367582 6 1
-24.659658 15.099531 -6.225691 4 1
-11.883842 56.840218 50.120190 5 1
8.089254 57.353783 21.295055 6 1
-11.725410 55.725288 48.229488 5 1
23.676474 46.404823 8.338188 10 1
-27.551153 52.390659 15.072710 7 1
-5.319558 56.578011 3.582411 2 1
12.893735 50.515434 30.417854 6 1
-25.911217 55.934814 45.831196 5 1
-18.996853 17.437544 -9.622524 4 1
-7.177320 51.083961 15.782132 0 0
-3.010008 50.212166 0.748819 0 0
16.242638 48.052876 -23.892351 9 1
-30.562431 52.500320 9.501452 7 1
17.402023 53.453098 27.019051 6 1
24.666586 51.550690 -16.927588 8 1
-16.194923 55.187893 37.385120 5 1
-39.578281 48.605644 11.202615 7 1
17.854776 49.124271 -21.068222 9 1
0.374387 2.447837 4.058337 0 0
-0.500744 59.931019 17.188358 6 1
32.094822 49.478874 -15.430593 8 1
-14.342875 54.656551 51.059986 5 1
-19.585884 53.519665 57.467140 5 1
13.468355 46.046608 -25.386417 9 1
20.330687 51.125866 -3.702673 10 1
-3.810333 42.908211 2.515443 0 0
-9.974740 21.603390 -9.518295 4 1
-4.627289 54.303978 26.011286 6 1
13.992954 48.769047 33.887215 6 1
2.013490 47.462444 -30.011686 9 1
13.955827 20.190496 5.753082 1 1
2.347936 47.471584 -32.605328 9 1
-20.632166 54.013401 54.170311 5 1
-0.711224 18.945711 22.491991 1 1
4.192453 15.018276 27.076965 1 1
-8.766073 21.387373 2.883251 4 1
31.090967 48.297775 -16.835939 8 1
1.111596 14.284845 3.753736 0 0
27.984493 51.029884 -12.981809 8 1
-16.605881 54.503677 43.279766 5 1
-0.847751 51.531925 29.092485 6 1
7.897685 59.163719 19.563990 6 1
-7.359234 47.772743 1.912129 11 1
-14.509915 19.463184 -1.488671 4 1
12.263975 18.693783 6.592591 1 1
-22.265961 16.514915 -11.392115 4 1
-2.134760 22.256151 14.485276 1 1
-26.365335 55.350380 42.748623 5 1
-1.411898 19.706490 4.458946 0 0
-40.945492 47.999809 13.476720 7 1
-19.480825 57.723976 31.016705 5 1
25.270567 52.652721 -6.286927 8 1
-20.474426 19.337042 -14.819900 4 1
-24.431366 54.286125 44.596691 5 1
-5.109240 59.335854 -0.556746 3 1
-12.171725 57.398342 46.315567 5 1
22.189278 47.346375 16.155024 10 1
24.299051 49.610943 0.485726 10 1
8.897477 52.157951 26.988094 6 1
9.364743 20.542662 6.791266 1 1
-37.849171 51.310074 8.020467 7 1
11.123311 48.928848 -21.310955 9 1
35.431465 47.062595 -11.288568 8 1
-35.980110 48.651348 18.567221 7 1
26.522036 42.904163 20.018919 10 1
-3.531213 36.308331 4.422731 0 0
-2.155026 31.432972 1.621167 0 0
-5.027374 55.055817 20.501036 6 1
16.527018 47.418457 -22.130239 9 1
13.357957 45.511868 -30.060467 9 1
-16.869696 57.429768 12.637477 7 1
15.720356 44.067608 -29.522419 9 1
-26.005978 54.754971 7.139185 7 1
27.875105 47.728996 4.447517 10 1
-4.559953 22.948074 -14.418223 4 1
24.506039 48.013821 3.234345 10 1
-34.377110 50.333347 20.335371 7 1
8.386009 45.296581 -27.152567 9 1
-22.636677 53.594154 56.001766 5 1
16.797352 51.557739 15.234277 10 1
-37.280792 50.762802 11.491003 7 1
17.729755 49.830132 15.773281 10 1
8.460542 42.854950 -31.743547 9 1
-11.736963 58.051903 37.399658 5 1
11.756668 15.633605 16.594498 1 1
19.600962 50.720055 4.453803 10 1
4.725695 17.897547 17.488277 1 1
5.991605 51.873482 -19.250916 9 1
-20.214174 55.907928 36.331013 5 1
-2.566446 59.178207 17.548681 6 1
-6.670005 52.501404 -1.874844 3 1
12.957518 54.299751 23.640612 6 1
-18.102377 18.106461 -12.730350 4 1
-13.946998 57.739655 14.261673 7 1
16.279732 50.557755 10.270101 10 1
-5.625012 51.086002 -1.369811 3 1
11.121692 39.992790 -37.002483 9 1
14.427505 52.687012 -4.780663 10 1
0.742699 22.121689 3.615497 0 0
-29.551666 52.600632 52.355263 5 1
-7.862877 66.834541 -3.606118 3 1
0.136713 55.752159 22.280159 6 1
10.436920 18.891602 9.067412 1 1
18.714626 47.306816 20.205135 10 1
-23.220449 57.235611 35.099545 5 1
-12.442037 57.609337 43.148148 5 1
0.438696 24.433487 2.793473 0 0
19.698265 47.902149 9.141381 10 1
15.974943 49.062660 -19.405441 9 1
23.875389 47.806892 12.178823 10 1
-6.001298 63.437748 4.166313 2 1
7.113313 46.604923 -29.454882 9 1
-12.502040 56.527481 34.245239 5 1
1.200017 7.813725 2.101699 0 0
5.930286 13.874716 23.763861 1 1
-20.621792 55.658730 44.913078 5 1
-23.492758 53.751564 14.343801 7 1
-20.671865 57.795330 7.361747 7 1
16.978828 52.446224 28.581324 6 1
10.634003 51.957954 27.609566 6 1
-25.022907 15.620406 -2.968790 4 1
-23.175270 55.370579 39.836544 5 1
-30.820862 55.555916 2.942482 7 1
-0.655025 20.145418 16.483360 1 1
13.343725 48.803406 -19.464005 9 1
7.967946 48.104023 -25.738411 9 1
-27.510803 55.391521 3.004509 7 1
-5.204257 22.077940 -6.764970 4 1
16.701870 46.635605 -27.252159 9 1
25.033171 51.540493 -11.102496 8 1
-18.281641 55.307907 49.120777 5 1
-15.890306 21.972879 -19.609159 4 1
-12.743177 56.085251 38.758301 5 1
-26.000505 55.034641 9.509230 7 1
-9.110373 19.825880 -4.737935 4 1
-20.467497 17.399508 -5.922505 4 1
8.032873 49.321709 34.521191 6 1
13.594603 54.892536 -5.928747 10 1
2.264954 53.965023 -22.630938 9 1
-23.026279 54.179394 52.384373 5 1
14.285866 52.541065 7.973997 10 1
28.726299 45.633427 6.221486 10 1
21.676178 48.855167 11.883290 10 1
-17.517406 19.524942 2.810486 4 1
-24.494064 15.591207 -15.820869 4 1
10.004777 39.243942 -39.330952 9 1
14.164630 56.757721 22.381529 6 1
-9.667001 55.162613 5.515043 11 1
-14.255836 57.182655 39.277283 5 1
13.136276 54.374191 -2.511008 10 1
-1.790948 26.652424 1.858877 0 0
27.078115 50.809616 -18.772633 8 1
-12.597537 56.930859 16.933016 7 1
-6.026274 63.189423 -1.362667 3 1
-2.157374 55.006397 30.784338 6 1
-12.176946 57.995632 31.288279 5 1
-29.416042 51.441296 19.603111 7 1
5.505875 42.813408 -37.269241 9 1
32.643600 50.354504 -6.830407 8 1
11.019002 54.377472 -10.742832 9 1
28.233532 44.212490 12.651754 10 1
-13.782761 58.035423 7.636474 11 1
-24.016073 16.920593 -0.683451 4 1
16.410034 43.041599 -32.000263 9 1
-1.049456 36.169205 0.613720 0 0
-6.703898 56.404358 26.896427 6 1
-15.349642 56.681004 41.849377 5 1
13.309331 50.275703 -15.936596 9 1
-14.810520 57.965328 5.182882 11 1
7.987333 46.602951 -3.360972 0 0
22.171814 46.746384 14.119638 10 1
-25.048956 51.700359 15.978863 7 1
-22.766293 55.092892 47.447342 5 1
-12.437909 19.797802 -1.548773 4 1
-22.330893 17.456131 -2.868698 4 1
9.003850 18.355177 11.780780 1 1
-8.448201 55.398445 -2.069900 3 1
-9.785196 58.435856 44.718021 5 1
-1.858732 21.648855 16.221308 1 1
-4.156360 48.194286 -0.468991 0 0
11.857040 49.349060 36.054176 6 1
-39.010036 48.977337 13.755902 7 1
15.020103 52.325359 -0.065060 10 1
-24.591818 58.559784 33.833973 5 1
5.007831 49.463463 37.230999 6 1
15.280265 55.202801 22.490150 6 1
33.417027 48.264660 -22.107300 8 1
-8.842935 58.377708 34.867706 5 1
-25.692574 52.693584 53.942177 5 1
12.999661 53.139267 -10.510972 9 1
-3.247217 54.831268 20.893917 6 1
3.452969 55.014847 21.792929 6 1
10.162540 42.591431 -32.057846 9 1
11.240973 55.638054 23.643806 6 1
-12.583295 22.050787 -20.433002 4 1
-9.427017 21.907103 -11.984181 4 1
-17.810648 23.117065 -20.773283 4 1
-2.581324 45.210876 0.515758 0 0
-27.962793 54.218361 47.612450 5 1
-1.299124 54.535912 27.484243 6 1
15.816592 52.873722 25.775206 6 1
17.389435 46.644623 38.438377 6 1
-0.760266 21.427231 13.263715 1 1
-2.447251 47.152561 4.131041 0 0
-30.698963 53.781082 3.648957 7 1
-10.374504 55.895596 19.873892 0 0
15.929229 42.160282 -33.462952 9 1
6.425790 44.337971 -34.389469 9 1
2.888135 20.207722 14.580413 1 1
-7.648211 50.153873 4.412743 11 1
-1.651041 20.508289 19.574547 1 1
-1.121498 25.090111 4.357326 0 0
5.946082 56.085411 22.185476 6 1
-13.250648 57.669365 33.013912 5 1
7.357872 51.641396 33.544788 6 1
-3.229310 21.194639 1.294421 0 0
21.693403 53.958908 -14.685830 8 1
-18.498106 54.708714 40.609516 5 1
19.977377 49.456429 35.337307 6 1
7.769063 41.462097 -34.386597 9 1
9.545680 48.145626 -24.573292 9 1
-5.186952 41.584633 6.909883 0 0
28.618450 44.345596 15.870272 10 1
20.259974 49.624020 13.327198 10 1
-7.910096 22.080212 -13.945510 4 1
0.758291 48.215393 -33.090057 9 1
24.089197 45.427269 14.139370 10 1
25.879078 54.501705 -20.206120 8 1
7.975804 16.029579 18.686495 1 1
-15.897629 20.265766 -11.709842 4 1
-8.644385 58.330406 37.098587 5 1
3.134835 18.702108 7.806633 1 1
6.246357 46.330029 -27.576328 9 1
11.590526 42.622196 -35.828014 9 1
2.099477 52.208210 -25.106400 9 1
14.466652 57.569405 20.239620 6 1
-16.382175 54.307301 17.209362 7 1
-2.385714 34.081493 3.792910 0 0
-22.664265 55.450592 9.518715 7 1
0.144747 18.993040 20.895384 1 1
-29.058519 55.563423 5.638288 7 1
-1.735497 22.734259 2.861721 0 0
20.545506 51.724705 -8.240620 8 1
16.172592 44.916763 -28.056374 9 1
-8.173540 69.452194 -2.499555 3 1
6.970810 53.300941 27.701382 6 1
-7.831467 21.703062 -7.072959 4 1
4.269506 46.708981 -29.812424 9 1
-38.861778 48.920979 18.742943 7 1
13.219230 55.523396 4.386436 10 1
14.866023 47.788540 39.796455 6 1
19.364523 48.064980 38.783657 6 1
9.294393 49.128025 -21.781893 9 1
8.244527 49.632637 -19.853264 9 1
-21.510801 57.275311 37.299225 5 1
1.843837 52.459095 34.543037 6 1
33.149620 50.020027 -24.890162 8 1
-9.692802 65.206863 -3.677353 3 1
-26.665909 53.394493 50.301552 5 1
-16.357286 18.245939 -7.996749 4 1
0.192629 0.666742 2.405065 0 0
12.453566 18.145885 10.762947 1 1
28.758709 43.896252 10.507128 10 1
19.851810 53.097092 28.190342 6 1
-23.533791 59.112434 3.709268 7 1
-37.073570 51.007618 5.180118 7 1
13.336107 16.742384 9.432625 1 1
-4.419531 22.141405 19.726467 1 1
-2.363004 54.222950 22.474285 6 1
-18.736362 18.642042 -2.046264 4 1
-16.280302 55.794491 48.428970 5 1
4.380234 44.627670 -35.279148 9 1
2.737948 52.475098 25.535820 6 1
4.513592 50.516541 30.885202 6 1
-12.966579 21.334743 -2.971630 4 1
1.006934 20.323936 7.006304 0 0
-9.243730 58.980000 -2.761576 3 1
11.278684 44.722794 -27.781261 9 1
-9.191509 21.299284 -16.189304 4 1
-14.134057 55.821095 18.580900 7 1
-36.423615 49.054737 14.746157 7 1
-16.715622 21.025440 -16.518759 4 1
-10.053212 21.291269 -1.592499 4 1
-18.424709 57.535263 9.886105 7 1
12.706961 53.231403 25.385044 6 1
-14.620572 19.863968 2.150730 4 1
-23.374453 18.957191 -19.760685 4 1
-13.676444 55.681591 40.160824 5 1
-19.738695 17.933662 -4.383413 4 1
-3.706114 40.905491 1.418987 0 0
-15.644689 57.810455 11.430134 7 1
-0.270005 32.194424 2.585960 0 0
-8.164978 58.080532 46.982761 5 1
2.629857 17.481384 19.167955 1 1
-10.583842 57.348495 18.039459 7 1
-26.165419 57.687103 39.529331 5 1
18.780336 51.081547 31.491737 6 1
13.283107 43.582855 -33.777542 9 1
16.260109 49.731651 34.707722 6 1
-9.011230 54.886803 19.979218 0 0
-6.293190 21.835321 -15.045151 4 1
-9.020856 49.420570 3.576957 11 1
-27.950384 53.729736 9.676480 7 1
17.391592 49.244415 33.314144 6 1
-3.907815 43.064762 -0.292736 0 0
-23.419403 18.798470 -22.477392 4 1
23.768730 52.120831 -12.251101 8 1
-14.558418 56.425568 29.984488 5 1
30.054857 50.077518 -17.877142 8 1
-23.065676 53.134510 58.466576 5 1
-28.742573 52.301758 13.866942 7 1
19.666336 50.555084 10.327620 10 1
16.278992 53.563095 1.726041 10 1
-7.470579 62.651329 3.807105 2 1
-8.527439 51.997265 5.084468 11 1
