28.863142 107.656010 48.625011 3 1
11.312781 25.339916 -17.339972 1 1
-6.885740 155.129040 50.051228 14 1
-15.521495 135.692260 -52.445904 13 1
6.260996 143.444110 -15.278966 8 1
48.878445 95.951065 14.145119 2 1
-3.819889 141.336610 -20.592556 7 1
-56.015747 78.666473 29.447386 5 1
3.405511 155.115330 18.051533 16 1
30.134825 149.647840 27.575348 16 1
-55.195385 74.763977 38.422131 5 1
-41.939262 120.012800 -83.440170 11 1
27.529470 105.787370 43.522533 3 1
-38.101257 140.417600 53.658607 14 1
-3.852186 117.287900 0.889198 0 0
36.611309 146.303420 12.323371 16 1
59.153118 88.525711 -2.003056 2 1
-43.533108 137.059140 -55.794357 11 1
63.968483 98.234444 48.237972 17 1
-39.474354 141.371030 45.121498 14 1
-61.310776 129.556400 -28.581751 12 1
-16.699274 140.847210 -11.453588 9 1
-21.875851 123.804740 -25.466068 0 0
-37.362759 144.157490 -18.365885 9 1
4.308267 147.208050 -5.615936 8 1
-6.458642 43.194633 -0.506171 0 0
61.322544 83.743950 -7.248033 2 1
-48.976879 67.506187 3.890359 0 0
-68.228043 75.013832 -13.370312 4 1
54.223454 98.586365 33.137493 17 1
-37.721420 118.200180 -86.437782 11 1
23.313017 154.536530 7.993853 16 1
-14.433562 152.068470 35.474930 14 1
35.571976 149.606370 21.606825 16 1
-18.932529 136.461430 -51.058647 13 1
21.322477 128.790250 -67.774529 13 1
-48.639984 67.735786 -13.999559 6 1
-8.103374 37.215771 3.412091 0 0
-86.693161 118.826230 -17.771921 12 1
34.998047 105.029250 55.212875 3 1
25.415209 83.328033 23.081488 0 0
-58.843815 127.121960 -37.502426 12 1
-0.101131 57.701500 3.122856 0 0
-88.945282 69.072548 -2.405078 4 1
-79.178398 75.644417 -3.980459 4 1
53.339916 94.402916 11.038415 2 1
-30.106024 141.973820 55.736164 14 1
-8.024142 74.054237 -3.079201 0 0
-2.915575 104.362660 16.444181 0 0
-12.801611 153.466550 30.932455 14 1
-29.841318 144.956770 -8.086289 9 1
3.693943 152.618870 -5.331552 8 1
17.589109 157.028550 40.473614 15 1
-50.193554 121.081150 -74.034508 11 1
-2.628264 120.803410 -0.629106 0 0
2.441631 133.708890 -12.854567 8 1
-69.789505 141.920100 -16.853209 12 1
-51.166981 135.672330 -29.036053 12 1
68.409058 94.901855 29.196291 17 1
56.208351 104.422730 43.491718 17 1
17.680477 27.979969 -13.037561 1 1
-32.201134 138.991700 -43.530434 11 1
6.861969 135.194470 -57.340992 13 1
-10.386912 146.303960 -18.743963 7 1
2.750369 147.191450 -41.310722 7 1
-73.118645 75.939194 1.247964 4 1
-42.609024 136.656020 -37.397449 12 1
-36.016216 135.457660 -41.683475 12 1
-14.484194 138.404620 -48.439316 13 1
48.985939 94.452248 3.501813 2 1
-0.482779 31.234776 1.638684 0 0
-24.351427 136.759700 -43.851383 13 1
-7.801198 81.134506 5.960279 0 0
-1.254072 22.302206 -8.132893 1 1
-43.658585 65.969597 -20.313379 6 1
-43.217815 142.668550 -28.446880 12 1
-77.178085 76.264351 -1.879756 4 1
-1.784692 96.407784 12.535394 0 0
-57.522026 79.616974 21.891281 5 1
45.100094 96.431534 9.884342 2 1
-17.254726 112.159800 -17.026836 0 0
2.102191 142.839310 -4.289712 8 1
-3.602520 101.752580 15.239861 0 0
-40.618320 137.248920 -56.760563 11 1
-26.413649 142.438160 -44.005028 11 1
-72.891388 125.408220 -25.673874 12 1
-3.678402 39.691303 4.117875 0 0
61.477333 91.150681 6.914955 2 1
70.844566 94.815582 50.305233 17 1
4.882784 123.740020 -64.480865 13 1
21.112631 27.987465 -24.158897 1 1
15.670243 26.447737 -17.470016 1 1
-47.550259 65.245605 5.955928 0 0
-81.282219 116.672920 -20.874300 12 1
11.716966 133.283490 -64.714180 13 1
16.297340 26.727604 -23.536604 1 1
-58.666443 73.841446 -6.588312 6 1
-15.022269 131.320830 -59.121815 13 1
-41.103233 129.381610 -69.639748 11 1
-62.053185 75.141876 6.234303 4 1
-5.076981 113.248860 10.432471 0 0
-57.186436 76.253510 11.287100 5 1
-69.444519 136.131200 -21.433847 12 1
-4.131721 17.224026 16.850187 10 1
-52.435196 84.014519 17.135658 5 1
-56.182240 131.877110 -35.222179 12 1
2.355702 139.438450 -17.400831 8 1
11.363127 156.700780 32.208000 15 1
-13.720160 139.763610 -14.674333 7 1
-8.408112 143.206250 -45.548164 13 1
-25.383318 151.491590 42.887981 14 1
3.715073 55.005001 8.419157 0 0
-85.603142 69.796478 -1.906045 4 1
-1.581411 134.732410 -12.196763 8 1
-63.347729 70.040123 20.212116 5 1
15.065146 25.327906 -8.994413 1 1
-48.026253 121.706800 -72.090492 11 1
-55.758423 71.518318 19.059875 5 1
-10.722610 93.796608 -9.605928 0 0
-4.258438 21.614513 -17.260708 1 1
41.392132 99.917458 11.999856 2 1
-86.267944 69.393105 -11.061605 4 1
1.298862 155.316500 26.202677 16 1
62.578632 89.375664 4.716470 2 1
-25.819572 147.917650 44.418842 14 1
-60.301224 65.181541 -12.189241 6 1
-23.576443 130.933910 -30.318995 0 0
9.401202 20.787846 0.037647 10 1
-68.616127 132.387310 -20.305109 12 1
-9.398114 137.337080 -47.595619 13 1
-84.045540 119.681890 -19.888468 12 1
-61.330124 76.151497 -4.480177 4 1
-1.455988 16.275356 5.649286 0 0
11.730641 137.808910 -58.570026 13 1
-59.220016 70.087601 -4.102436 4 1
10.029584 156.856200 27.748043 16 1
-10.553228 123.030400 -62.613796 13 1
-71.967766 121.784030 -28.251427 12 1
5.867614 149.958010 -15.924002 8 1
2.123445 143.483170 29.786848 0 0
-10.238198 135.098070 -2.249951 9 1
9.253316 22.426416 10.949136 10 1
5.956575 23.996288 -10.778062 1 1
-22.820074 152.714370 40.665218 14 1
-59.899708 76.867905 8.451513 4 1
9.572293 143.680790 -56.416538 13 1
48.496170 104.700040 43.766529 17 1
-31.229549 124.945960 -82.008667 11 1
-80.266953 118.489860 -23.758810 12 1
68.154778 95.914513 43.022095 17 1
-27.468847 147.696410 41.728981 14 1
43.790695 97.966988 24.026085 2 1
16.935926 161.114460 -16.525173 8 1
4.966979 143.062330 -20.490015 8 1
-56.866447 146.325790 -18.404053 12 1
-16.858484 140.346070 -44.131725 13 1
2.974568 151.197650 34.840366 15 1
-76.145264 72.227409 -12.435467 4 1
66.628693 90.780922 10.814372 2 1
0.581376 146.660480 26.060711 0 0
13.642943 25.573385 -29.420788 1 1
0.420859 139.799350 -3.721586 8 1
-77.744614 74.496834 -9.250450 4 1
-4.820846 132.754940 -9.195166 9 1
26.516363 149.331560 16.464487 16 1
15.105398 116.947500 -72.056793 13 1
15.227383 157.095790 35.886780 15 1
42.799507 104.505640 49.912083 3 1
-8.985509 83.213722 -6.085760 0 0
-81.723244 124.579840 -19.536034 12 1
11.228059 26.172167 -25.238792 1 1
-43.975491 134.724520 53.810993 14 1
49.061489 91.777863 -5.470810 2 1
0.131934 21.466015 11.500007 10 1
-58.001987 73.068665 36.877468 5 1
-61.757172 70.836075 8.802577 4 1
-63.297245 74.451729 2.291034 4 1
-42.709187 125.810100 -73.887589 11 1
-22.033447 141.080930 -5.605998 9 1
-72.392570 118.723200 -27.114117 12 1
-0.230490 28.320122 24.508705 10 1
18.230528 124.930450 -69.558441 13 1
-11.457458 136.583450 -11.820551 9 1
-74.290627 123.993670 -22.071342 12 1
7.324327 30.220987 25.170645 10 1
52.430759 102.291000 35.955437 17 1
56.614395 96.535599 12.334933 2 1
1.935412 31.975594 25.726528 10 1
17.457596 128.526490 -66.017090 13 1
24.916821 152.453640 19.755829 16 1
-57.339790 70.366081 -1.451790 6 1
72.352089 93.726189 35.465851 17 1
6.496262 21.893581 2.652694 10 1
-85.605667 70.929398 -6.847567 4 1
-68.359604 74.675880 -9.328150 4 1
30.930979 104.966840 32.482304 3 1
-53.515274 59.751614 -22.035057 6 1
-16.419817 135.324520 -48.070866 13 1
-31.744562 131.797420 -69.583321 11 1
-24.041212 138.415540 -49.068333 11 1
-42.362514 124.432080 -71.496063 11 1
18.473925 156.245000 13.139893 16 1
22.515942 27.074472 -15.517556 1 1
10.943313 156.495000 42.192543 15 1
3.281558 152.755550 13.605584 16 1
-36.565750 125.783570 -75.337662 11 1
9.868209 24.720121 15.689816 10 1
-51.844227 138.303480 -24.885460 12 1
-60.268700 143.080310 -19.071161 12 1
-43.801460 144.451660 37.179432 14 1
-2.428478 133.301410 -3.156060 9 1
-11.297522 141.398150 -4.692760 9 1
30.357529 104.902510 44.931984 3 1
18.731028 27.400208 -28.659229 1 1
-90.923767 65.327034 -8.467154 4 1
-0.680649 41.877392 4.675655 0 0
4.866615 154.988270 14.582318 16 1
18.994778 133.703090 -64.261589 13 1
14.964005 70.921700 17.227478 0 0
-44.238888 140.925060 47.837379 14 1
-28.604080 137.533630 -62.670025 11 1
-36.134876 123.399380 -79.041534 11 1
-43.080521 133.551850 -59.356312 11 1
-17.831537 113.463910 -20.793339 0 0
-52.342316 80.993492 33.075294 5 1
2.306188 123.725610 2.165303 0 0
-65.993683 125.717100 -31.182493 12 1
-38.362278 131.101000 -64.360329 11 1
40.757435 100.221500 15.744517 2 1
-34.519863 149.936680 35.109131 14 1
58.690865 86.825394 -5.511187 2 1
0.879950 50.725090 6.496298 0 0
-48.989422 146.289990 -21.451296 12 1
-35.312901 142.765870 -45.832493 11 1
-3.033723 141.604770 -4.157056 8 1
-55.019196 73.678131 21.961681 5 1
32.883755 150.316250 17.465061 16 1
-17.714960 141.071720 -8.885364 9 1
34.981831 103.799770 43.216690 3 1
-6.799315 92.785248 8.427172 0 0
-6.735390 40.203388 0.773509 0 0
62.799629 83.508675 -2.654311 2 1
-53.925098 63.984161 -18.499807 6 1
32.203655 104.588130 48.776283 3 1
-53.818783 119.639750 -71.454048 11 1
45.343163 97.822807 18.102554 2 1
-45.507805 132.388180 -63.511345 11 1
-49.338642 101.346360 -85.558479 11 1
17.542130 22.816486 14.472651 10 1
-40.816689 129.608860 -65.742744 11 1
-36.118721 54.651737 4.882570 0 0
-48.864933 59.208641 -23.850994 6 1
26.569963 153.217220 5.398169 16 1
-42.287922 110.580670 -87.930710 11 1
-11.811705 150.538070 39.359474 14 1
3.823141 27.220009 22.427725 10 1
4.301170 23.209297 -7.090372 1 1
-52.340439 78.164764 36.669281 5 1
-36.943565 140.603440 -43.709679 11 1
-13.850739 133.349850 -56.434696 13 1
34.458618 150.256790 29.273355 16 1
-12.887751 132.199890 -5.458287 9 1
13.071139 26.021170 21.345957 10 1
-39.367481 146.012710 45.178665 14 1
-1.093391 118.714070 16.966061 0 0
-6.469210 65.316406 2.172584 0 0
-22.524611 141.229690 -57.811562 11 1
-39.957294 134.890520 56.708702 14 1
-41.627930 139.726720 -29.971195 12 1
-42.206985 106.492240 -93.728195 11 1
2.627730 138.226970 -6.869727 8 1
-29.112879 152.333010 38.167816 14 1
19.114582 105.226400 63.898266 3 1
-15.533033 144.076690 -15.131767 7 1
13.611913 157.346920 46.980114 15 1
26.490072 110.243390 -76.581604 13 1
10.101212 156.125000 51.128239 15 1
-55.384167 82.278427 23.129843 5 1
14.119367 122.146550 -67.804886 13 1
-49.471298 140.043500 -28.225456 12 1
-54.066025 69.556831 2.702905 0 0
51.743057 89.543190 -7.074951 2 1
-63.444881 72.868607 13.147110 5 1
20.322401 150.914370 34.810406 15 1
-46.277584 68.075226 -17.493607 6 1
70.196312 95.187492 47.483551 17 1
-24.708286 157.532530 31.364483 14 1
61.109257 100.382320 50.869473 17 1
58.712624 84.157219 -4.810797 2 1
23.990227 105.607050 58.210335 3 1
-65.264465 76.705719 -0.205869 4 1
15.233692 29.755245 32.546104 10 1
17.247360 29.615042 -24.578802 1 1
-4.796030 143.583830 -13.941279 7 1
10.790241 150.218600 -10.679121 8 1
-23.699310 134.426280 -30.456387 0 0
-59.256916 134.172760 -29.380596 12 1
51.085526 91.581551 -2.082515 2 1
-10.092210 139.671220 -1.311810 9 1
1.095895 143.962720 25.250799 0 0
-51.379311 83.861595 23.741070 5 1
18.439964 128.883650 -68.882607 13 1
-3.888097 19.854298 3.187384 0 0
56.423370 99.147942 24.796396 2 1
60.081303 97.340126 34.338951 17 1
-72.988426 73.772522 -7.731770 4 1
-52.049606 64.845505 7.221976 0 0
3.749635 20.132755 7.585277 10 1
-32.912144 139.368990 56.891506 14 1
-23.240643 140.947240 -40.632996 13 1
2.643627 137.163890 -57.922436 13 1
-14.857543 147.482100 -18.788790 7 1
-25.276424 139.003520 -61.798836 11 1
0.506473 22.804794 18.399660 10 1
8.277972 131.366410 -61.374275 13 1
-16.400606 44.378441 3.139957 0 0
-4.109787 65.642906 0.874103 0 0
-6.588480 91.223114 5.679069 0 0
33.385586 106.878880 60.693981 3 1
-64.118744 69.212967 28.700260 5 1
-34.599365 138.186260 -50.857712 11 1
21.839323 76.146324 18.925648 0 0
-41.115845 146.545840 -24.535555 12 1
44.416225 97.484833 28.760857 2 1
-22.801338 151.375780 46.281239 14 1
-28.715878 127.999470 -81.923943 11 1
24.199089 106.635370 46.906063 3 1
0.433241 18.740974 5.479568 10 1
-81.429146 119.370960 -19.156870 12 1
-39.480885 139.797560 -51.483978 11 1
-55.873871 130.623920 -32.055542 12 1
-63.343075 69.077408 23.688778 5 1
-19.699980 127.886890 -26.930475 0 0
-29.528860 154.079300 34.543495 14 1
-4.167254 108.286380 9.915291 0 0
-52.860703 145.196330 -20.522873 12 1
15.955493 28.726576 27.903610 10 1
70.644226 97.426346 50.839798 17 1
31.731430 147.121050 20.613188 16 1
-2.310013 43.291073 0.917669 0 0
-55.498192 77.070992 35.835052 5 1
-57.140358 78.176392 17.847265 5 1
6.308129 151.452130 17.435482 16 1
37.193863 105.318340 42.946621 3 1
38.861725 93.069878 29.592550 0 0
-75.027885 74.992378 -0.569503 4 1
-3.001205 28.710354 4.312262 0 0
39.684475 99.563980 23.627609 2 1
-11.799991 155.284410 38.071022 14 1
-76.476532 80.390877 10.388350 4 1
-11.474603 87.033028 -5.938085 0 0
-1.554619 22.727362 3.697060 0 0
-29.537535 137.200040 -38.841087 12 1
5.129525 151.857030 -40.364315 7 1
12.532659 115.056830 -70.396851 13 1
15.184977 155.744280 39.463348 15 1
5.701925 153.237170 35.816261 15 1
-6.960219 134.397160 -56.298279 13 1
-49.357365 64.388412 7.723179 0 0
-46.766415 137.922790 45.307701 14 1
39.863899 97.966049 7.149963 2 1
-65.586784 75.773209 3.152000 4 1
-11.615959 39.604156 0.714766 0 0
-5.912628 147.689590 -40.952415 7 1
-31.724737 143.535350 -29.855913 12 1
-0.769123 151.985610 -36.300064 7 1
-31.380594 54.341606 4.535884 0 0
-3.102009 11.773546 3.015987 0 0
-37.179676 142.354640 -29.902164 12 1
-49.631596 65.685913 -18.589832 6 1
3.396871 127.036890 -0.773558 0 0
14.477666 160.401470 -13.693191 8 1
-16.602678 137.216570 -11.773317 9 1
5.333420 119.047840 -69.079544 13 1
-45.810604 125.731190 -71.834671 11 1
-8.192741 129.703640 -56.590115 13 1
-21.429033 139.996370 -37.059868 13 1
-3.433417 103.210780 8.347968 0 0
17.273901 152.614790 37.104851 15 1
-61.465321 59.668747 -21.263428 6 1
-27.359203 145.885830 56.888348 14 1
52.748562 102.873810 46.156445 17 1
3.390115 152.524060 16.247837 16 1
-77.645462 123.352720 -23.290039 12 1
-92.716850 65.839485 -1.859981 4 1
3.529538 134.883800 22.846970 0 0
-1.101486 147.485080 -37.341064 7 1
19.959562 154.000670 17.933937 16 1
4.018013 25.252815 19.458603 10 1
-28.003347 140.451430 -14.673841 9 1
26.535496 106.835840 38.861683 3 1
74.042114 93.102257 40.797382 17 1
-69.474380 77.053230 4.315430 4 1
-35.447079 111.723980 -93.942482 11 1
-74.271202 120.595790 -24.074757 12 1
62.257038 98.030975 41.676464 17 1
12.899708 128.362980 -66.883553 13 1
10.160305 131.102830 -64.983315 13 1
-52.104820 129.663990 -40.638447 12 1
-4.543462 49.109142 1.504751 0 0
27.503010 107.714710 55.317757 3 1
-75.677498 128.542620 -18.129164 12 1
7.172985 21.217278 7.278041 10 1
-18.659166 137.498660 -3.659600 9 1
79.426468 89.375626 48.940647 17 1
-61.930836 70.730247 13.581196 5 1
73.141281 95.858238 51.101913 17 1
-46.731701 97.618080 -91.166748 11 1
5.074302 33.492283 25.832172 10 1
1.160482 24.885387 20.745773 10 1
-37.512173 138.368450 57.297802 14 1
25.513351 117.869510 -72.878975 13 1
-4.876025 155.364670 48.352070 14 1
5.636296 136.994130 -53.331135 13 1
-47.488068 143.569960 40.488720 14 1
-4.401466 155.554600 43.467216 14 1
-50.764122 69.812859 -13.051638 6 1
-40.186989 127.653820 -72.773376 11 1
34.419701 105.401080 37.060291 3 1
-57.836300 75.162071 8.850138 4 1
-7.140730 133.994830 -9.800982 9 1
-77.777863 72.802071 -5.365169 4 1
-38.199661 140.494280 -33.986584 12 1
25.857746 150.181520 27.965261 16 1
-70.885994 127.830280 -22.150974 12 1
57.853783 96.717735 14.700424 2 1
18.442856 73.538483 16.583397 0 0
29.575682 105.886720 58.654915 3 1
-59.124210 140.507220 -22.830591 12 1
-51.298744 63.625553 -19.760582 6 1
-75.216591 73.712425 -4.830266 4 1
64.751808 98.566971 38.763798 17 1
-31.199890 146.412840 -30.946259 12 1
-7.868081 140.631320 -6.087018 8 1
-15.057898 150.192600 53.231728 14 1
8.884551 160.949110 45.646019 15 1
-69.532715 120.465030 -30.737185 12 1
-9.986429 154.218520 46.258114 14 1
-1.068651 21.555450 22.629215 10 1
28.049206 152.678070 24.409657 16 1
-51.744015 98.009491 -85.238014 11 1
-35.238876 140.860020 -16.719810 9 1
-58.659401 126.895130 -32.988914 12 1
-67.275642 77.429329 6.162285 4 1
-11.832236 143.535740 -43.482651 13 1
-53.030560 79.277107 16.289368 5 1
7.440211 157.549010 46.709995 15 1
40.353882 101.047490 36.632378 3 1
-56.988693 65.844597 -13.228735 6 1
-10.385081 130.613830 -60.078335 13 1
-47.067638 94.862869 -93.374123 11 1
-0.842964 142.484860 -47.202133 13 1
-51.758606 130.663410 -62.420307 11 1
23.722160 150.773800 8.813401 16 1
18.305622 26.640543 -31.983580 1 1
42.192741 96.382217 4.291869 2 1
-53.218357 75.029045 43.155853 5 1
43.503719 97.352333 14.297330 2 1
-42.711647 109.443700 -85.598946 11 1
-63.370003 69.121117 -7.416570 4 1
-40.234474 116.828710 -82.785187 11 1
-60.470745 137.224640 -21.130049 12 1
62.302559 99.335258 32.698666 17 1
22.808138 152.327260 37.798389 16 1
36.910423 148.519230 26.570929 16 1
62.097115 91.558960 9.424912 2 1
-3.861459 148.235920 -27.583960 7 1
-15.171517 150.078720 42.966625 14 1
5.883052 141.822880 -52.093517 13 1
-20.853264 159.069600 29.609953 14 1
-46.449635 62.632607 -21.154594 6 1
-65.938240 74.867332 -11.318035 4 1
-39.646133 150.994000 35.319630 14 1
3.712629 143.872280 -52.819397 13 1
-3.221249 39.341515 0.914521 0 0
5.570543 32.198105 28.119442 10 1
-30.616404 142.091090 -49.486137 11 1
-0.885742 22.187998 -17.687918 1 1
-12.172125 152.698530 34.105076 14 1
-25.304810 154.523620 31.450468 14 1
-29.624552 141.897130 -40.705551 11 1
-8.383984 86.593437 6.351294 0 0
-25.013630 137.551790 -58.671917 11 1
-66.683006 121.608700 -32.281967 12 1
-30.965803 144.314540 -32.667667 12 1
-52.011814 80.765060 25.336687 5 1
-35.150669 133.210130 -61.546185 11 1
32.242260 148.290470 7.594277 16 1
62.065109 96.220802 30.688301 17 1
-42.925613 102.054180 -93.745598 11 1
5.846787 152.462080 12.031713 16 1
-0.713471 124.768470 -62.391090 13 1
-2.122296 68.982323 4.198646 0 0
-55.847004 139.724370 -21.774363 12 1
-47.582775 140.430630 40.117504 14 1
-1.354782 35.098110 5.014295 0 0
-1.426209 144.784790 -45.603340 13 1
-2.414052 19.378725 20.541187 10 1
-64.818031 144.002620 -17.462364 12 1
-24.051107 132.430770 -74.997063 11 1
8.709396 160.844880 48.448498 15 1
-64.384918 139.880340 -20.550304 12 1
10.953175 156.080320 56.222363 15 1
12.470675 120.308000 -69.901192 13 1
-5.316133 89.855385 9.016069 0 0
-49.955696 138.394530 45.541809 14 1
-28.954430 135.655930 -66.439407 11 1
17.590815 155.220400 17.509865 16 1
-14.510122 147.845750 -21.434534 7 1
-33.590813 143.079910 -10.227446 9 1
28.452978 151.950560 9.261149 16 1
76.053192 93.105003 36.044743 17 1
11.605036 23.224117 -32.543652 1 1
19.922758 27.111061 -18.625357 1 1
15.630133 157.640380 43.145531 15 1
-1.090109 156.938890 39.553593 14 1
47.196007 97.967346 28.687611 2 1
-55.380074 78.623802 13.029856 5 1
-60.901257 129.660640 -33.209953 12 1
2.667485 143.648620 -48.558968 13 1
-2.789059 113.986600 2.109284 0 0
29.816271 108.037070 51.280750 3 1
12.569208 159.012850 48.797573 15 1
-6.220523 136.957810 -53.324562 13 1
-22.977741 148.845550 40.049469 14 1
-69.119560 77.313683 1.212160 4 1
11.218444 24.466654 12.646347 10 1
40.070705 146.288730 21.282953 16 1
67.390968 85.675484 3.528185 2 1
0.660518 139.182740 22.799128 0 0
45.464577 101.256200 35.728619 17 1
-28.027250 137.952270 -46.744247 11 1
34.375698 105.150210 57.794132 3 1
-63.872055 78.809265 10.856485 4 1
79.461746 90.945076 45.703903 17 1
29.272448 149.017960 10.086783 16 1
-4.811424 107.096870 16.005480 0 0
-82.990250 69.760231 -7.409398 4 1
-5.844882 84.475685 6.815558 0 0
-54.649174 67.681931 5.519808 0 0
-56.415138 78.699623 26.868540 5 1
-14.751618 109.873340 -19.122480 0 0
-21.695107 137.408980 -11.188553 9 1
-43.560318 146.213850 41.116425 14 1
10.546887 151.987060 9.537150 16 1
-5.908078 117.597530 8.419930 0 0
-17.476511 157.834690 33.204285 14 1
-41.713936 137.771160 53.020748 14 1
-30.438955 140.063370 -33.726891 12 1
-19.621168 46.305641 3.007437 0 0
-3.307087 130.500020 -56.487175 13 1
3.210418 135.842100 -10.055605 8 1
-6.097054 72.671417 5.487641 0 0
27.115005 87.694450 23.348543 0 0
7.743835 155.423100 42.220699 15 1
1.800364 130.551880 21.430576 0 0
-3.258347 133.329770 4.782660 0 0
14.399240 157.712310 -12.348064 8 1
-61.357742 71.742500 37.926788 5 1
58.941753 101.745940 41.310261 17 1
59.295109 99.490234 27.231245 17 1
-27.554972 157.061870 30.712900 14 1
7.234265 158.957790 49.420444 15 1
-3.192089 101.677580 5.161001 0 0
-31.178440 145.874540 44.408253 14 1
-6.522440 136.133220 -12.465832 7 1
-2.724181 117.799790 9.330151 0 0
-26.165960 146.391890 52.355492 14 1
-61.327038 69.161461 31.067684 5 1
-34.736641 136.339110 -39.627491 12 1
-20.917030 138.742220 -62.327747 11 1
-83.748352 116.211050 -21.458935 12 1
-6.214928 105.568790 5.963911 0 0
-16.868933 141.300600 -4.697700 9 1
10.497157 153.183690 24.291065 16 1
11.659649 33.041325 30.877449 10 1
-9.132278 155.007020 51.614735 14 1
-32.714703 142.833450 -47.374519 11 1
-6.018039 101.843120 6.246882 0 0
-8.962752 138.859650 -15.069592 7 1
-55.087948 144.171910 -21.834898 12 1
2.058852 130.516330 -59.463272 13 1
20.378319 126.470310 -69.729057 13 1
7.178550 24.174721 -18.136761 1 1
6.977188 149.750490 -7.059999 8 1
24.122696 152.549090 16.842691 16 1
7.382070 153.495570 33.824524 15 1
-56.448750 64.433357 -15.308633 6 1
30.695206 91.764442 24.983690 0 0
-34.613232 139.716030 -43.018757 11 1
-3.798782 145.028660 -26.701149 7 1
51.175747 105.204600 44.744186 17 1
-2.988875 115.265870 18.257788 0 0
-85.341805 114.822370 -19.903393 12 1
-0.264351 124.684840 24.146786 0 0
48.155323 97.944405 24.011082 2 1
24.392319 150.125170 14.808362 16 1
-76.849060 71.701332 -14.863647 4 1
-5.013644 93.435982 4.130872 0 0
1.879620 19.023592 3.347144 10 1
9.849866 26.322912 -14.835123 1 1
-5.397990 34.035732 3.401321 0 0
-67.499550 137.106260 -18.255688 12 1
-2.672752 105.441900 4.862973 0 0
57.571007 97.705116 28.758854 17 1
-70.235596 131.361920 -24.539478 12 1
-56.989502 134.442060 -30.704096 12 1
-24.435221 135.186940 -71.459274 11 1
-53.007286 91.394386 -89.117256 11 1
-74.707008 136.406810 -16.273439 12 1
-88.446365 66.153404 -11.960568 4 1
-11.191068 98.562454 -11.534835 0 0
-25.009222 142.187330 -6.571068 9 1
13.785371 159.770750 40.443752 15 1
-10.600489 146.840010 -21.492210 7 1
-76.409622 118.765090 -23.210646 12 1
1.523626 148.956310 -13.178896 8 1
32.402794 89.868881 27.440825 0 0
-40.121426 119.951860 -79.192635 11 1
22.363676 124.718710 -70.608383 13 1
28.636145 106.050540 52.956478 3 1
49.755085 99.914436 36.396317 17 1
35.451477 107.170900 53.883896 3 1
43.670258 97.286240 32.137764 2 1
35.309750 102.771290 40.205444 3 1
38.024658 103.803730 39.657711 3 1
-74.303230 133.302960 -17.045561 12 1
-89.642960 67.237656 0.001960 4 1
8.833169 61.478268 10.148394 0 0
41.722553 104.609340 52.771027 3 1
-56.406979 74.460327 5.985833 4 1
57.733837 100.015560 43.652927 17 1
15.746962 27.268368 30.342051 10 1
-18.799406 136.617610 -45.190144 13 1
-2.745407 120.099590 19.426790 0 0
1.596289 22.400663 -24.282290 1 1
-54.100498 77.037354 7.638702 0 0
-65.659576 123.167710 -29.454498 12 1
22.057997 131.589290 -66.782356 13 1
70.020454 94.605698 33.105358 17 1
-93.872879 63.941044 -4.454616 4 1
-46.169151 133.779310 -35.643349 12 1
-6.395938 95.139381 11.413415 0 0
-52.989674 123.610120 -70.347473 11 1
-92.777489 64.564331 0.504539 4 1
-3.153363 128.686510 2.782568 0 0
-74.872818 132.410400 -21.404612 12 1
-21.592943 130.982130 -31.921278 0 0
57.374325 89.382614 0.698858 2 1
60.768242 94.502083 18.113533 2 1
-68.808052 80.866905 7.978889 4 1
-26.957581 137.619580 -34.893642 0 0
-41.596558 57.883266 5.024781 0 0
8.946402 25.205442 20.753073 10 1
5.311607 151.877200 30.813204 15 1
3.395749 117.230060 -69.479713 13 1
-20.278875 147.589840 54.091995 14 1
-12.027471 138.988530 -44.906387 13 1
17.367731 155.206470 10.767089 16 1
-53.371620 82.043922 12.626654 5 1
-0.196488 118.939070 7.028372 0 0
-6.264670 122.189740 6.683091 0 0
16.623915 135.388920 -65.378014 13 1
50.126316 97.085510 10.972571 2 1
-44.076096 139.956040 43.842552 14 1
-59.997509 124.158940 -34.667881 12 1
6.902350 23.672955 12.693556 10 1
-86.943176 70.608871 2.021058 4 1
-18.636862 134.526870 -54.004223 13 1
-61.875721 66.570557 -10.318066 6 1
14.828919 25.790588 -14.271397 1 1
57.617065 97.332069 32.933517 17 1
32.238880 147.451690 15.479385 16 1
-2.353976 13.407982 -0.405810 0 0
-61.029144 73.994652 17.555466 5 1
15.546123 28.613941 -18.979267 1 1
69.765823 97.562035 44.093590 17 1
-2.184278 83.363861 4.498887 0 0
-1.910897 74.024971 5.363230 0 0
1.435673 56.418098 7.336961 0 0
50.229481 100.689090 30.524614 17 1
-69.950317 122.723220 -29.471996 12 1
-5.514491 140.840790 -49.333740 13 1
-7.931152 70.180901 -0.907817 0 0
-39.290363 148.493450 35.560356 14 1
39.381927 104.772890 57.812313 3 1
-48.971859 71.299240 -10.801584 6 1
4.044537 150.118070 -12.270222 8 1
-10.198974 88.972229 -7.899148 0 0
2.218009 21.551624 -30.009451 1 1
-10.682751 37.353302 2.516687 0 0
-16.276291 41.200432 2.507536 0 0
13.889858 23.711721 16.842752 10 1
24.135071 149.944630 38.179798 16 1
-13.800817 154.589310 39.691795 14 1
0.015992 24.033632 -19.393682 1 1
-53.266171 68.957924 -13.039765 6 1
-51.998463 82.030518 20.353165 5 1
-54.433399 95.513374 -86.062691 11 1
-39.605469 137.279530 -34.079433 12 1
-0.660902 151.314120 -30.000553 7 1
-38.937557 148.076340 41.950382 14 1
2.986327 152.599030 -29.000528 7 1
0.617215 128.949630 4.052979 0 0
58.263348 104.075810 48.446815 17 1
-15.373432 114.370060 -18.689560 0 0
1.506739 132.832290 -60.737495 13 1
6.083788 123.996640 -66.900513 13 1
-27.493649 142.879440 -48.518604 11 1
-49.517883 144.055850 -22.514303 12 1
38.483616 106.592280 46.362782 3 1
31.729874 150.696140 29.743139 16 1
-41.681850 132.559710 -61.451397 11 1
19.808142 154.817900 34.147320 16 1
-58.933815 71.526054 23.624086 5 1
-36.469353 151.449510 36.457603 14 1
22.943384 151.540600 30.780718 16 1
60.203060 93.925636 10.948783 2 1
2.463476 132.580030 -8.513631 8 1
-8.942528 76.399597 4.414969 0 0
22.178864 107.981320 54.183159 3 1
30.157261 104.169490 36.581554 3 1
60.102562 93.162872 15.925735 2 1
-4.067813 137.402220 -49.166710 13 1
7.260859 156.652830 30.367353 16 1
7.559303 160.244580 53.326561 15 1
18.241144 155.377260 51.500008 15 1
48.242020 103.247610 38.629936 17 1
52.425976 99.062286 24.282276 2 1
-52.219105 135.531360 45.123978 14 1
-33.222599 116.223600 -91.640289 11 1
-53.430588 76.457291 34.060501 5 1
1.226650 146.409360 -49.286697 13 1
-5.727430 124.345980 -1.903707 0 0
-50.092476 133.573820 -37.484215 12 1
-41.596588 135.994800 -54.574833 11 1
1.651040 131.600920 -0.513073 0 0
-14.803771 142.014770 -42.976509 13 1
-30.858366 134.015500 -68.120293 11 1
-25.812847 147.559100 47.316761 14 1
-38.353359 108.913020 -92.020630 11 1
-6.033528 97.688286 11.697459 0 0
-42.092285 60.775574 6.632023 0 0
68.616272 82.438324 -1.327342 2 1
4.976564 59.624195 9.862225 0 0
7.137207 22.739172 5.222025 10 1
8.825906 63.248848 13.273147 0 0
25.735458 108.583240 51.125404 3 1
81.362061 88.512993 42.117519 17 1
-80.664291 128.860520 -16.895298 12 1
-35.689816 141.824200 49.367889 14 1
-85.816849 67.075317 -10.143270 4 1
32.048283 151.635010 25.509022 16 1
53.410870 88.919487 -5.205385 2 1
-63.195850 127.883820 -28.419510 12 1
-69.726227 122.321010 -26.911142 12 1
66.185791 97.184578 48.804424 17 1
-29.022409 148.498280 49.068714 14 1
74.504562 92.580238 31.519848 17 1
-6.978507 121.683300 -66.337318 13 1
81.825134 86.846642 48.338352 17 1
-80.668922 72.455170 -14.067009 4 1
7.341264 114.429620 -69.213799 13 1
3.820816 151.488370 -34.683392 7 1
9.123320 20.471573 -33.639019 1 1
4.000101 125.730420 2.347502 0 0
-14.634165 127.625030 -61.174046 13 1
46.340279 96.983742 3.441818 2 1
-7.382988 143.952820 -15.510246 7 1
-73.240562 137.431430 -18.096764 12 1
-12.329313 127.006190 -59.210938 13 1
10.632682 158.513400 59.491562 15 1
61.632656 94.790741 13.604918 2 1
75.171082 94.517151 47.261181 17 1
19.008913 154.853270 8.895643 16 1
-63.742935 65.748802 -16.497980 6 1
-14.540238 152.643770 51.753296 14 1
-5.260392 56.858391 1.854884 0 0
-17.641115 145.138170 -37.850994 13 1
-0.309146 132.577180 26.322065 0 0
15.766620 25.038498 18.781286 10 1
19.536291 71.168869 18.883579 0 0
-39.597996 144.540850 -27.472820 12 1
-0.258329 128.660250 -3.044943 0 0
77.122871 91.498383 40.437836 17 1
37.496288 102.486080 35.327454 3 1
-1.733076 111.257760 8.091228 0 0
-32.266674 150.926990 39.883125 14 1
-35.846478 118.303700 -88.226326 11 1
-39.240025 144.326550 38.502789 14 1
-30.980797 154.405720 30.682775 14 1
3.618987 154.370060 36.829720 14 1
-13.503330 151.061100 47.830269 14 1
-38.062431 149.504460 -25.418455 12 1
-36.099091 112.456570 -90.914757 11 1
28.413944 152.189330 3.674334 16 1
-27.329098 139.439320 -58.917229 11 1
6.557601 121.121160 -68.361763 13 1
-2.303912 122.880970 18.889675 0 0
-44.690201 140.104480 -27.941643 12 1
-52.759346 76.934921 41.096523 5 1
42.221149 99.965057 21.914577 2 1
-2.815495 124.203120 9.060260 0 0
11.506296 157.947540 -12.358002 8 1
1.570245 139.399520 27.699894 0 0
-10.814355 134.594150 -9.264580 9 1
-17.079655 153.848280 31.833447 14 1
0.724497 16.227055 0.742725 0 0
-56.095520 73.678276 32.043980 5 1
-4.626784 23.273767 -14.854964 1 1
-42.841545 125.839640 -69.468262 11 1
-4.156054 153.752060 32.680641 14 1
-19.060318 137.969300 -40.512875 13 1
-21.125355 138.487960 -64.869202 11 1
-34.751328 140.568890 -32.143330 12 1
-6.076990 131.901810 -59.312286 13 1
65.183708 82.564606 -2.230533 2 1
-49.627316 88.825005 -91.320602 11 1
-56.128696 73.660713 24.408291 5 1
-4.497406 142.133670 -8.476796 8 1
19.976429 155.005740 25.450699 16 1
4.795104 145.510600 -19.913317 8 1
-14.320645 145.124250 -40.859737 13 1
-73.214439 74.625717 -2.702444 4 1
-58.615376 71.921242 28.103239 5 1
-0.416564 114.154680 7.802085 0 0
48.168324 102.235630 43.517204 17 1
8.302845 152.965740 27.347383 15 1
9.197288 154.195420 -13.992660 8 1
-38.020741 115.906460 -88.585503 11 1
-43.937561 131.656850 -41.072735 12 1
10.145185 25.415939 -9.915924 1 1
46.801407 95.788948 6.346843 2 1
-63.607792 133.219770 -23.254591 12 1
-53.568340 147.491840 -19.085264 12 1
-1.343463 21.857878 -23.151955 1 1
-34.688232 144.743640 51.077316 14 1
45.203510 102.743680 42.292126 3 1
-15.092107 138.640590 -43.686497 13 1
-55.038990 69.900970 6.769490 0 0
-75.406372 75.112556 -13.914585 4 1
-55.218754 140.801590 -24.610447 12 1
-43.328415 70.072182 -15.001531 6 1
-8.714666 146.643160 -41.460892 13 1
41.414062 97.004150 11.032831 2 1
3.620486 28.942150 24.506006 10 1
36.947029 103.841080 47.290634 3 1
-0.890180 112.288760 16.099428 0 0
-46.869915 102.775420 -87.666893 11 1
-61.044849 65.961098 -15.397640 6 1
24.076033 106.773090 39.252357 3 1
-13.402971 40.165844 4.676068 0 0
-23.685402 136.586790 -63.039558 11 1
-0.284600 25.049583 24.508261 10 1
25.554794 80.820877 19.939569 0 0
2.057415 153.749560 21.840349 16 1
1.252032 55.676250 2.606087 0 0
6.120933 144.445180 -7.354459 8 1
-3.696141 118.158720 -67.642387 13 1
7.934913 155.014680 15.016631 16 1
-48.239967 93.192268 -91.378212 11 1
-2.694017 133.321900 -10.475937 8 1
-22.631296 140.307970 -54.520554 11 1
-45.755768 70.724495 -13.820697 6 1
-39.903603 142.811140 48.988083 14 1
-4.989201 112.396420 2.271739 0 0
27.654675 84.843300 21.918402 0 0
4.907377 143.856930 -25.356516 7 1
23.504190 83.371880 21.393665 0 0
-2.599306 109.845560 13.041730 0 0
-73.448380 77.230362 -9.941256 4 1
-12.900193 90.307571 -8.263693 0 0
-43.904274 137.625230 -34.765755 12 1
-63.044373 71.130989 10.906746 5 1
-78.858170 115.248240 -24.968868 12 1
31.241533 148.403290 25.461378 16 1
-12.447770 131.374480 -55.030651 13 1
-29.227917 149.426860 46.304558 14 1
13.007180 135.281170 -60.753857 13 1
10.139565 27.620258 24.329536 10 1
3.813706 150.139340 -44.330116 7 1
-53.854038 75.814049 21.358643 5 1
-26.445415 149.497300 36.808216 14 1
-8.506575 133.135040 -52.310841 13 1
-80.864120 74.137711 -5.488015 4 1
38.651852 144.711240 17.492937 16 1
-67.719864 130.676540 -22.499159 12 1
-42.039417 137.611510 49.979076 14 1
-81.005577 73.396584 0.220954 4 1
-39.158123 140.383070 -46.696125 11 1
-32.668861 152.850800 35.442474 14 1
10.878164 22.507376 2.917261 10 1
2.492604 145.782180 -31.644794 7 1
44.304802 99.864441 25.759823 2 1
-46.498615 72.137810 -10.169140 6 1
-3.865022 23.542698 -20.878525 1 1
-22.593302 135.254090 -67.667168 11 1
38.785278 145.824400 13.506752 16 1
39.040031 147.820190 23.023682 16 1
10.137091 152.941020 29.619299 15 1
-5.143804 114.989850 4.359337 0 0
-0.139816 18.573160 10.401319 10 1
0.654808 148.232740 -45.695210 7 1
-10.374693 81.762962 -4.626246 0 0
-52.499454 79.859848 28.870852 5 1
10.168321 154.454100 37.717899 15 1
-44.751793 128.708470 -66.010117 11 1
-7.624780 72.905289 1.801670 0 0
-47.673653 134.216480 -38.294273 12 1
-35.275124 120.536410 -83.257240 11 1
-20.153620 129.460390 -28.888058 0 0
31.580790 106.512190 57.020107 3 1
-31.243589 133.832140 -63.352234 11 1
-62.305328 123.025080 -32.454231 12 1
-46.429379 115.674230 -78.251213 11 1
59.086811 95.806427 20.469099 2 1
-42.664871 141.854950 40.896000 14 1
-6.433450 139.511660 -16.595879 7 1
3.238420 147.168140 26.381844 0 0
-81.864563 121.934380 -20.811588 12 1
2.633085 155.474590 12.860941 16 1
10.242887 22.081026 8.642770 10 1
3.489346 154.005870 39.840446 14 1
-19.998623 157.456850 33.410503 14 1
-21.910078 47.753754 3.417504 0 0
-53.874496 77.136116 14.753740 5 1
-6.540256 79.015472 6.100608 0 0
76.692146 93.306732 33.635227 17 1
-38.214615 130.998610 -68.682747 11 1
15.847264 25.065935 -30.411783 1 1
-5.245342 35.978683 0.654084 0 0
8.924236 148.738950 -16.044151 8 1
-46.487484 146.056180 -22.398417 12 1
-64.412926 121.256210 -33.949413 12 1
-5.922679 67.863579 5.353185 0 0
12.297058 25.571898 -21.269882 1 1
-13.422605 135.049360 -53.844868 13 1
-50.838146 106.398550 -84.183044 11 1
83.653534 86.253479 45.023907 17 1
43.567261 96.962135 0.399236 2 1
-26.271244 142.161270 -36.338398 12 1
-22.673878 135.393970 -39.212772 13 1
-3.307120 47.862526 5.423202 0 0
-48.654972 124.642800 -69.250885 11 1
-53.597351 76.601601 38.784142 5 1
1.628858 28.384874 21.522411 10 1
-65.353561 130.736720 -28.114515 12 1
50.915710 95.770363 4.289446 2 1
30.514103 150.974790 17.563297 16 1
68.124451 97.441635 41.086369 17 1
-62.962643 78.935982 5.893342 4 1
51.002205 99.101120 33.546158 17 1
12.369236 126.852340 -64.978386 13 1
-21.022902 136.865370 -6.252183 9 1
-73.200111 76.968697 4.045477 4 1
-64.277847 60.785393 -18.117579 6 1
26.039654 106.640230 59.089775 3 1
15.276657 153.249240 17.513655 16 1
24.363859 107.814280 42.627510 3 1
-55.971294 73.766632 0.141563 4 1
11.367433 153.986420 -18.252176 8 1
-20.406517 149.010350 48.947681 14 1
-70.246811 136.165650 -17.489849 12 1
6.660539 126.744870 -63.410454 13 1
-1.411561 23.371941 -13.341192 1 1
-62.154758 74.374786 -2.866650 4 1
9.816396 112.072860 -70.735092 13 1
24.244686 152.499150 4.181382 16 1
-14.731110 94.386322 -11.926927 0 0
-48.092777 109.967590 -86.588318 11 1
29.513027 87.193741 23.435764 0 0
-55.337112 68.348434 -9.976684 6 1
-14.957986 103.348110 -12.877728 0 0
-25.232504 148.692660 39.014935 14 1
-3.874135 80.038269 2.610062 0 0
-64.273300 65.737816 -12.622250 6 1
40.683411 102.123570 41.643333 3 1
4.491308 142.058360 -7.070036 8 1
23.890629 116.274190 -74.395378 13 1
-5.949211 119.281320 5.838980 0 0
-35.377827 118.069100 -85.740639 11 1
-34.656353 140.524260 53.329361 14 1
9.158804 157.734910 55.486084 15 1
-37.509190 140.128950 -31.540482 12 1
-15.814490 150.324650 47.253166 14 1
38.866638 101.456030 9.463046 2 1
-2.205162 144.314010 -8.935045 8 1
-4.004157 60.980236 0.773322 0 0
-58.197208 68.965042 5.950284 0 0
15.431976 21.806957 8.247901 10 1
-25.511053 134.330750 -32.876488 0 0
-43.038548 133.451260 -42.607342 12 1
-24.292723 153.275630 33.293228 14 1
25.121416 127.602750 -69.656952 13 1
-4.031951 21.636276 -10.726956 1 1
-6.449049 84.197914 4.354522 0 0
13.101581 153.190030 -13.727575 8 1
-25.963737 134.971410 -35.505852 0 0
-34.576633 141.001850 -39.077896 12 1
-5.953969 138.859470 -47.469299 13 1
7.181588 158.339950 34.053902 15 1
61.840466 100.664830 41.061489 17 1
-11.146284 137.413770 -1.917289 9 1
-51.655300 94.414841 -87.214241 11 1
-1.431931 131.060940 -5.732809 8 1
9.302938 158.460770 63.023453 15 1
-34.637718 153.151670 31.151957 14 1
18.240690 137.711290 -62.137211 13 1
-6.619928 134.524260 -50.938915 13 1
-61.716709 136.991810 -25.122053 12 1
53.077625 96.144287 18.655704 2 1
-3.056777 6.875443 2.267474 0 0
-21.733660 140.600100 -51.903637 11 1
50.789322 96.541664 6.657248 2 1
46.294609 97.747025 11.563152 2 1
-43.372509 144.100770 -25.435127 12 1
-58.452572 75.690880 -2.180187 4 1
-45.541943 60.944210 5.315203 0 0
-63.883999 67.742279 -9.586957 4 1
65.325378 84.396355 0.090321 2 1
-45.257469 114.059390 -87.127785 11 1
21.951027 105.006420 60.538963 3 1
-42.928841 105.475810 -89.352333 11 1
-10.337706 144.005720 -21.941381 7 1
-81.570099 113.806520 -22.280033 12 1
-43.897789 121.290200 -80.393639 11 1
-4.402486 148.202300 -30.155622 7 1
36.071022 149.159580 12.819492 16 1
-72.257767 73.655785 -15.651439 4 1
65.872902 95.321671 29.291052 17 1
18.681732 151.494400 31.267595 15 1
-18.817125 149.512080 41.641548 14 1
74.240036 94.892647 53.285698 17 1
-91.342018 62.859642 -9.433950 4 1
-42.633137 135.331040 -40.091583 12 1
11.297039 158.623400 21.189447 16 1
-87.882477 66.758591 -7.794702 4 1
-30.030331 142.729320 58.748486 14 1
36.334175 107.176930 56.995438 3 1
-59.515137 74.247986 33.937687 5 1
-65.483917 77.038826 -10.250442 4 1
41.596340 100.402870 34.569233 3 1
18.793139 119.644210 -71.708900 13 1
-1.591640 139.122010 -48.803535 13 1
76.783798 93.146538 53.100918 17 1
39.996174 100.816590 18.854708 2 1
14.629871 158.411760 -16.803331 8 1
-6.340008 146.023760 -42.667023 13 1
30.395512 104.865250 60.759159 3 1
-60.504570 70.087334 35.221611 5 1
1.208695 117.477230 5.558934 0 0
80.147255 90.215889 34.509525 17 1
-43.255123 120.690210 -75.560097 11 1
-54.165279 106.199370 -79.221100 11 1
18.438675 28.050268 -7.799244 1 1
40.733402 99.015961 25.877676 2 1
0.937021 5.500877 1.692029 0 0
-62.849140 76.489243 -0.196462 4 1
-0.396566 44.614464 3.718628 0 0
69.748962 98.045151 48.672813 17 1
-29.836700 146.364030 53.294697 14 1
0.398049 144.619200 -3.562824 8 1
13.390646 26.821310 -26.705629 1 1
7.399913 157.646870 36.599846 15 1
-4.418334 14.710853 2.925943 0 0
21.016033 150.301300 26.521641 16 1
-51.459515 85.913818 21.352932 5 1
6.023754 25.829947 18.225748 10 1
-54.461269 70.870598 -5.568678 6 1
-31.793453 140.033480 -15.582713 9 1
5.010425 155.258770 25.517738 16 1
54.677074 98.077888 26.239143 2 1
15.339580 118.210960 -69.973038 13 1
10.818132 155.739320 11.397857 16 1
-65.730438 128.606310 -25.943596 12 1
15.687619 155.864520 56.020992 15 1
-79.369461 130.648300 -17.952763 12 1
-45.351292 103.497510 -91.763908 11 1
2.532966 151.064960 27.784798 0 0
45.912075 101.857650 29.885157 17 1
-38.698357 124.361400 -75.292931 11 1
63.392433 96.950859 26.277327 17 1
-8.773648 146.471710 -23.703947 7 1
-17.046423 152.857130 34.183037 14 1
72.673347 96.434464 31.029366 17 1
13.943663 155.458890 54.178997 15 1
8.868002 31.271124 26.887983 10 1
4.125648 19.629377 4.089907 10 1
10.594070 63.838226 10.222777 0 0
-57.155392 55.607494 -25.049150 6 1
32.501907 106.312570 41.901207 3 1
10.110961 24.896584 -27.522200 1 1
-7.476800 153.104060 32.705441 14 1
-32.609116 145.611040 42.475597 14 1
21.828827 153.353060 6.369292 16 1
-38.309059 152.212400 33.521446 14 1
35.375473 106.813420 51.376923 3 1
2.649521 143.450090 27.376986 0 0
22.666574 106.260080 52.483551 3 1
-1.912885 114.258000 15.139297 0 0
61.622593 97.490799 36.251335 17 1
-85.342827 71.710281 -3.458486 4 1
-56.250740 72.432884 35.317600 5 1
8.082281 151.260190 15.725775 16 1
-17.722355 125.427960 -27.295843 0 0
-18.008671 138.820980 -48.572582 13 1
-79.992065 73.465820 -8.709942 4 1
-1.194384 21.069658 14.145307 10 1
50.999271 100.236610 38.450214 17 1
-37.114388 138.091160 -50.363571 11 1
-1.506234 148.002430 -43.089668 7 1
55.912251 98.603790 21.486582 2 1
14.020427 137.324860 -62.477581 13 1
-1.393907 147.022960 -14.930399 8 1
2.557020 146.024430 -39.026299 7 1
34.167004 93.885590 28.161077 0 0
-69.658081 74.679634 -4.622770 4 1
-66.441536 134.263320 -20.334423 12 1
61.715523 86.721283 -2.172882 2 1
18.744959 77.513054 16.850889 0 0
-47.336689 87.372734 -95.894218 11 1
-3.691591 125.786220 -2.467702 0 0
7.919741 24.465139 -9.453838 1 1
-28.311901 146.402330 48.114334 14 1
-50.609440 66.807045 6.626219 0 0
-0.573443 107.588430 16.212297 0 0
-27.271284 143.280640 -14.816239 9 1
-13.536938 141.537260 -11.206846 7 1
17.404327 27.026123 -19.158438 1 1
5.002174 148.511050 -26.654423 7 1
-3.079584 140.230240 -51.315895 13 1
51.469944 99.981575 28.552412 17 1
-33.897549 53.446140 4.189655 0 0
-5.940752 142.397110 -11.271364 7 1
-31.297382 142.769440 53.575909 14 1
-45.084362 122.492970 -76.921516 11 1
-20.316223 154.942900 36.817566 14 1
-69.530998 118.104960 -30.276611 12 1
-46.741802 123.963190 -73.384453 11 1
-0.750496 10.677348 3.208348 0 0
-8.985454 132.011610 -6.164019 9 1
31.425568 151.219360 6.411174 16 1
-23.403229 147.224520 52.796585 14 1
-68.201996 76.656967 -4.584525 4 1
27.933926 151.717070 13.417256 16 1
18.759956 156.480850 37.202633 15 1
0.794165 57.703930 5.350757 0 0
-59.093449 72.405197 2.826243 4 1
-48.869892 142.232300 -26.193316 12 1
-13.395906 41.180126 0.315398 0 0
7.278688 144.560100 -54.835827 13 1
20.561615 153.792660 20.556374 16 1
-34.457909 123.068410 -81.151764 11 1
-54.676693 71.894592 5.254939 0 0
19.215462 26.251686 25.045885 10 1
-1.453132 153.286350 37.314804 14 1
-18.468750 153.619630 40.610397 14 1
23.473509 108.626140 45.206039 3 1
8.135157 34.573589 28.977966 10 1
-63.943497 63.430981 -17.305298 6 1
-4.119235 43.468533 2.480636 0 0
-10.946006 157.664790 29.332451 14 1
-1.948187 139.740860 -17.996727 7 1
-2.787077 153.741640 40.198250 14 1
-4.157279 150.214540 -38.040344 7 1
41.548252 103.926960 46.985443 3 1
7.036956 130.863650 -63.936691 13 1
9.721649 156.386150 19.617651 16 1
15.991536 156.694750 50.489655 15 1
-27.665607 132.602190 -71.577293 11 1
6.106979 154.879040 22.542734 16 1
-0.940604 131.053890 22.918026 0 0
-23.086651 148.709170 43.533241 14 1
2.819571 147.297550 -36.585789 7 1
-2.155284 53.455212 0.955419 0 0
3.220251 114.228590 -69.680489 13 1
34.898312 101.801770 31.398256 3 1
-13.587235 101.618710 -14.457964 0 0
-95.263199 59.838169 -4.553043 4 1
-27.348700 136.537120 -58.982388 11 1
14.402355 131.603200 -63.292404 13 1
18.991808 27.438099 27.446774 10 1
-4.398155 50.722752 4.851199 0 0
-5.323750 122.067380 -0.801063 0 0
-20.909252 143.016800 -6.728999 9 1
-27.624409 134.635930 -69.647171 11 1
-13.434036 146.199520 -23.660046 7 1
-10.324242 133.149860 -57.158485 13 1
-3.236058 24.495035 3.861330 0 0
-15.302855 152.834720 49.153038 14 1
64.227699 98.680954 33.953468 17 1
-35.852730 144.410430 -30.363777 12 1
3.409880 19.754543 -3.626438 1 1
-77.762787 78.765060 7.753728 4 1
-20.426725 154.682330 30.708336 14 1
-53.562405 103.998170 -80.874115 11 1
12.897484 156.332960 51.061745 15 1
8.020089 147.292470 -12.860972 8 1
-55.418236 74.766808 29.562643 5 1
35.077091 105.683920 47.469337 3 1
0.959116 123.258640 20.919125 0 0
2.096098 131.735150 -4.760834 8 1
-26.574652 48.380768 3.388147 0 0
12.141818 156.171600 26.875177 16 1
-18.339077 150.135540 38.434551 14 1
17.046347 151.493730 20.864172 16 1
4.323392 21.741310 5.270522 10 1
-32.874615 126.027690 -78.736710 11 1
-14.539068 140.359010 -3.141522 9 1
-41.928665 147.139080 35.873501 14 1
-1.325650 126.396770 21.449364 0 0
15.514454 112.498170 -73.998222 13 1
-4.221961 93.761917 12.166331 0 0
-7.450424 127.885720 -58.524734 13 1
-64.631477 78.123886 4.094515 4 1
-2.062934 85.808823 3.782646 0 0
-56.356243 116.302160 -74.041756 11 1
-6.687024 88.098450 7.423111 0 0
-36.571205 139.573590 -53.312740 11 1
-35.966393 134.715770 -63.528965 11 1
-34.137211 134.491390 -59.115578 11 1
62.579487 99.317070 28.646971 17 1
56.069775 101.990200 47.473518 17 1
-19.165817 151.266750 51.539326 14 1
-1.571176 148.842850 -23.356939 7 1
-4.339814 143.517440 -47.936985 13 1
-40.038216 135.396060 -42.042774 12 1
13.090159 25.879934 -18.827902 1 1
3.811779 133.762700 -61.097706 13 1
-9.412899 158.271410 32.644554 14 1
14.726485 152.228150 22.232296 16 1
-15.775021 99.044395 -13.368608 0 0
16.371458 151.462020 29.483038 15 1
-65.674141 125.740610 -27.951847 12 1
14.878180 27.597805 24.901272 10 1
-50.627071 132.035280 -34.558537 12 1
-26.276154 140.498750 -56.893280 11 1
12.269865 153.568650 -10.119672 8 1
15.519018 28.199074 -27.649006 1 1
-1.975252 104.063440 12.589755 0 0
-9.192008 142.276570 -43.506638 13 1
11.001745 159.179930 36.571781 15 1
12.698548 67.825829 12.028089 0 0
2.178791 119.071880 -68.601494 13 1
-52.851257 69.421181 -7.495254 6 1
-54.111519 132.349700 -31.570740 12 1
58.642979 92.846298 12.658415 2 1
17.587717 158.761320 48.481785 15 1
-79.937439 124.194690 -17.932817 12 1
32.495167 150.719990 10.472057 16 1
-7.562054 151.675960 42.095112 14 1
-30.241861 139.608400 -11.863987 9 1
5.080060 138.713810 -13.675524 8 1
-17.287281 140.389160 -39.555786 13 1
-81.765503 69.572701 -11.504045 4 1
-54.465820 65.785805 7.411456 0 0
-19.387476 152.121830 35.294575 14 1
67.131485 95.918297 34.183224 17 1
-50.696632 71.701561 1.760963 6 1
19.947861 133.164670 -67.945091 13 1
-3.813853 98.093979 13.910376 0 0
65.714302 100.158160 43.420830 17 1
-3.465037 156.269150 38.628826 14 1
9.578365 24.891066 -18.948072 1 1
-82.246834 72.433632 -9.064592 4 1
-2.950428 131.595280 -60.311111 13 1
-76.717560 116.329380 -24.075832 12 1
-45.074268 136.368940 51.401672 14 1
-74.346031 135.379070 -18.551308 12 1
74.430191 94.896721 33.977215 17 1
25.501917 108.506070 53.777695 3 1
7.480704 154.692280 -7.485003 8 1
-64.483849 127.721440 -31.295454 12 1
-29.233885 147.327380 40.101639 14 1
-43.596115 99.624397 -94.259438 11 1
-35.092678 145.424000 38.641800 14 1
23.463070 152.075240 33.310570 16 1
36.258587 100.213680 36.219215 3 1
5.912673 119.378160 -66.812286 13 1
-53.477875 77.443542 30.016388 5 1
-39.604576 113.564500 -89.480202 11 1
-46.920559 127.826610 -66.700546 11 1
-34.204834 143.707530 46.589710 14 1
-1.019617 100.009010 6.807388 0 0
-0.335981 129.173580 25.121971 0 0
17.219427 26.154799 -14.578420 1 1
39.761864 95.325829 30.677174 0 0
26.250282 106.217500 48.000652 3 1
-1.341560 118.456860 -68.310417 13 1
66.682587 88.132568 4.592785 2 1
69.899574 95.651848 52.423988 17 1
-53.649139 140.432020 -22.483013 12 1
-9.614056 150.731000 38.516369 14 1
-4.971635 131.243470 -6.892842 9 1
-65.202835 69.142250 21.491831 5 1
26.711399 154.179900 31.268932 16 1
-49.269032 97.882523 -89.660347 11 1
7.379368 116.856930 -70.286888 13 1
-2.725485 66.552361 4.580277 0 0
0.312275 120.513620 -65.267860 13 1
9.613035 156.507970 30.256716 15 1
-6.378129 158.873890 32.216049 14 1
-55.393982 62.036732 -19.592278 6 1
29.189560 106.995610 44.780228 3 1
-21.716644 139.202990 -58.705368 11 1
1.175708 151.793230 38.447086 14 1
20.610533 108.613880 52.519421 3 1
-8.180299 71.534073 3.762362 0 0
3.472382 57.680473 6.703629 0 0
-1.375110 94.555664 7.545895 0 0
-2.407868 128.877090 -62.521847 13 1
11.495287 21.504824 5.315743 10 1
57.177048 98.187042 19.543278 2 1
-0.844460 150.268570 -3.378951 8 1
24.963428 78.806564 21.013088 0 0
-3.538701 149.145940 -33.998901 7 1
-48.622578 104.942030 -88.394630 11 1
1.653139 21.413849 7.805456 10 1
-76.291084 130.847020 -17.043674 12 1
-38.850109 119.428250 -81.122810 11 1
4.779801 134.404630 -58.209961 13 1
1.872907 129.037840 23.230991 0 0
27.960798 82.091148 22.892775 0 0
-62.436028 140.459110 -19.051365 12 1
7.449638 134.498780 -62.368252 13 1
-30.701609 141.775760 -38.088928 12 1
-3.097567 148.110640 -38.643539 7 1
4.706094 20.993086 9.574154 10 1
43.962936 103.747910 45.266167 3 1
-19.698004 142.371430 -39.569954 13 1
45.950169 95.008820 -2.990348 2 1
-39.294186 138.754700 -54.218872 11 1
-52.204723 81.722931 30.486324 5 1
-75.959023 124.282300 -20.357132 12 1
-54.776642 71.363243 -2.186715 6 1
-19.639799 140.504880 -48.404049 11 1
-49.416321 71.805542 -4.105892 6 1
-25.949877 135.597750 -63.370468 11 1
-32.139576 119.970650 -88.882614 11 1
-0.831378 148.221500 -18.848183 7 1
-14.428247 135.242920 -3.245166 9 1
-23.315870 138.041230 -65.783714 11 1
15.349946 27.206615 -10.404133 1 1
