45.827835 238.515230 95.376999 4 1
-47.382824 203.308520 79.037971 0 0
-22.712591 306.270020 -52.256199 0 0
29.870939 163.899870 -125.855100 34 1
-34.145386 150.958340 -55.661850 0 0
15.913649 121.984200 -20.141634 42 1
-43.492531 214.518080 -137.113250 12 1
-51.022152 202.769300 -31.335873 0 0
-26.174709 359.222470 -111.898900 15 1
-34.768196 268.435850 36.592884 20 1
-33.632244 200.852490 117.302040 30 1
-45.750568 185.938890 -61.752338 44 1
-74.473343 208.498760 -33.137817 21 1
-79.642113 207.566130 114.056430 31 1
-5.566826 153.879580 -27.701309 0 0
-7.043769 41.543587 -6.089949 0 0
-40.071926 144.510090 -20.092009 0 0
-17.336571 152.951680 -10.502982 0 0
-52.197201 218.669130 -31.129364 0 0
-24.989876 196.563480 49.191402 0 0
50.399971 163.251860 5.184323 2 1
-46.968658 214.379290 58.783554 0 0
-18.129482 101.656970 -43.300179 0 0
27.934061 148.291440 -37.564381 39 1
-8.428109 321.742460 -12.475109 0 0
-24.085325 166.106950 -3.152781 0 0
1.191365 30.803900 -5.706876 0 0
-66.350471 204.496890 -59.061512 38 1
-48.043026 347.722470 -93.420898 16 1
-8.641954 95.090210 -7.708821 0 0
-65.107445 217.184910 -132.538790 12 1
59.275543 248.341510 -50.716980 48 1
-69.870888 287.810390 -54.375130 25 1
7.510934 341.917540 -86.775047 17 1
-9.504080 349.821930 -83.801193 17 1
-60.769985 228.916400 74.197136 31 1
-71.625992 198.712420 -54.917145 38 1
-6.259553 141.921690 -44.137245 0 0
-33.990116 223.455340 -139.079710 12 1
-82.821945 194.538760 86.983887 31 1
-48.537384 166.426180 -14.077360 37 1
-24.214443 276.075260 81.557907 9 1
-65.283569 164.172060 10.211548 35 1
9.972064 338.036530 -69.708420 17 1
-25.127890 172.561650 -44.533199 0 0
-59.173817 158.328450 43.003407 33 1
76.011696 229.491470 -49.279343 48 1
-30.888762 139.073990 -75.379936 0 0
-60.739735 211.966750 6.874158 36 1
38.742641 366.630130 10.571969 28 1
-29.921844 309.881410 -74.764153 22 1
-13.177636 198.535630 -137.842560 47 1
-59.731392 294.792760 -74.097794 25 1
16.049837 155.115920 -128.936080 34 1
-25.066048 179.756580 -137.185610 46 1
-6.187095 143.549650 -27.574692 0 0
3.300288 100.031910 1.594089 42 1
-53.299328 203.859050 -151.618420 12 1
-5.007188 149.820560 -179.098280 45 1
7.557816 72.308250 -3.299904 40 1
-105.312080 282.917210 -31.651894 24 1
12.459214 294.323030 -21.275278 0 0
43.543766 351.353060 16.676935 28 1
-17.738100 240.245560 -17.401144 0 0
-42.716530 188.540910 121.055580 30 1
-20.837454 276.303960 -35.058491 0 0
-9.961808 281.807500 32.124386 10 1
22.778996 343.643680 -39.850067 11 1
0.410937 64.730026 -9.502640 40 1
-69.384422 207.415760 -138.129140 12 1
57.476994 227.394590 -94.349510 48 1
1.869028 278.245540 34.522942 10 1
27.110197 135.740250 -24.452108 39 1
-47.844231 129.233050 -12.039925 0 0
-9.964078 75.549385 29.266674 0 0
-85.965988 192.914120 -21.252413 21 1
12.741660 55.208618 -13.848383 41 1
-93.311462 236.515580 49.793148 29 1
-41.514091 218.508740 -19.905071 0 0
-38.415604 266.733920 49.118397 20 1
-100.465190 230.860670 60.457676 29 1
-40.656685 204.119710 -175.182220 1 1
-13.161687 111.115080 -5.017712 0 0
-51.882973 233.391010 77.574829 31 1
-59.404686 213.674150 -63.933537 38 1
-56.259579 178.004440 -51.628410 44 1
-19.360828 349.949340 -88.755341 16 1
-48.560795 315.068760 -56.696503 22 1
-14.452758 122.022080 -25.231062 0 0
-22.576630 141.106090 -56.936749 0 0
-85.948479 200.517610 92.350441 31 1
41.294960 229.539860 66.189240 7 1
31.442293 321.975890 -18.549965 13 1
-92.125511 163.144940 35.574501 32 1
70.172394 341.526340 -14.477168 14 1
-8.622702 103.233310 -57.502937 0 0
-37.756657 186.831020 -65.294792 43 1
7.546892 58.059650 -7.069548 41 1
-13.222851 163.487000 -7.384989 0 0
-15.885637 344.700780 -79.527565 16 1
-29.379166 319.800990 -13.527317 26 1
11.596089 278.857330 25.546749 10 1
-96.625885 222.190550 53.876942 29 1
4.110484 250.278840 76.448547 6 1
18.094603 131.931920 -15.970835 42 1
-7.773229 89.262619 -13.307479 0 0
-31.562811 158.567870 44.756790 0 0
-26.519804 168.229390 -181.786540 1 1
-57.211338 306.364010 -47.226383 26 1
10.743449 186.145100 -139.751510 46 1
-11.304501 123.467540 -48.154869 0 0
-26.625681 231.370320 -33.162766 0 0
-25.574419 93.328316 24.818958 0 0
-50.125484 257.303340 33.822796 20 1
-73.502052 234.068600 70.734863 29 1
-0.830146 232.854310 94.300659 6 1
-5.180108 160.221730 -97.009621 0 0
-12.117556 55.226334 0.430860 0 0
-52.774986 293.426570 -9.495629 26 1
-15.266035 214.153660 -18.894699 0 0
-7.354609 138.906850 24.144590 0 0
-4.522469 286.989230 18.854851 10 1
-53.081573 311.800780 -34.212971 26 1
-37.294106 319.989440 -18.394407 26 1
47.090702 175.521090 -0.595871 2 1
-14.128090 300.969390 -5.066895 0 0
-50.807259 269.140470 -55.383686 0 0
-61.015259 209.442920 115.787250 30 1
-19.016527 217.942120 -33.645470 0 0
-38.434177 119.339100 -6.428636 0 0
-42.612835 151.880690 -153.161610 46 1
-80.825607 213.840450 -38.031605 21 1
-60.687031 304.613430 -3.829398 26 1
52.638756 158.433270 -36.044163 2 1
-20.080549 87.390762 35.269447 0 0
-59.381847 214.806730 -6.508723 36 1
-41.029594 237.409230 -47.029934 0 0
-19.707281 81.753342 21.688368 0 0
-23.372047 200.397510 -127.809230 47 1
42.724792 323.619900 -57.318272 11 1
-16.482025 72.984055 26.689707 0 0
-43.611172 358.213990 -72.667038 16 1
-26.865868 219.433360 -15.478503 0 0
-37.231159 279.987270 43.345139 20 1
-40.349728 290.061610 41.864742 8 1
8.618305 156.078190 -148.801530 34 1
15.322658 182.758790 -26.857149 0 0
-65.004608 218.493700 106.828980 31 1
14.288675 142.699870 -31.515368 39 1
-45.567844 172.586560 -87.379555 43 1
-24.910032 155.742310 37.974197 0 0
-65.421616 290.719970 -80.534431 25 1
-33.350460 215.373960 -51.662975 0 0
46.450665 232.511700 105.241300 4 1
-36.400459 156.756940 -26.760654 0 0
-13.096298 227.575680 3.399488 0 0
-37.978413 177.276470 46.387440 0 0
-18.333414 273.713590 91.135803 9 1
-29.195404 275.082460 47.777122 20 1
-21.558559 228.116240 2.017261 0 0
4.669033 345.976200 -70.289864 17 1
-20.125938 317.414790 -8.857328 0 0
-41.269279 221.147840 -141.785520 12 1
-90.260284 317.151310 -60.464443 19 1
-43.168732 166.423030 -33.807285 0 0
-58.324665 211.661250 105.598290 30 1
-76.533310 289.926850 -61.222767 25 1
7.237302 162.198960 -137.151980 34 1
-87.253891 238.031330 62.881863 29 1
39.642075 331.162410 -22.610428 13 1
-15.557701 296.628600 5.233373 0 0
-70.202522 294.372340 -65.855125 25 1
-56.966766 169.466610 30.963898 33 1
-73.170387 163.913420 51.010159 32 1
-17.954634 336.261720 -20.996702 0 0
57.800316 342.994230 -18.005901 14 1
-44.978935 316.435820 -23.962612 26 1
60.038177 255.381910 -12.760103 49 1
7.760055 355.326110 50.975067 3 1
-23.823584 235.317080 -21.050922 0 0
5.380924 157.684230 -155.767780 45 1
36.009323 141.385150 -29.390682 39 1
-5.514453 56.994808 11.125440 0 0
48.860348 176.026210 -17.565742 2 1
-18.363478 162.989580 -151.622820 46 1
54.977245 333.108120 -35.853931 14 1
-38.491547 219.028950 -55.996895 0 0
-30.493404 97.187889 2.348156 0 0
-39.783123 146.698970 -66.224686 0 0
-49.343964 213.408770 -16.971844 0 0
2.067319 36.934635 7.648168 0 0
-62.151421 213.525850 -53.389603 38 1
-24.299828 217.815090 -73.040932 0 0
14.642330 238.294280 96.276169 6 1
-35.438999 155.455800 32.184631 0 0
-54.885799 202.538270 90.188972 0 0
-38.529472 207.306090 -55.288002 0 0
42.272285 323.933840 -33.430325 11 1
24.518433 147.725040 -125.099790 34 1
-9.686914 181.603120 -127.954000 46 1
0.403871 231.955730 60.421791 0 0
-54.386703 254.910450 50.842381 20 1
-13.102011 172.532350 -51.372547 0 0
-53.532166 227.795910 65.295456 29 1
-48.117401 209.765000 15.341283 36 1
-9.313668 171.180730 -3.614888 0 0
9.731343 61.591614 -20.039547 0 0
-5.655932 143.247850 -36.205379 0 0
-117.404190 270.061770 -12.798553 24 1
-40.360008 209.039350 -162.810960 1 1
-45.903271 203.494770 -23.827560 0 0
-93.490234 225.310910 76.868156 29 1
-30.457268 151.813130 -160.789050 46 1
-68.456848 296.209560 -21.728107 26 1
-13.518948 121.043700 -15.650067 0 0
-55.142475 224.983900 -138.148620 12 1
-19.886633 179.236890 -149.371540 46 1
-7.839788 17.760387 2.855553 0 0
35.124752 126.770980 -28.223415 39 1
70.930634 336.236050 3.017470 28 1
-65.192741 201.543790 25.292402 36 1
-6.350185 175.061170 -144.154390 46 1
5.852749 172.474660 -19.259613 0 0
-5.701439 193.207290 -31.124859 0 0
-38.050476 176.363850 60.913853 0 0
-41.487373 298.820100 -17.658779 0 0
-31.666391 199.689700 -15.259961 0 0
-30.771688 273.225370 83.867027 9 1
32.330288 340.475710 9.203871 13 1
60.619411 163.940930 -28.466944 2 1
-49.765663 360.189730 -69.231331 16 1
-69.844597 222.844880 82.673561 31 1
-32.029381 181.850070 -43.301601 0 0
-26.322895 192.959320 -130.954330 47 1
-16.601871 164.401930 -169.499280 46 1
12.276766 147.842580 -176.605760 45 1
-29.577806 212.032530 -17.232662 0 0
-45.072739 222.008710 -30.227800 0 0
8.853670 82.832603 -32.575535 0 0
36.351250 350.506010 34.944832 3 1
-18.667398 60.644108 1.819413 0 0
-75.758888 162.668200 16.246351 35 1
-39.362766 154.924390 38.337448 0 0
-32.111485 166.565410 -154.543780 46 1
25.427717 187.834820 -124.994160 27 1
34.201950 169.258740 -130.352390 27 1
-23.288792 221.628040 -45.425812 0 0
26.428074 340.879490 20.083988 13 1
-9.792310 220.424530 -11.200885 0 0
-42.402092 208.784670 -9.059775 0 0
59.926414 161.546420 -21.393614 2 1
-100.932300 203.719310 -24.601297 21 1
-12.995711 57.987560 17.658661 0 0
-19.300339 219.652570 -5.845873 0 0
-68.082672 213.025770 115.157670 30 1
-55.181625 351.100190 -86.788994 16 1
41.547844 356.984160 24.971762 28 1
-1.734678 161.880100 -160.440730 45 1
-25.926586 82.519592 -11.219933 0 0
-58.851635 305.671390 -21.670984 26 1
-38.074387 188.313000 -9.920072 0 0
-16.544254 219.227450 -70.578392 0 0
19.818901 348.650120 -69.122734 17 1
-26.367550 130.915080 -23.318598 0 0
-76.138672 297.022220 -39.797665 26 1
24.117758 115.439320 -43.787327 39 1
57.935036 240.130860 -87.711861 48 1
24.736170 336.847020 0.943818 13 1
21.037043 134.619200 -128.631610 34 1
-32.909016 287.867920 65.477486 9 1
-86.283607 193.499270 100.915070 31 1
7.185040 138.040130 -10.220250 0 0
-56.311001 201.027790 -55.016716 0 0
19.289703 137.340990 -36.965710 39 1
-4.603474 186.003950 -81.275047 0 0
1.543654 141.097320 -47.234146 0 0
-2.388871 87.071609 -3.798944 0 0
-38.459621 285.446260 50.901760 8 1
-12.479997 212.029950 -155.417360 1 1
6.677428 186.694210 -166.889770 23 1
-10.754383 154.558270 -178.414120 45 1
31.142677 238.311160 106.566330 5 1
-26.550762 281.541200 44.309212 20 1
4.983522 69.455299 -23.669758 0 0
-53.875698 246.186490 33.193119 20 1
-54.579639 317.152680 -69.841904 19 1
-71.226318 169.320980 35.140022 32 1
-17.449730 142.460910 -66.096153 0 0
46.378052 327.817080 -12.175904 13 1
-49.542915 198.438200 121.065100 30 1
-36.921429 361.590270 -68.705490 16 1
70.084282 248.603330 -41.051369 48 1
5.004921 271.934200 36.154400 10 1
-47.161430 232.509550 83.387489 31 1
-95.990509 292.308650 -32.373299 24 1
-24.028856 191.781170 -41.221527 0 0
-32.942688 188.409260 39.797585 0 0
-43.759811 221.590470 -133.602870 12 1
26.613617 358.235660 8.370309 28 1
-21.562010 274.302090 28.139996 0 0
-63.313431 316.712710 -56.254688 19 1
-48.553772 216.237140 5.118407 36 1
-69.538284 208.796260 -15.764068 36 1
-73.468941 204.008870 105.398330 31 1
-103.632940 226.144780 55.683811 29 1
-26.069300 242.257900 11.487872 0 0
-46.350391 319.826140 -61.652943 22 1
-39.065384 181.709400 55.815937 0 0
14.761708 119.885060 0.317611 42 1
-73.906731 300.312290 -4.162899 26 1
-75.269928 235.525310 89.338814 29 1
-45.376484 198.274720 72.296822 0 0
-3.718802 199.779420 -49.393806 0 0
14.457150 243.840500 74.867203 6 1
-19.636787 304.937070 -78.463860 22 1
-4.341763 102.192600 -11.391361 0 0
-1.433395 176.860750 -28.503942 0 0
-32.658817 172.420870 -149.837190 46 1
1.105715 184.898270 -123.167690 46 1
-55.650990 300.016510 5.023101 26 1
-111.645790 275.565700 -19.756918 24 1
-123.419110 256.491520 -23.999702 24 1
-31.965269 200.251600 -58.675167 0 0
-18.999483 219.354870 -83.943336 0 0
-34.247211 170.181660 48.635742 0 0
-10.071119 190.999980 -24.286478 0 0
45.982323 356.354030 7.243852 28 1
-29.464066 115.236770 24.234472 0 0
1.475760 154.224640 -168.768190 45 1
-32.398815 198.017180 -176.588900 1 1
21.739977 195.384520 -25.482847 0 0
-71.453514 210.136780 10.652292 36 1
-39.205990 178.315280 -35.942047 0 0
8.408928 190.234510 -153.502750 23 1
43.283337 176.227190 -28.210054 2 1
-62.385735 238.333630 29.125130 20 1
-75.633919 225.456250 68.353584 29 1
56.737633 350.232180 8.194723 28 1
-13.435196 172.519290 -24.108662 0 0
-35.311752 241.238690 -49.326618 0 0
21.651077 125.148380 -50.949055 39 1
-103.160410 227.369770 66.095421 29 1
19.973143 334.678920 -39.769741 11 1
75.054893 247.233120 -8.567595 49 1
-69.739677 211.823120 -53.734043 38 1
-10.305172 114.637020 -52.748013 0 0
23.915489 153.069400 -116.798140 34 1
12.442093 74.362534 -26.063766 0 0
-23.548908 131.334490 29.567341 0 0
-15.098760 282.642030 72.638451 9 1
26.782146 147.553820 -132.700530 34 1
-70.130295 194.649860 -141.963760 12 1
-81.694786 163.554470 27.579321 32 1
-58.455856 218.529040 121.881240 30 1
3.327473 64.805939 7.606229 40 1
-56.970615 212.738820 -42.594086 0 0
-2.129084 131.373930 -40.876373 0 0
80.297928 243.784100 -15.615404 49 1
26.956945 130.260830 -127.511790 34 1
-70.231277 168.006300 28.176783 35 1
-46.584312 121.380000 -4.947030 0 0
-31.107430 141.661760 -46.370090 0 0
-68.764824 315.886690 -66.398064 19 1
-12.007203 194.002840 -37.734776 0 0
-19.045076 302.488770 -11.338107 0 0
-10.278780 172.047730 -149.304400 46 1
22.762783 358.652310 31.957563 3 1
4.876788 194.717360 -89.526993 0 0
-55.700733 290.691800 7.939410 26 1
-24.220797 146.031740 -45.739967 0 0
-43.073009 162.920580 56.527409 33 1
0.497342 70.748871 -2.961830 40 1
1.946977 148.350110 -177.666960 45 1
-36.706161 302.978300 38.377335 8 1
-15.474565 218.544050 -63.118866 0 0
-23.914980 206.404310 -58.348396 0 0
-37.966541 249.502810 -43.298653 0 0
-15.157946 272.061000 -17.261671 0 0
-9.789774 238.746110 -19.215321 0 0
-51.441666 164.669110 4.069238 37 1
43.369392 354.408780 -5.567973 28 1
26.977726 342.196590 -50.554844 11 1
30.988180 355.389470 20.731026 3 1
-29.164200 315.914550 -63.247650 22 1
20.444851 353.899230 43.025608 3 1
-58.334644 215.216960 -34.045429 0 0
-51.510132 270.918240 19.139795 20 1
-89.524498 160.950150 24.129148 32 1
-14.327123 168.629000 1.593448 0 0
-20.760649 90.464554 -14.159097 0 0
43.192051 346.685390 22.650171 28 1
-18.747662 348.255650 -8.121638 0 0
-42.367561 200.636570 -50.237907 0 0
-45.245777 209.328340 47.159115 0 0
-58.658619 167.875290 41.784088 33 1
-104.664000 286.515380 -41.959370 24 1
-49.537266 361.515960 -80.839447 16 1
62.095173 166.532990 -16.878113 2 1
-16.185295 20.849564 -2.131063 0 0
-65.935181 298.686370 -13.746612 26 1
-9.295155 135.479370 -1.543237 0 0
-85.074455 310.304110 -78.344322 19 1
-23.424547 224.506450 -101.753640 0 0
-28.712095 362.270390 -120.832060 15 1
19.424995 361.503390 43.027882 3 1
-40.773682 169.708800 -2.513358 37 1
-13.119373 166.138410 -142.506030 46 1
-30.636793 276.748840 20.949949 20 1
65.621666 223.899170 -85.299721 48 1
-28.557470 211.362990 -25.036411 0 0
-36.142666 317.357090 -52.800236 22 1
18.287207 243.953930 87.128372 5 1
-41.393219 197.104000 -10.586813 0 0
55.590111 333.511600 -26.942406 14 1
24.715687 135.516370 -48.525433 39 1
27.219816 324.024600 -66.957253 11 1
-20.631117 133.560610 -48.635654 0 0
-28.939598 318.642150 -70.144470 22 1
-40.646587 299.774260 -6.358818 26 1
49.261463 351.356810 32.480270 3 1
-35.508434 279.320560 72.837219 9 1
-67.805603 216.683590 95.458061 31 1
-11.283073 115.585140 -22.340796 0 0
14.096743 165.626750 -134.138150 34 1
-10.143346 232.926300 100.502680 6 1
23.556046 237.335980 84.347305 5 1
-17.192356 317.523320 -18.095259 0 0
7.967262 107.806690 -14.889488 42 1
20.657080 358.801910 20.842766 3 1
-42.523521 232.117030 -56.716682 0 0
-63.689754 297.952360 -41.780697 26 1
13.501884 345.905730 -45.971806 11 1
17.722702 140.991410 -20.718992 39 1
-44.200615 180.713030 -49.354256 0 0
-55.160801 265.057650 30.431194 20 1
10.097167 274.637420 42.844791 10 1
-40.052505 134.106830 -5.941823 0 0
-67.038757 230.063060 58.184387 29 1
-57.222446 222.156250 96.063118 31 1
61.217129 257.802190 -33.343540 49 1
-66.469940 258.148440 -38.757786 18 1
-29.876556 146.778560 35.936661 0 0
0.294462 145.729460 13.432556 0 0
-41.560043 221.328090 -50.122658 0 0
-47.813984 189.968380 39.560539 0 0
-35.434135 192.716110 -180.080840 1 1
-57.103870 284.801150 -1.476120 26 1
-45.609596 232.898770 -37.644169 0 0
-14.210234 229.123290 -25.950005 0 0
10.025791 142.197880 8.615876 0 0
-25.861055 149.473790 41.907814 0 0
-19.559273 179.425380 -185.435300 1 1
8.741808 170.644030 -177.500950 23 1
-90.866943 189.267460 -29.363184 21 1
-23.271414 222.550090 -135.259480 12 1
-75.122856 280.804140 -82.331589 25 1
-48.289677 185.374480 -54.903065 0 0
-18.146492 180.580900 -22.285336 0 0
-57.981934 214.654710 96.023598 30 1
-35.547134 92.235550 -9.135773 0 0
-34.810524 200.782680 -32.404892 0 0
1.806137 238.715670 99.554962 6 1
-13.704261 151.376420 -36.085251 0 0
-108.650440 272.118350 -39.451294 24 1
-14.855482 174.575670 -180.214170 23 1
-60.540081 244.359480 41.877434 20 1
-7.376874 209.927890 -15.298709 0 0
-47.369602 317.456150 -68.182144 22 1
7.947781 355.523650 -67.957367 17 1
-39.766338 308.032750 -4.790961 26 1
-61.756481 231.768230 83.352264 31 1
-21.634312 192.461520 -21.439327 0 0
-19.791492 337.761630 -3.219069 0 0
-27.255423 187.541090 -49.515316 0 0
2.140602 305.492280 0.254028 0 0
-63.942940 250.084750 23.931499 20 1
-19.994194 285.605620 -42.300224 0 0
9.950775 236.011000 63.914196 0 0
-85.738144 202.744710 -21.089489 21 1
-62.979130 232.095290 -128.959490 12 1
-36.823433 148.554180 -156.191150 46 1
-18.385492 192.217150 -149.243500 47 1
-6.786210 250.591920 -27.104469 0 0
40.172619 336.541200 3.802565 13 1
-5.976622 360.502200 -92.479492 15 1
36.584404 234.028820 115.567770 4 1
-43.412411 261.910770 48.689350 20 1
-17.907482 308.002990 -61.326366 0 0
3.498825 54.888027 -20.932365 0 0
-18.235249 251.175110 -24.218983 0 0
27.003510 338.765380 -36.012852 11 1
-49.188526 200.026310 36.306740 0 0
-20.149742 255.534810 -15.424833 0 0
1.628177 267.359620 56.041729 10 1
70.883965 234.774120 0.446650 49 1
-28.658113 182.104080 -55.801590 0 0
-93.545395 289.096950 -41.736729 24 1
65.552277 241.438350 -70.932236 48 1
-5.851817 129.466000 -55.131836 0 0
-96.071899 195.872770 -27.228746 21 1
-28.655605 107.898090 32.989475 0 0
-49.073009 227.066620 88.729591 31 1
-62.924461 264.297940 -41.491512 18 1
-10.046922 297.099670 -15.937079 0 0
31.258764 168.096160 -139.436920 27 1
-72.417931 289.014830 -36.847477 26 1
66.048340 158.602010 -19.813919 2 1
-17.579689 307.843380 -2.785653 0 0
-23.024698 162.302490 -161.751920 46 1
-22.126265 365.540500 -110.106090 15 1
-13.552912 207.182850 -167.382050 1 1
-11.819999 336.583400 -11.856081 0 0
-80.457680 276.727260 -70.279358 25 1
8.827640 171.517290 -131.845630 34 1
-45.424850 209.057010 119.760230 30 1
-90.226120 295.819760 -30.831474 24 1
19.337198 153.088940 -145.593050 34 1
-44.018902 186.877200 67.991447 0 0
45.194344 179.161680 -12.200677 2 1
-72.908340 211.493740 -0.831936 36 1
51.970917 262.321140 -70.667290 48 1
-41.013817 311.136080 -36.789940 26 1
-31.082199 199.553650 -23.092405 0 0
49.135605 349.929200 -3.565480 28 1
79.974854 238.624890 -37.314293 49 1
-2.353256 170.881380 -180.627200 23 1
59.894779 259.128230 2.079575 49 1
-39.525436 318.261410 -28.854824 26 1
67.062508 334.803500 -29.605816 14 1
-69.387070 211.191120 -132.354050 12 1
-4.621274 187.454350 -106.267550 0 0
65.171684 335.046420 7.128031 28 1
38.249542 137.701710 -40.209484 39 1
-5.196540 47.644165 5.426755 0 0
-38.340706 137.640690 -77.440636 0 0
0.104012 46.225182 -1.566908 0 0
-52.565483 266.207860 41.830307 20 1
-14.194976 166.364790 -156.776030 46 1
-15.341990 135.255100 -41.524994 0 0
3.965728 269.043060 46.444412 10 1
-8.063161 160.638670 -171.051410 45 1
-84.578362 203.097690 111.731280 31 1
-10.441867 47.708786 17.686171 0 0
57.592918 247.752760 -66.275604 48 1
38.492287 235.375820 68.846260 7 1
7.923192 170.036360 -25.390577 0 0
-42.181751 241.988040 -34.746807 0 0
-20.613262 201.909060 -134.087170 47 1
-9.115403 327.708130 -4.579560 0 0
-3.744856 103.637710 -65.171959 0 0
-55.100971 198.525700 32.472725 36 1
-20.039093 119.547370 -12.017343 0 0
64.494537 255.769820 -42.464031 49 1
67.838745 236.787030 -55.815144 48 1
23.490688 174.402510 -132.253050 27 1
8.264118 186.235840 -122.633000 46 1
-7.173408 120.618060 -3.452207 0 0
-34.632671 317.077510 31.708372 8 1
51.466408 360.332580 -4.352159 28 1
-79.957764 202.211290 104.083120 31 1
0.457451 61.093330 -30.210928 0 0
-71.094658 241.692690 74.919136 29 1
-3.230250 95.182251 -41.665897 0 0
-32.552094 188.258240 -144.985460 47 1
-56.726387 170.525770 19.421053 35 1
-52.929466 217.228740 56.341778 0 0
-40.927250 153.534130 4.512646 0 0
-49.772121 251.168670 45.487114 20 1
-30.811317 163.357270 -9.442487 0 0
-68.840546 203.687970 -51.124153 0 0
43.783707 334.474300 27.165621 13 1
59.184589 249.757510 -30.371750 49 1
-39.866901 195.202850 128.328310 30 1
-83.378143 293.937710 -30.912369 24 1
-28.261702 129.632770 34.600895 0 0
-76.535492 199.727570 -133.354420 12 1
-49.182785 184.899170 -71.059090 43 1
-37.704124 275.033360 79.024483 9 1
-45.156086 264.806490 -51.936428 0 0
-27.037348 153.268430 -25.098415 0 0
20.954447 140.844850 -132.033310 34 1
-53.782825 173.720150 -37.363400 0 0
-42.884029 168.635300 -94.756416 43 1
-45.495567 309.370670 -58.986652 22 1
-19.187458 131.609100 -29.280865 0 0
-23.665195 206.632400 -30.415926 0 0
-6.394840 59.782364 21.985018 0 0
-43.121376 298.755650 42.096672 8 1
-13.078132 165.729810 -42.245544 0 0
21.541945 193.427050 -124.930720 27 1
16.870571 160.017960 -124.085880 34 1
5.298229 151.036120 -10.416290 0 0
14.994158 333.807430 -60.693466 11 1
0.036367 227.621550 -12.367337 0 0
-20.104284 172.793430 -51.592033 0 0
-14.598316 204.960210 -132.699400 47 1
-57.294399 279.477450 3.543880 26 1
15.285918 331.634060 1.085027 0 0
23.673138 124.917400 -38.746315 39 1
-20.826588 139.554400 11.374218 0 0
40.002399 134.202730 -15.756957 39 1
27.026119 153.516690 -137.220110 34 1
-56.470348 222.219330 62.777985 0 0
18.998880 345.848510 -0.846186 13 1
-33.765911 145.035890 -58.953907 0 0
-84.299782 231.937130 51.878960 29 1
41.256985 172.978580 7.839864 42 1
-14.874271 165.882190 -34.740158 0 0
-4.444503 166.963810 -38.359043 0 0
-95.089264 227.025500 58.436623 29 1
-17.350155 317.764830 -58.669624 0 0
61.594891 241.392380 -79.691093 48 1
70.488281 332.986450 -3.048346 28 1
26.332264 341.272250 12.724196 13 1
-28.737160 174.446840 -184.299580 1 1
9.584642 179.108730 -151.798550 46 1
-35.546108 161.965350 36.400997 0 0
-86.567680 208.390750 106.663290 31 1
31.027805 354.866420 33.921028 3 1
-21.928862 132.157060 42.274509 0 0
4.795924 159.290890 -5.524068 0 0
-29.571762 358.099270 -72.967499 16 1
13.366303 336.126950 6.336222 0 0
2.100247 152.431470 -26.354980 0 0
-16.710634 165.821350 -14.472981 0 0
-25.988441 137.076540 -50.947987 0 0
-11.320605 183.991900 -34.825691 0 0
7.775363 244.356870 75.720436 6 1
25.254381 242.602980 67.077972 7 1
53.373981 332.829960 18.250103 13 1
-85.206841 199.551790 -35.026913 21 1
-6.671655 208.388150 -34.843788 0 0
-59.371136 226.862260 52.162975 0 0
-40.369038 311.315770 -17.701258 26 1
-32.342674 102.832650 -9.043399 0 0
-39.167526 166.265750 -8.625234 37 1
-29.101280 163.683140 -17.265886 0 0
-13.685053 47.386097 10.765215 0 0
32.878635 333.976530 -44.077644 11 1
8.940388 317.300750 -0.414703 0 0
-25.178476 359.565400 -102.573780 15 1
-13.327073 215.491070 1.483763 0 0
-42.244705 182.896820 -87.625259 43 1
23.954718 240.406160 99.823074 5 1
-58.923115 246.835330 50.811134 20 1
-10.137018 160.683170 -160.504390 45 1
57.655807 261.485320 -9.816161 49 1
-56.429523 288.918490 -57.015202 25 1
-21.974394 194.015170 -56.443279 0 0
-8.575149 25.820623 10.263214 0 0
-4.910457 133.515300 -68.996262 0 0
-14.164612 335.029850 -68.709793 16 1
-37.158875 129.032170 -31.011469 0 0
-9.046971 156.356950 1.700160 0 0
-62.420551 202.602580 -38.459236 0 0
13.113722 346.791080 -77.098633 17 1
-7.240748 340.095090 -69.608360 17 1
-30.347990 139.997100 3.373858 0 0
-18.438704 132.524770 -7.371491 0 0
-0.016818 154.318310 4.707154 0 0
-68.893959 263.452790 -33.358437 18 1
-75.490784 232.478260 58.391125 29 1
-34.082603 144.607620 8.150037 0 0
-39.608685 265.426910 33.060097 20 1
-16.726635 110.689390 5.852847 0 0
-65.564491 310.178680 -74.326126 19 1
-69.386887 215.647340 -13.575175 21 1
26.014828 348.304260 -66.217201 17 1
-9.848792 250.375560 -9.857777 0 0
-48.144463 202.817780 -62.729710 0 0
-50.197140 236.292470 -130.723190 12 1
59.793777 341.875340 -1.045106 28 1
-2.708531 198.392490 -3.581262 0 0
-10.109359 185.223240 -28.137463 0 0
73.513840 333.765810 -24.381729 14 1
61.227974 332.064060 -38.159790 14 1
-43.621788 204.190830 31.878782 36 1
-7.723889 343.942350 -87.152069 17 1
-56.281906 208.902590 -14.855775 0 0
-40.724926 193.598880 -48.633503 0 0
-91.318306 166.246980 29.699535 32 1
-11.347088 120.667390 -56.635918 0 0
-5.932460 196.240940 -133.291750 47 1
-43.012142 229.077770 -31.037432 0 0
61.096596 158.563960 -7.436937 2 1
-82.412079 212.692000 -13.613496 21 1
9.091153 120.174160 -4.307558 42 1
-32.956532 206.613750 -164.016540 1 1
11.334762 336.333620 -83.445366 17 1
-21.886358 259.394410 16.528355 0 0
-37.260281 164.190260 -31.340643 0 0
-46.358509 209.767330 -53.757881 0 0
-62.203102 204.357730 -51.676727 0 0
-46.755924 295.605040 34.933861 8 1
-45.244732 128.140750 -32.372158 0 0
-104.893130 284.261660 -24.395767 24 1
-5.541854 188.933350 -134.886750 46 1
-2.049151 80.772728 -6.568088 0 0
59.793121 167.973130 -23.161367 2 1
-11.827885 154.399320 -21.813925 0 0
-59.282440 255.082370 24.643026 20 1
-81.388176 278.486540 -59.184017 25 1
-8.582515 328.221100 -16.879969 0 0
-18.661217 297.391940 -47.778717 0 0
35.800648 123.326300 -51.716072 39 1
-27.619493 147.876250 -59.536053 0 0
8.842247 198.420550 -135.635300 47 1
36.458900 328.852510 -34.134888 11 1
-28.815407 316.628480 -20.807022 26 1
3.641441 86.998314 -37.750992 0 0
6.040303 160.484600 -16.976334 0 0
-24.560644 220.541640 -114.564950 0 0
0.342707 185.389850 -113.725720 0 0
-31.746555 155.750000 -19.171764 0 0
1.665632 187.157640 -160.022720 23 1
-56.669453 293.816530 -2.755115 26 1
58.602814 258.466160 -59.719231 48 1
-10.851300 160.878540 -180.473800 23 1
-75.096458 262.365630 -35.794552 18 1
8.586800 145.329930 -9.181601 0 0
-10.606820 182.603940 -175.951780 23 1
-8.848034 266.815190 -19.174473 0 0
-5.003902 28.543613 4.536127 0 0
-27.612228 347.509120 -83.448013 16 1
-0.766397 44.397785 -14.582672 0 0
17.814640 140.188280 -42.906414 39 1
70.179436 253.089290 -2.625888 49 1
-13.643997 339.582060 -4.952773 0 0
-11.818061 278.606570 -8.306858 0 0
-23.211445 219.634610 -125.971740 0 0
63.753777 240.639180 -59.396553 48 1
14.223028 359.537990 32.190659 3 1
-90.762077 229.477110 70.334038 29 1
-25.697128 274.896880 39.909538 20 1
-77.529144 209.051880 77.185257 31 1
34.338783 362.704250 30.006927 3 1
-50.584267 224.212980 -43.017601 38 1
-81.094589 203.068700 96.533501 31 1
-33.960022 96.603729 27.572598 0 0
-63.844238 196.672760 -145.887040 12 1
-13.404204 142.905820 -26.837563 0 0
-5.949705 13.024843 -2.275905 0 0
-41.098125 204.864610 110.892060 30 1
-33.056690 186.394730 -134.071500 47 1
34.273434 339.062500 20.209316 13 1
-15.370308 64.189972 16.765688 0 0
2.986230 231.780780 99.610504 6 1
-14.456125 77.118629 10.100307 0 0
55.182854 246.414120 -87.495956 48 1
-2.526745 225.384350 -21.940098 0 0
6.659954 180.832870 -178.239620 23 1
-35.969193 277.294400 25.312004 20 1
-23.834042 83.559128 15.481936 0 0
0.348714 358.199580 -67.588356 17 1
-63.518871 172.924700 -49.404743 44 1
-2.325520 66.296593 1.441372 40 1
-3.752843 179.472310 -22.811172 0 0
49.940365 144.972380 -3.446374 2 1
-21.764397 200.532680 -32.666435 0 0
44.548038 235.800840 -35.003506 0 0
-49.273079 215.533580 121.079980 30 1
-19.490427 209.392460 -35.106255 0 0
-29.120569 170.260280 -1.505920 0 0
-76.200439 208.187610 -39.503506 21 1
-35.861523 297.234220 47.899647 8 1
40.876045 327.129910 -51.649879 11 1
-40.187458 168.881200 -144.692640 46 1
-45.108421 191.030790 73.886917 0 0
23.880207 179.727340 -136.321120 27 1
-39.515228 226.752760 -133.019710 12 1
17.102800 175.206070 -145.017350 27 1
-85.164314 167.616760 31.662992 32 1
-22.349762 347.748840 -25.864637 0 0
-41.311543 198.831620 -36.782520 0 0
-1.020911 158.734120 -15.263348 0 0
12.867568 350.127140 52.693523 3 1
-72.661575 205.286360 -63.150059 38 1
-78.499176 244.095670 62.809830 29 1
-85.892097 218.138400 -17.899990 21 1
24.689714 128.779050 -45.726982 39 1
-74.843941 163.408080 26.958302 32 1
35.533314 355.542360 14.690253 28 1
-80.403915 206.727940 -47.408474 21 1
-13.653935 171.212300 -132.909760 46 1
-83.972084 184.701430 103.925310 31 1
-96.797966 292.773440 -50.254093 24 1
-51.053844 214.332760 -144.972610 12 1
-43.512779 206.040100 -35.509529 0 0
-9.594823 279.751370 39.017021 10 1
-97.062416 289.329680 -22.442993 24 1
-83.927673 227.486530 77.638893 29 1
-71.492142 296.300050 -27.558760 26 1
2.262507 165.149400 -140.362370 34 1
-51.512703 210.115480 43.349197 0 0
54.282112 353.336730 21.418835 28 1
-62.444912 261.787380 17.230026 20 1
-85.148331 198.468140 77.976494 31 1
79.078499 326.789860 -15.032261 14 1
-33.004139 325.285740 2.109375 0 0
49.809502 167.019240 -29.370571 2 1
-56.713394 161.562090 19.403194 35 1
-8.511703 239.229350 -10.838995 0 0
0.768232 227.107330 55.980373 0 0
-77.102890 312.108000 -71.975967 19 1
68.316139 258.085210 -14.301237 49 1
-37.907150 321.420170 -1.274743 26 1
-61.169220 211.184880 -142.623950 12 1
-38.585426 353.533360 -79.987198 16 1
-21.819345 323.554440 0.424471 0 0
2.362164 275.368440 48.135715 10 1
-62.269852 296.297580 -57.431477 25 1
-2.780091 125.851450 -49.897583 0 0
-59.918728 230.102620 67.070412 31 1
34.574570 151.029600 -133.774700 27 1
6.257795 138.037890 -39.798271 0 0
41.503082 131.523850 -33.569145 39 1
-60.879246 325.844570 -68.644402 19 1
-23.246544 171.741240 -149.909710 46 1
20.539150 59.457302 -10.442615 41 1
-1.046720 67.237701 -25.804550 0 0
-22.630590 247.791030 12.117000 0 0
-14.402541 259.509280 -18.220543 0 0
-61.472050 193.743060 34.316601 36 1
-31.914484 183.433470 115.472070 30 1
-81.194183 217.308030 -27.059343 21 1
10.330587 62.631184 -13.564327 0 0
-2.416454 220.314500 -27.299746 0 0
68.844124 156.466420 -12.377383 2 1
-0.098488 96.070442 -8.150679 0 0
-4.177899 201.033330 -10.750279 0 0
13.877271 339.535980 -49.123383 11 1
60.004963 245.476330 -13.285965 49 1
-64.737007 226.406770 63.227150 29 1
-36.164028 215.393310 103.919700 30 1
63.819359 164.677640 -9.655212 2 1
-34.017956 161.313320 50.226513 0 0
-73.692772 201.030760 19.083282 36 1
-11.532700 196.494840 -3.071581 0 0
-48.890198 354.075160 -80.868103 16 1
-14.439664 204.256130 -1.116498 0 0
-40.185749 177.494320 -83.371964 43 1
-35.826820 153.387100 58.239380 0 0
58.600559 267.219330 -16.596207 49 1
7.105048 192.917560 -28.114658 0 0
-26.170586 278.925540 75.026009 9 1
13.177909 342.432500 -58.940136 11 1
-15.998945 279.486390 45.527584 10 1
-52.482254 203.909500 -44.432064 0 0
-10.609537 148.980610 -80.497643 0 0
26.227587 176.381710 -124.945610 27 1
34.700382 131.087300 -40.368744 39 1
3.011522 132.033940 -29.956417 0 0
17.342396 55.596149 -5.797772 41 1
-34.849720 289.750180 -31.915894 0 0
-20.100666 208.209030 -166.412860 1 1
6.275838 359.482510 45.808388 3 1
-62.234241 209.678360 -10.764828 36 1
23.521969 315.940000 -21.069969 0 0
-75.948769 211.783710 110.724660 31 1
49.292358 241.660050 -38.206238 0 0
33.907681 324.564420 -28.146339 11 1
-37.459545 205.686110 119.788040 30 1
-20.704037 176.871510 -41.196747 0 0
-59.040997 204.503020 -148.247470 12 1
-55.550343 208.526960 -62.566135 38 1
31.198103 136.021440 -29.714581 39 1
-47.909672 213.979190 -60.336838 38 1
1.819990 100.930300 -13.014874 42 1
60.676003 338.356690 -33.897270 14 1
-31.794996 134.562480 57.879879 0 0
-87.048241 164.445910 39.555870 32 1
-12.527683 140.825420 19.590784 0 0
-23.716976 163.986620 -45.156609 0 0
-87.484276 311.493870 -70.499405 19 1
-35.420612 179.442050 -55.487259 0 0
55.577309 162.965970 -32.465603 2 1
-26.027195 161.437680 -36.213017 0 0
71.880455 243.795240 -19.857664 49 1
-24.301731 347.122220 -2.816846 0 0
-55.560505 211.066740 111.955270 30 1
-85.142525 261.960390 -77.368706 25 1
5.720775 312.885830 3.215898 0 0
-80.985970 206.832520 1.948125 36 1
-54.505562 280.914670 -54.933174 0 0
42.991161 221.657790 59.954487 7 1
-79.409958 226.055130 63.134632 29 1
-94.494270 238.474620 63.790077 29 1
-34.748245 367.146510 -119.939030 15 1
-11.400660 277.707400 50.647369 10 1
-17.412270 185.075810 -30.648912 0 0
-41.049664 189.715350 55.538521 0 0
-2.341103 189.006840 -146.064290 47 1
-58.467979 343.445220 -95.558983 16 1
-63.199051 220.599270 97.958000 31 1
-13.477679 308.877930 -8.775584 0 0
-11.761338 134.824630 -33.720455 0 0
35.006168 362.498930 17.081463 28 1
43.719181 225.290920 108.685190 4 1
13.733397 264.360600 38.534973 10 1
-34.968922 308.361690 35.266987 8 1
-25.909878 334.097320 -10.809270 0 0
14.375390 272.063510 30.195303 10 1
-74.564194 199.542660 -60.603992 38 1
-90.877525 180.815980 91.551964 31 1
-21.583391 266.636350 18.862310 0 0
-80.613724 196.193330 93.327820 31 1
-14.667522 361.949010 -100.543460 15 1
73.287491 252.640880 -15.485686 49 1
-20.729954 245.911030 -16.672850 0 0
-59.442867 165.234510 35.150051 33 1
-88.239845 259.862820 -36.883327 18 1
-3.024561 278.603210 29.582447 10 1
-78.425285 213.618230 83.492592 31 1
-17.638948 194.005230 -34.514050 0 0
74.423332 241.303310 0.490383 49 1
23.733337 132.759320 -32.507820 39 1
7.009138 73.576218 -38.151409 0 0
-13.861956 156.575420 25.387985 0 0
28.406208 341.079190 4.107683 13 1
-65.296738 232.201050 94.416336 29 1
-34.645164 202.064610 -172.121890 1 1
7.829978 67.808372 1.823501 40 1
-26.643421 195.480740 -25.501657 0 0
64.220970 246.933210 -67.073463 48 1
-15.935558 65.845734 7.125429 0 0
2.981823 177.897020 -34.185677 0 0
-91.328606 201.587250 -34.785595 21 1
-53.545670 179.446080 -43.875748 0 0
-58.330582 356.823700 -78.598190 16 1
-78.778763 233.087220 77.099594 29 1
-41.356827 231.722260 -50.129002 0 0
-18.768108 218.608050 -57.045513 0 0
51.299934 150.749360 -6.441730 2 1
68.143150 246.549450 -54.654514 48 1
-13.469812 222.297560 -5.485204 0 0
-45.338135 229.492830 -132.413640 12 1
-36.492199 349.352230 -90.108490 16 1
8.358884 117.362010 -16.993376 42 1
-103.510330 193.046190 -29.434341 21 1
-79.621613 167.327160 44.027580 32 1
41.449619 325.080380 -40.334221 11 1
-21.186325 217.341580 -27.652241 0 0
47.504753 357.015200 29.779514 3 1
-25.805157 219.040740 -105.084390 0 0
-55.922234 304.150270 -41.361156 26 1
-61.876423 295.833860 -67.943367 25 1
-32.767387 192.710050 -129.402880 47 1
25.295349 130.697420 -20.294388 39 1
-88.682869 239.126910 75.155739 29 1
-1.885572 174.087070 -19.722279 0 0
-31.172560 281.268190 26.755331 20 1
-36.135193 113.567720 -7.940903 0 0
9.688491 363.894900 39.844254 3 1
55.347332 246.782530 -74.736176 48 1
62.286064 250.019580 -1.696596 49 1
-57.760597 238.781970 43.406845 20 1
39.024715 131.502910 -45.478077 39 1
-25.668606 154.010590 -2.830689 0 0
23.894995 364.720550 25.316118 3 1
-37.114483 167.185610 -38.034595 0 0
-7.952859 144.248580 -180.784710 45 1
-55.732452 306.455260 2.425798 26 1
-70.758644 319.450740 -56.263496 19 1
-39.720051 232.564300 -135.639920 12 1
52.094002 344.292820 -10.723347 28 1
-47.394577 212.030850 -6.167484 0 0
-1.739094 83.823608 -36.477879 0 0
-0.997387 76.093857 2.782875 40 1
-38.647785 318.486480 -65.726532 22 1
33.110622 238.959760 92.933472 5 1
-74.832924 268.640140 -80.952408 25 1
8.725772 240.997500 94.891365 6 1
-84.644379 202.148610 -40.894161 21 1
-30.344736 316.098660 -50.514393 22 1
-2.242785 4.866430 1.885620 0 0
36.109222 221.218510 114.363270 4 1
-23.775415 205.944730 -171.138350 1 1
-10.246234 282.514010 66.251450 9 1
-12.635884 132.022480 -59.626804 0 0
-23.811069 140.746670 34.758442 0 0
-15.152081 83.097137 29.084152 0 0
13.763592 127.474150 -17.773724 42 1
-6.002798 155.241850 -90.253937 0 0
-64.286362 207.351430 -42.242367 0 0
-84.283279 205.770570 87.766090 31 1
-76.264877 241.722180 69.146812 29 1
-14.851760 75.588707 -2.639957 0 0
-20.051756 344.885710 -84.313034 16 1
-51.830597 164.366030 -7.359311 37 1
-27.169588 133.876570 -15.534868 0 0
49.081352 354.678590 15.437095 28 1
-95.411819 224.791230 48.220665 29 1
-67.762985 289.344730 -48.593731 25 1
-39.192993 180.170010 -139.069810 47 1
-11.877003 30.826815 4.715388 0 0
-20.458078 164.598710 -9.443647 0 0
14.174318 182.548400 -129.770940 46 1
-109.881490 277.984190 -36.220825 24 1
-26.960434 266.157780 88.334717 9 1
-6.823963 108.946100 -0.468247 0 0
25.200441 141.325680 -27.392885 39 1
-9.779847 278.089230 -14.302150 0 0
-7.308104 120.394060 -14.621356 0 0
-60.413528 301.637420 -26.581846 26 1
-112.335490 272.853910 -25.850922 24 1
72.968544 231.830440 -54.504002 48 1
-47.415718 307.473750 24.356215 8 1
-39.609493 124.957050 -2.957531 0 0
-38.152973 303.176270 31.729563 8 1
-46.738377 165.133150 61.244534 33 1
-12.679219 211.742140 -42.714485 0 0
37.183044 132.894290 -28.885466 39 1
7.339510 152.095110 -167.799480 45 1
-1.398162 195.534470 -90.040634 0 0
20.659878 331.229980 -54.793144 11 1
64.399612 220.946500 -77.552048 48 1
-35.119770 289.585820 47.337631 8 1
-20.422277 228.338840 -33.107265 0 0
-80.170815 215.588200 77.666283 29 1
-29.646341 157.231810 33.935162 0 0
-9.714828 343.898070 -81.169472 17 1
2.496332 244.435880 79.296494 6 1
-60.355255 216.873830 -58.588364 38 1
-49.342094 312.201870 -43.870472 26 1
-55.580120 208.818070 -140.124070 12 1
-7.569031 149.489700 -187.979950 45 1
27.591976 55.568607 -0.450254 41 1
-6.997536 188.587540 -154.199600 23 1
-75.329865 216.607040 -24.885340 21 1
-34.160511 293.319920 52.586945 8 1
57.939102 262.914120 -24.785673 49 1
32.736801 335.820040 -4.430410 13 1
-4.514934 74.634171 -5.192595 0 0
-111.150300 226.121170 61.676445 29 1
-12.735281 204.262590 -173.025070 1 1
-83.364563 259.636810 -31.633360 18 1
-78.390572 299.178440 -34.219322 24 1
-13.231647 311.973690 3.344293 0 0
11.002827 192.516240 -125.582470 46 1
-23.703650 64.628654 13.349017 0 0
-26.839252 343.324370 -95.006340 16 1
-10.838751 188.998980 -184.793610 1 1
-51.422955 289.256990 -62.193504 0 0
67.620331 240.099350 -9.044386 49 1
-83.969246 294.722560 -21.095009 24 1
46.416092 226.082410 62.848110 7 1
9.192271 349.537350 60.754501 3 1
-5.144117 163.441530 -149.909870 46 1
2.190753 174.799390 -153.033540 46 1
-28.701149 188.175670 46.256527 0 0
-8.139116 104.055900 -39.883381 0 0
-18.428061 80.281944 6.378520 0 0
-11.150076 72.928932 6.643178 0 0
-0.143778 150.401610 -183.205340 45 1
41.908176 172.578920 -7.694783 2 1
-21.705034 171.464950 -0.949921 0 0
-62.693474 204.056050 -64.458923 38 1
-20.564413 183.814560 -135.607510 46 1
-31.921999 197.376390 -135.320650 47 1
-26.375912 173.430510 -53.288490 0 0
-28.072405 366.641140 -112.581440 15 1
26.031242 326.516420 -60.016151 11 1
-29.804174 287.772890 53.603306 8 1
-25.223843 180.983370 57.407089 0 0
-82.499336 213.239900 114.913790 31 1
-83.623573 291.369050 -49.256241 24 1
-88.971344 194.865420 -27.035862 21 1
-53.924057 260.520420 -40.909092 18 1
-50.298180 171.658860 40.149261 33 1
-87.805611 186.885700 96.002808 31 1
25.552872 237.049930 109.080780 5 1
26.498306 322.834110 -26.639780 0 0
8.335123 178.320660 -142.168790 46 1
-49.944431 196.851070 -33.040916 0 0
-5.577889 170.112090 1.889314 0 0
-48.160694 278.733700 -55.966827 0 0
-9.897676 224.907150 -31.027447 0 0
8.942041 137.093250 14.385262 0 0
26.127478 349.477630 43.340149 3 1
35.498013 157.034390 -131.625730 27 1
1.311982 140.223850 1.294809 0 0
32.844723 132.331620 -51.061646 39 1
-3.912343 86.264267 -29.924168 0 0
63.972866 251.957310 6.889353 49 1
-54.995789 312.099730 -58.531593 22 1
-14.207385 82.154213 16.708664 0 0
-3.844540 154.027110 -19.877804 0 0
-6.290616 274.025240 40.840939 10 1
-1.629734 186.993520 -75.390892 0 0
-86.349976 158.228290 39.472679 32 1
-38.328735 195.316350 43.127762 0 0
-1.035656 79.111290 -32.353802 0 0
28.070284 162.743960 -139.731990 27 1
-57.640484 181.946930 -64.536484 44 1
68.785080 326.969020 -19.660986 28 1
-37.648647 188.753620 -130.452580 47 1
-9.846893 196.455830 -16.569548 0 0
22.856821 185.304810 -132.115810 27 1
-22.815231 194.338200 -179.259550 1 1
-53.529911 183.531130 -59.266666 44 1
-53.641285 173.827900 -56.089077 44 1
-15.670069 176.669280 -17.595051 0 0
-2.639091 178.279240 -148.843400 46 1
-74.871002 163.008910 5.009003 35 1
-46.159206 273.923680 17.990839 20 1
-51.906380 221.103970 -55.531048 38 1
14.414848 179.105560 -138.668580 46 1
6.452133 279.764280 22.031187 10 1
-2.794450 161.221420 -36.517910 0 0
-37.702705 211.716980 -16.876532 0 0
-3.260573 53.471745 6.386873 0 0
-9.347074 318.298430 -17.686239 0 0
-22.837782 161.146910 -155.565490 46 1
-31.114090 217.284730 -134.523670 12 1
-15.530802 143.175920 -37.899998 0 0
-4.252850 201.262950 -138.275150 47 1
-55.705761 313.878300 -7.799202 26 1
-7.717494 28.994814 -5.347805 0 0
-37.822865 176.017440 -148.153550 47 1
41.224487 337.945590 19.050270 13 1
-85.858940 237.595720 69.855171 29 1
29.879282 334.874510 -31.247986 11 1
53.612961 165.690250 0.234501 2 1
-49.475922 200.472930 -56.237095 0 0
-28.987907 96.462242 -3.645863 0 0
-16.008455 298.410710 -14.887005 0 0
-73.028244 284.205690 -73.376839 25 1
-66.300011 319.598540 -60.844810 19 1
47.557774 334.564700 -15.510098 13 1
-10.630634 179.665470 -122.151840 46 1
38.338810 227.330340 -36.158360 0 0
-51.295090 174.646530 -86.285065 43 1
-71.785187 261.120910 -45.163418 18 1
-33.679344 258.962280 -39.134903 0 0
-47.091831 214.442250 103.899370 30 1
-5.092635 100.788610 -44.208103 0 0
-33.210846 223.114350 -132.964890 12 1
-2.052118 178.767290 -115.171380 0 0
20.683702 120.470930 -41.809937 39 1
26.051386 169.481170 -143.117650 27 1
-48.446548 180.953540 -77.273476 43 1
10.464327 112.752010 -3.554702 42 1
64.703545 232.198750 -80.970291 48 1
-1.360112 140.608670 24.760445 0 0
-17.601570 349.734410 -75.563469 16 1
20.512835 160.652190 -144.254150 34 1
-41.817436 207.864670 -144.196430 12 1
-36.070877 185.550050 -56.016342 0 0
-6.474380 148.736510 -85.415253 0 0
-77.319969 154.120990 5.200428 35 1
25.534817 327.628480 -46.911850 11 1
-15.677631 88.957588 30.911562 0 0
-23.398287 129.812500 -11.956343 0 0
3.241029 154.361340 -2.179635 0 0
50.632305 252.519440 -80.964638 48 1
69.874779 246.073210 11.208017 49 1
-69.170517 211.763380 100.044250 31 1
12.761975 160.657040 -129.867540 34 1
-37.806702 213.485110 -147.108470 12 1
24.870348 353.673890 38.673420 3 1
3.536062 141.168150 -17.746027 0 0
25.377838 154.148680 -123.895730 34 1
-58.721256 226.819700 92.350060 31 1
42.908928 129.007370 -21.708818 39 1
-44.712814 290.911830 46.687908 8 1
-31.319298 326.067930 -13.287094 0 0
-78.544388 290.518620 -41.914696 26 1
4.300647 34.893204 -0.209455 0 0
-78.368828 210.539490 96.748619 31 1
-32.681549 355.365230 -80.014053 16 1
-16.410278 152.735890 0.428306 0 0
-29.542757 202.096630 -36.157852 0 0
-0.642360 274.104310 38.296432 10 1
-16.005648 212.542270 -138.654020 12 1
57.093204 351.757450 0.328167 28 1
5.862777 148.487870 2.298715 0 0
-30.061680 207.116260 -169.405200 1 1
-86.644806 269.468660 -73.154320 25 1
-6.859781 189.294160 -166.136170 23 1
-50.169579 232.912780 -50.238033 38 1
-81.469933 284.854610 -58.642860 25 1
-24.830894 100.627390 41.492584 0 0
-52.345016 343.755740 -95.691742 16 1
13.894613 147.111820 -5.198074 0 0
-16.043919 208.201420 -21.899752 0 0
-16.772999 304.046230 -48.246384 0 0
-2.428880 98.449821 -1.378497 0 0
-53.993134 215.420650 49.203949 0 0
2.585530 33.459629 -17.005739 0 0
-30.416134 163.011920 -185.982600 1 1
-15.869192 354.881130 -89.755592 15 1
14.730972 338.742890 -65.546432 11 1
-42.817532 249.255690 -51.982708 0 0
-30.354542 169.786500 -142.695070 46 1
-8.472676 231.963360 -10.139712 0 0
-83.339188 275.049870 -63.900887 25 1
41.615921 327.969360 -16.100353 13 1
-26.321693 198.221470 -175.889500 1 1
-8.434622 127.510230 -24.583860 0 0
42.080856 317.532230 -49.921238 11 1
23.612980 354.709750 17.385864 3 1
-54.282894 320.900270 -64.640671 19 1
2.537068 179.000180 -122.408460 0 0
-13.347436 117.347850 -48.187283 0 0
-32.169743 362.426880 -110.154900 15 1
31.058468 240.741520 76.955948 7 1
22.771837 328.503080 -67.223396 11 1
-29.562489 155.451340 -10.493574 0 0
-25.378998 150.900470 -52.003666 0 0
-64.018661 300.209110 -6.600670 26 1
-38.728825 238.972550 -53.873241 0 0
33.103523 141.929410 -44.124447 39 1
54.333828 171.231920 -24.289684 2 1
31.191067 356.561130 43.474785 3 1
28.506155 129.697270 -35.462753 39 1
-77.921227 320.517820 -59.805092 19 1
-62.099197 287.138490 -49.159405 25 1
-34.285324 194.311390 110.665410 30 1
-57.666008 223.091190 -48.327019 38 1
-15.666011 66.164795 0.966082 0 0
-19.767685 79.037170 27.756645 0 0
-70.110107 221.377370 57.472878 29 1
-25.994484 138.053270 46.877209 0 0
9.887438 191.675140 -84.124275 0 0
-55.885853 266.611630 23.402710 20 1
8.620562 176.335340 -25.670988 0 0
-71.240021 309.481350 -76.438560 19 1
-61.748676 209.720890 -30.695614 0 0
27.879025 334.963070 -25.218555 11 1
-53.396957 198.414020 81.399048 0 0
-18.308508 210.758450 -58.973644 0 0
57.881138 243.817320 -23.014256 49 1
-93.809395 207.983960 -31.642530 21 1
76.552742 226.480870 -62.725998 48 1
-20.303946 299.834230 -19.941025 0 0
-56.289616 202.791600 -38.116695 0 0
34.178520 329.635160 -62.163773 11 1
-38.113834 148.197100 3.505938 0 0
60.624119 339.551790 11.372014 28 1
21.293495 362.319430 36.584103 3 1
-62.874054 212.244520 -22.740818 36 1
-39.781635 247.090970 -37.751900 0 0
-8.953021 81.104004 -6.340703 0 0
-6.031256 296.461270 -2.687557 0 0
35.378693 334.218540 -16.094507 13 1
17.996447 333.888400 -74.176376 17 1
-86.431000 228.849200 61.063210 29 1
-52.177914 311.906920 -28.109030 26 1
-66.447784 206.799840 115.128070 30 1
40.284317 229.515490 117.240730 4 1
38.746979 325.630160 -62.317955 11 1
35.438519 323.603270 -43.377747 11 1
51.311916 353.654510 6.103567 28 1
-23.251034 146.786930 -9.672435 0 0
73.418816 336.553770 -15.844416 14 1
-25.267464 139.992140 -15.104683 0 0
-13.245101 190.633420 -161.265490 23 1
-13.078480 203.365620 -41.551723 0 0
-63.917122 233.081950 71.000557 29 1
-28.261850 144.466230 -41.505169 0 0
-24.555182 164.459880 -149.484330 46 1
15.867143 354.690220 -61.882248 17 1
-23.505636 197.585240 -15.698596 0 0
44.511902 164.571640 5.844975 42 1
-74.810577 225.230850 80.067848 29 1
-5.454956 267.904820 53.707787 10 1
-108.452160 280.261570 -13.230969 24 1
7.863191 71.304863 -28.836384 0 0
-66.757080 214.170470 -137.625350 12 1
-22.909126 172.155110 -16.933451 0 0
6.730037 272.185030 -17.162916 0 0
-43.740814 304.202000 -33.266479 26 1
-43.866692 207.842760 -58.921448 0 0
-18.750210 100.642290 -16.884985 0 0
23.712753 336.041630 -6.141299 13 1
0.681268 162.316680 -180.196560 23 1
-68.678734 221.894500 -133.801100 12 1
-21.647091 201.385410 -50.559544 0 0
23.483147 145.924910 -30.912579 39 1
-83.644974 156.614560 12.261953 35 1
-66.501457 287.211790 2.759522 26 1
33.976974 318.133450 -61.789463 11 1
-35.826710 123.812140 -10.885813 0 0
84.553047 238.802150 -13.301320 49 1
-59.179020 341.026340 -89.831940 16 1
-12.388608 184.329090 -8.181884 0 0
0.955024 192.909160 -139.869550 47 1
-27.331650 188.598080 -183.805690 1 1
-76.447105 223.203430 90.426712 31 1
-3.183416 256.352940 -16.217270 0 0
-2.890767 189.151410 -100.661250 0 0
-34.828423 204.405980 106.693950 30 1
44.072216 153.495640 -9.462801 2 1
23.504776 344.400180 -46.140247 11 1
41.540886 169.876170 2.345455 42 1
-31.175879 193.417760 -37.210644 0 0
37.884491 360.174410 34.380684 3 1
64.050888 343.034420 15.622845 28 1
-23.025307 141.227100 -0.231755 0 0
20.657778 131.112850 -50.098110 39 1
24.017979 164.166440 -127.284770 34 1
-10.244400 140.234920 -60.906792 0 0
-71.441284 233.598420 63.584103 29 1
-0.429655 241.930480 87.387306 6 1
-30.604017 175.889420 -140.334410 46 1
-13.484479 283.893980 -13.729768 0 0
