12.743796 64.508682 -16.442345 2 1
35.552967 61.940979 15.070658 5 1
-27.578392 48.948975 -44.302742 12 1
-55.946175 42.237648 23.400408 1 1
-6.635618 63.049232 -37.426685 13 1
-25.568043 46.834827 -35.719189 12 1
-16.159714 53.855179 -65.338585 14 1
-22.869072 51.666145 33.166683 9 1
39.408188 67.161514 1.270487 5 1
14.705347 70.298698 8.489747 4 1
6.737584 44.501614 -54.210270 13 1
-35.074619 45.455959 26.205547 9 1
-40.640533 42.410839 -34.498657 12 1
-28.452702 61.830074 10.210261 7 1
-40.847260 49.799168 -0.424202 10 1
4.155264 68.464348 -10.571032 2 1
-38.895069 48.694328 2.916325 10 1
-23.046103 9.701356 -13.812086 3 1
34.074833 69.655678 5.052938 5 1
-50.192806 49.076767 29.529860 1 1
-15.842188 66.066704 -43.858036 11 1
-43.150528 47.369175 29.550375 9 1
-35.372879 50.116753 4.826332 10 1
-11.444351 66.341606 -29.662334 11 1
-29.541683 66.623825 -8.641420 8 1
17.459545 13.997535 6.443319 6 1
-35.693981 49.728580 -44.990078 12 1
-25.548767 53.058262 -61.410034 14 1
1.433391 16.539841 14.880614 6 1
-5.840997 52.482006 31.657097 4 1
-39.322578 46.904175 -36.021168 12 1
-36.166973 55.870918 12.132206 10 1
-39.579479 54.450523 -18.466673 8 1
-19.222427 12.715036 -14.548000 3 1
17.117697 12.863938 10.856434 6 1
-40.087372 60.164024 -4.289979 8 1
14.398540 59.601341 20.406965 4 1
11.607029 64.875374 -2.517089 2 1
32.960381 52.645252 -13.173466 2 1
-2.528293 64.527161 18.653053 4 1
-2.607444 59.246395 -47.922626 13 1
-7.310146 20.199324 -7.453016 0 0
-40.810947 49.176804 -10.710970 8 1
-2.550440 54.175545 -2.946347 0 0
30.610289 71.504181 8.456342 5 1
-10.680953 19.549383 -5.328457 3 1
-28.284138 49.054108 -41.993370 12 1
-39.942680 50.607887 5.692452 10 1
-39.263756 45.583405 -40.820766 12 1
-38.783764 51.938519 -8.835823 8 1
2.002530 49.819317 -58.295528 13 1
-18.921007 14.715075 -18.510799 3 1
-49.064728 45.384323 -6.916883 10 1
32.148388 43.923061 22.805902 5 1
-20.064632 51.638695 -66.098228 14 1
-8.248634 58.098907 -35.504261 0 0
24.247753 60.325005 -8.284540 2 1
-1.222064 41.743313 -0.829881 0 0
-5.123223 66.349937 -8.567450 0 0
-29.389496 59.571609 -37.897430 12 1
-36.288551 60.717438 -18.996672 8 1
-11.917254 71.765251 -19.780420 11 1
32.326656 45.711983 18.732878 5 1
-0.384417 32.892002 -1.408544 0 0
24.667877 67.551727 21.884481 5 1
-15.170943 15.915055 6.567185 3 1
-25.619616 44.100849 35.637302 9 1
14.070095 13.014648 17.674417 6 1
25.762772 47.736176 -24.529402 2 1
-11.785036 69.916809 -13.962337 11 1
16.391396 70.724037 -13.933358 2 1
10.711724 71.354446 -18.295996 2 1
-50.156422 45.913120 0.672669 10 1
31.591320 48.330578 -18.364168 2 1
-29.916466 52.938923 26.330227 9 1
-8.121201 69.948448 19.736835 4 1
21.802402 54.378757 -17.677675 2 1
-14.773863 16.237770 -17.887100 3 1
-0.124274 48.039440 -4.738189 0 0
-11.475747 52.955784 -67.512840 14 1
30.933254 76.816490 3.230226 5 1
36.415581 66.344666 10.946506 5 1
28.496120 62.405170 -14.865049 2 1
17.897209 62.379726 -24.982527 2 1
-41.865082 56.583847 21.174192 1 1
0.376143 63.883728 -36.515308 13 1
-7.164436 47.254566 -15.484757 0 0
-28.329077 67.372749 -4.583952 8 1
-9.240698 59.975079 -43.729874 13 1
-1.050021 56.714104 -3.684259 0 0
-4.309662 57.589512 27.655590 4 1
8.953713 73.258018 -16.836603 2 1
-35.328262 58.727200 -3.034630 8 1
10.085444 66.997894 -20.317865 2 1
0.319413 49.750774 -60.859623 13 1
-28.898579 48.046989 -65.889458 14 1
3.685686 68.239746 -3.512387 2 1
-33.094219 63.629551 -3.846848 8 1
-18.917641 63.197906 -1.946109 7 1
6.080769 15.370253 11.421222 6 1
39.586060 44.562599 9.878488 5 1
-29.581217 49.251637 -46.073200 12 1
31.413761 65.871811 18.303337 5 1
-4.957988 41.636101 -0.380413 0 0
-44.389511 51.045910 -10.260711 8 1
-11.781921 19.150364 0.945997 3 1
-10.661201 69.510254 -22.062637 11 1
-23.131922 43.071835 -70.158119 14 1
-16.718311 70.429695 -11.323650 11 1
2.398463 59.178326 2.493802 2 1
-18.664011 46.601315 -70.883812 14 1
-45.334538 52.555832 3.425430 10 1
7.166440 60.788033 15.043027 4 1
23.505871 63.725330 -1.015767 2 1
0.258019 59.763168 -45.270748 13 1
15.688812 67.409485 18.912605 4 1
-21.487669 65.736847 22.252140 7 1
-22.550138 48.820648 -65.903320 14 1
13.888322 57.180138 24.283274 4 1
-37.839962 46.377804 22.922125 9 1
-2.529706 60.958595 -42.029850 13 1
-31.038088 47.357018 31.813494 9 1
-35.202110 52.869934 -41.441486 12 1
-19.761946 12.401161 0.762322 3 1
-17.911095 62.011517 -50.522884 14 1
-12.247347 72.277176 -16.852018 11 1
18.564741 12.769054 8.432152 6 1
28.126932 51.227711 -17.223234 2 1
-29.761396 65.322166 7.300089 7 1
3.935297 13.259464 18.258360 6 1
-45.716671 48.320793 -11.164594 8 1
7.597604 70.544975 19.744095 4 1
-38.281979 49.128624 -34.685627 12 1
-16.406294 70.308662 -4.900487 0 0
-35.921318 37.748444 35.938637 9 1
-30.366177 49.176811 -37.069408 12 1
-32.287231 64.238983 -11.770625 8 1
21.697824 49.899208 -25.601326 2 1
-46.777340 45.893269 -16.175125 8 1
10.477709 50.799957 30.028526 4 1
1.336304 76.747162 12.082601 4 1
20.767956 67.790115 11.972003 4 1
33.585396 50.506229 16.687202 5 1
-26.038054 58.779217 -49.048862 12 1
1.673133 60.982468 -42.596977 13 1
-9.706546 58.935684 -46.014759 13 1
31.801956 46.472637 23.204439 5 1
-3.132119 64.747719 22.440565 4 1
-9.750511 75.146660 -17.162508 11 1
11.167573 60.392483 13.377340 4 1
20.095324 61.026230 -23.295511 2 1
-54.817799 39.726154 24.753567 1 1
7.036725 63.937107 23.165169 4 1
-0.073412 37.583149 -1.470750 0 0
19.641968 53.718513 -25.464798 2 1
-3.125883 7.315877 -2.803539 0 0
-1.473061 54.894310 -54.298340 13 1
-52.649956 47.367451 18.800974 1 1
-17.204737 16.094931 -16.901106 3 1
-34.185181 51.480850 9.579971 10 1
7.564613 48.451492 34.684574 4 1
-40.847271 39.237934 -43.633236 12 1
-3.140743 51.651833 28.973965 4 1
-4.077076 18.886892 0.376203 0 0
-9.032270 20.463497 -9.026262 3 1
-29.072947 56.504902 26.371889 9 1
-19.101313 58.578823 1.772220 7 1
-26.993843 51.860401 -64.099709 14 1
-35.596508 46.154621 -40.967712 12 1
-5.520842 17.342308 -1.268031 0 0
18.500702 56.459202 -18.965427 2 1
-4.956514 45.616760 -14.986274 0 0
-4.733691 60.903664 -40.739437 13 1
-49.613041 47.746239 2.693376 10 1
31.001562 70.379784 14.934360 5 1
-8.943106 67.463120 -39.595066 13 1
-15.518487 71.933998 7.278549 7 1
8.384752 51.337715 25.487871 4 1
32.046349 59.689548 -8.355012 2 1
-9.417677 64.763977 -9.227746 0 0
16.687613 15.848813 3.215238 6 1
-51.118713 43.758575 -6.203613 10 1
32.617001 59.881416 -10.922293 2 1
26.118280 62.479279 25.763916 5 1
3.688575 65.900482 3.292295 4 1
-29.829163 59.661415 -35.102558 12 1
3.086409 62.735561 6.992198 4 1
-33.481625 54.704258 -29.474667 12 1
-12.638274 63.119045 -49.181168 13 1
-4.301124 23.755356 -1.434873 0 0
-31.657887 57.993549 -10.888866 8 1
-30.483660 63.353374 12.975808 7 1
0.698002 57.722397 22.703508 4 1
29.487392 49.021450 -20.372126 2 1
-14.412675 61.220497 -35.123539 0 0
-3.496771 55.663712 -47.208458 13 1
23.950459 67.527870 -13.375691 2 1
-19.219872 13.605129 4.467154 3 1
-12.991119 54.998119 -40.598740 0 0
24.042578 55.683643 12.801044 4 1
1.817657 58.986034 20.804653 4 1
25.650822 53.374596 -15.097095 2 1
-35.575581 38.939171 31.327381 9 1
29.785183 62.103577 -2.437738 4 1
24.695662 52.505524 -19.508558 2 1
4.933733 59.827175 1.993062 2 1
29.206469 63.416729 -10.426304 2 1
4.592382 18.576401 1.418072 6 1
-23.331692 52.419796 -64.496422 14 1
-11.007499 68.096405 -25.597437 11 1
-27.718454 53.152283 11.106540 0 0
-25.998606 62.274055 -31.972532 12 1
11.474551 67.477310 -24.474379 2 1
-12.860432 20.005287 -17.732807 3 1
-19.134754 69.189896 -21.709724 11 1
-12.018326 58.482273 -54.622128 13 1
-26.302147 68.438759 -10.709229 8 1
-28.846264 64.971642 -5.733784 8 1
-36.829201 56.821808 -19.544603 8 1
-14.549538 60.123047 -60.054871 14 1
-8.553614 62.170238 -48.341003 13 1
-11.817969 61.007843 -52.626266 13 1
-2.128566 47.546364 34.505894 4 1
-5.497075 65.146393 -37.346039 13 1
2.324741 50.905193 -49.733669 13 1
-16.637630 68.336952 8.845121 7 1
-17.047413 56.906239 -61.828926 14 1
-27.702860 51.648994 -46.853188 12 1
-32.857597 56.698750 -0.664959 10 1
-15.006443 45.767460 -72.688637 14 1
11.060738 21.751116 -1.849368 6 1
40.854126 61.057613 0.688399 5 1
18.037359 67.313988 12.050388 4 1
-1.988243 57.665756 27.414167 4 1
4.308141 48.184479 -55.504013 13 1
-8.883775 63.862968 -45.852116 13 1
-49.534039 52.748734 20.012131 1 1
22.932846 58.306541 -11.159728 2 1
-23.716034 63.876450 -35.223568 12 1
34.056423 66.792023 14.828091 5 1
-19.864981 48.182701 6.919787 0 0
36.826637 51.464867 12.796906 5 1
-19.792727 70.071556 -1.871742 7 1
27.733498 66.254158 -7.207198 2 1
-23.524618 47.470436 -68.773804 14 1
-11.721861 61.169750 -40.720448 13 1
16.800413 63.633930 13.969733 4 1
-5.233450 66.196571 -40.047794 13 1
10.024857 66.171188 -9.377996 2 1
-53.888714 40.426304 28.180447 1 1
17.735062 59.922688 -27.344082 2 1
18.007462 77.021362 4.656363 2 1
-18.521799 60.702816 -57.139000 14 1
-26.582747 61.047466 -41.139244 12 1
15.279259 17.541082 5.416941 6 1
0.905464 63.336498 1.018824 2 1
11.000943 74.858597 11.417720 4 1
10.739205 77.828644 -4.636890 2 1
1.041403 73.836906 12.816186 4 1
32.491676 73.593407 3.632522 5 1
-48.699223 51.294037 27.498722 1 1
-2.549861 45.073879 -3.560110 0 0
-47.692039 47.174435 -6.150515 10 1
-40.569370 53.690807 18.581680 1 1
-15.151348 61.578712 -49.666500 13 1
-0.474874 64.078300 22.904360 4 1
8.518337 72.330894 -13.420620 2 1
-39.517258 36.904560 35.140827 9 1
-42.842010 53.299980 -13.678297 8 1
1.459213 62.882736 -39.673443 13 1
8.012434 49.017193 -49.527367 13 1
-30.775143 59.222614 24.644459 9 1
-33.439457 59.401951 -18.072838 8 1
-21.486490 12.331125 -13.043616 3 1
9.312415 69.283836 -14.599315 2 1
-14.556142 16.044621 9.028852 3 1
-2.429001 41.497635 -7.678984 0 0
-23.235256 47.471699 34.322720 9 1
-9.660349 60.156967 -52.054417 13 1
19.401251 19.346455 0.345764 6 1
-2.373888 65.959656 -38.085644 13 1
-26.776243 60.117352 -31.898167 12 1
4.134599 57.881733 19.758904 4 1
-9.387233 70.468796 -7.268004 0 0
-33.960861 55.817314 -33.409103 12 1
-25.594280 67.534958 0.919379 7 1
-42.553051 50.605400 19.220013 1 1
33.805763 59.051647 18.852673 5 1
-1.870582 16.117985 -1.535213 0 0
-29.275524 38.034325 36.969852 9 1
-41.291836 57.989861 -5.094474 8 1
16.482613 58.985184 -21.247843 2 1
-29.235369 60.320110 -30.255413 12 1
-7.991188 44.192055 1.222834 0 0
-25.879013 50.678989 11.058348 0 0
30.769314 60.821751 -4.678707 2 1
-52.864285 43.006744 31.598530 1 1
8.204619 65.077927 2.541813 4 1
1.636681 55.229950 29.212387 4 1
-6.904413 56.588036 -58.458588 13 1
-32.966351 50.014805 -49.709324 12 1
-10.839950 54.524731 -26.887417 0 0
-17.795990 64.990227 -32.874752 11 1
-25.970158 48.835636 -67.233292 14 1
4.723801 70.023232 -4.794247 2 1
-33.788776 44.837368 28.242815 9 1
-19.915524 59.408855 -55.821922 14 1
8.522116 72.544617 18.176401 4 1
2.528466 66.175575 -4.449808 2 1
-38.739197 57.577644 18.361826 1 1
2.879099 72.696144 10.754604 4 1
-36.543652 49.549709 -41.868824 12 1
-3.653559 26.012651 -3.622950 0 0
3.082226 57.360435 -43.571777 13 1
31.073660 59.253670 -14.602519 2 1
-51.151703 50.366886 22.391371 1 1
7.002150 51.906609 -49.470341 13 1
-28.403790 48.973297 -33.069912 12 1
-14.846567 73.211578 5.434028 7 1
-6.520390 37.386040 -2.810973 0 0
27.091528 58.761234 -8.967969 2 1
-26.717503 62.525650 8.008389 7 1
7.606028 57.505459 -41.279945 13 1
-19.641300 67.704628 20.671497 7 1
-13.601580 60.223976 -51.237991 13 1
-25.596870 52.084011 -33.749214 12 1
-38.207405 42.478531 -40.730621 12 1
-31.755890 60.689331 18.325979 7 1
-11.900452 56.534904 -64.642761 14 1
-39.096733 48.287743 30.870687 9 1
-15.137881 45.909554 6.078549 0 0
-40.368359 44.023205 33.795399 9 1
-49.620079 48.743153 5.415988 10 1
-1.400811 18.241747 0.299360 0 0
34.604778 44.724342 16.134809 5 1
-15.853921 70.033722 -18.587244 11 1
-32.249573 42.091259 31.532734 9 1
14.220846 75.290550 -8.866643 2 1
-9.430659 18.633713 -11.123062 3 1
-29.848843 56.642345 -28.457823 12 1
-34.663128 51.867592 22.131968 9 1
31.797514 60.680042 15.943542 5 1
7.948807 60.264202 26.040588 4 1
-31.959345 55.153992 23.542997 9 1
-1.414007 53.925041 30.005816 4 1
-40.786617 46.952408 24.979134 9 1
23.443851 73.383110 16.476894 5 1
-27.336697 57.741081 -56.294144 14 1
10.955131 16.273186 6.499596 6 1
-40.106274 38.350380 -37.355335 12 1
-0.474609 16.147682 16.946972 6 1
-44.714321 47.239067 -15.504658 8 1
-3.664518 57.372917 -51.357880 13 1
-42.304062 53.403069 21.680197 1 1
-19.401352 68.843590 5.454242 7 1
-2.426676 61.745525 -7.325147 0 0
-15.773654 59.418377 -32.919880 0 0
12.125705 17.414639 2.799593 6 1
-52.891090 49.635296 18.848179 1 1
28.470140 72.026474 10.487094 5 1
37.146469 71.018768 2.389709 5 1
37.994507 64.526314 8.114662 5 1
18.067329 62.629486 22.084057 4 1
18.070232 18.713623 -1.406014 6 1
10.008533 61.934132 11.642148 4 1
-6.801233 69.317543 -6.963606 0 0
30.121847 53.635910 21.019831 5 1
-37.561314 60.744465 7.213655 10 1
-5.484008 65.491554 22.174475 4 1
-26.783085 56.742966 -47.853020 12 1
-2.145803 61.019310 21.949358 4 1
-13.914007 71.176559 2.004390 7 1
-28.806887 61.289955 -8.710124 8 1
32.264294 52.687546 21.996643 5 1
-32.669521 64.222481 -9.488073 8 1
5.229752 55.065632 20.580099 4 1
28.216755 66.379845 -2.856749 2 1
-11.568748 70.921066 -27.776245 11 1
-5.168283 59.319519 -44.983715 13 1
27.066883 59.738823 26.277893 5 1
-46.374081 51.532314 21.101562 1 1
-1.792107 60.969505 25.082115 4 1
28.215338 68.472633 19.988731 5 1
-27.076590 41.782200 35.259533 9 1
3.538269 48.082684 31.376038 4 1
32.980103 55.946476 16.286341 5 1
-23.879692 54.151226 30.352226 9 1
-30.267460 40.613724 35.509365 9 1
-23.369783 67.125740 -27.486687 11 1
31.881287 73.893509 6.702754 5 1
-22.010668 68.642433 -28.481041 11 1
8.268045 62.221821 -2.716239 2 1
-27.900211 48.400585 30.409990 9 1
-12.640149 66.801231 -6.774627 0 0
17.909788 69.288712 5.808798 4 1
-14.703047 69.674347 -25.075848 11 1
-17.344593 70.319756 14.902699 7 1
21.728487 78.291389 7.993639 5 1
-14.465752 68.870453 -12.665662 11 1
-49.505890 42.967800 -10.335574 10 1
31.252224 47.903606 20.831108 5 1
20.198700 67.314476 3.785380 4 1
1.709238 64.487350 -0.808845 2 1
-1.616232 53.088276 -50.235687 13 1
-53.774757 48.800373 4.606596 10 1
2.406915 56.763790 -0.621016 2 1
12.098052 77.490646 -1.192900 2 1
5.680060 66.614182 -9.168032 2 1
23.416689 63.495350 10.902879 4 1
-39.850994 44.978645 -32.604134 12 1
32.875942 55.655838 -9.354232 2 1
-27.881542 66.723930 3.620700 7 1
-22.831062 61.802841 -40.231949 12 1
-17.650503 67.619484 -36.424690 11 1
31.418530 62.185783 -11.816986 2 1
-22.849781 11.210918 -9.744425 3 1
11.765880 64.401733 -7.388702 2 1
-38.007690 46.738121 -29.065886 12 1
14.019480 64.521339 22.018641 4 1
31.406727 57.553101 -8.142900 2 1
-38.619892 41.626724 -35.346588 12 1
14.297482 21.264639 -1.604501 6 1
8.717908 52.695255 -47.434940 13 1
3.192853 66.439003 9.603988 4 1
-48.245678 52.092636 7.425274 10 1
0.727383 69.146484 12.488305 4 1
37.161747 55.168686 11.268979 5 1
-52.738533 44.310230 24.480387 1 1
24.267166 55.183136 -14.326357 2 1
1.505646 54.561077 -5.576450 0 0
-29.247044 35.397316 35.887527 9 1
3.655812 60.416267 6.527523 2 1
-5.515429 60.514828 25.674753 4 1
8.402128 68.605850 -10.852139 2 1
-13.867061 68.744263 -37.588558 11 1
-24.070297 59.201397 -45.181145 12 1
-21.900034 63.067142 -46.613483 12 1
-27.839417 59.685440 17.240114 7 1
-5.927984 41.274807 -2.597975 0 0
25.469250 61.467632 -17.798052 2 1
-31.428659 44.901337 -40.811333 12 1
-35.787460 42.516697 34.163960 9 1
37.464115 64.878418 4.244626 5 1
23.955435 68.087936 23.966343 5 1
-25.671680 61.540859 -11.649119 8 1
11.488857 20.749109 0.398531 6 1
-33.754395 44.463120 -39.826572 12 1
-23.566902 70.420677 -1.958480 7 1
-15.259758 69.250465 4.958508 7 1
14.028083 63.004620 11.035120 4 1
13.829566 14.529576 21.781477 6 1
-35.899040 46.404152 -45.651993 12 1
-17.946058 14.133789 -2.630430 3 1
33.162571 60.878765 13.853915 5 1
-21.391844 68.567078 -3.316151 7 1
5.455143 15.233713 15.177795 6 1
-18.650764 68.785019 13.281860 7 1
-11.314920 70.117332 -36.585075 11 1
40.722355 65.274513 -0.699997 5 1
25.109219 69.136673 -8.125228 2 1
7.206013 70.984406 -2.196545 2 1
-24.409443 49.700775 -40.848690 12 1
6.391072 62.217628 11.738525 4 1
17.986374 64.728798 12.063226 4 1
30.633543 54.910942 -16.288599 2 1
27.538193 70.785553 13.482407 5 1
8.379158 16.050039 8.448239 6 1
-27.671228 64.895996 10.368584 7 1
-52.367069 50.683163 8.453999 10 1
20.757847 12.995702 4.212155 6 1
2.046094 19.665133 1.751655 6 1
-28.003126 68.187248 -6.629799 8 1
-29.650074 56.882233 -50.951824 12 1
-7.361018 56.506550 -51.695862 13 1
30.086769 58.141876 19.314371 5 1
-31.403709 58.777897 -31.613932 12 1
-31.828115 45.784367 28.871958 9 1
12.088835 18.271332 5.191936 6 1
-8.468935 75.715919 -22.528904 11 1
-15.371783 71.072990 11.427971 7 1
-34.361782 47.466652 -42.381374 12 1
7.210783 61.270180 6.082889 4 1
-2.495935 59.693771 -43.852322 13 1
-14.218662 48.350094 -69.578979 14 1
-6.445307 59.315556 -5.284733 0 0
-30.756762 49.260551 -41.148109 12 1
33.894527 69.223244 12.699786 5 1
6.033703 51.850758 32.314899 4 1
-24.804035 64.823883 -10.366529 8 1
1.658910 60.161392 -1.862512 2 1
8.520149 61.729095 2.706518 4 1
-36.458729 49.746120 -30.331659 12 1
10.996179 66.815971 -17.004335 2 1
-38.171047 42.632465 -45.523979 12 1
-21.224611 62.410782 -44.492699 12 1
-20.472599 68.749336 -26.618387 11 1
-33.955875 57.395153 -4.990915 8 1
14.819027 19.264227 1.444473 6 1
-16.676552 14.386782 0.895819 3 1
26.627047 74.632195 11.926970 5 1
-30.263422 60.397404 14.820475 7 1
-11.959620 42.485828 4.160895 0 0
-23.093336 62.887146 -38.271740 12 1
23.443872 73.254402 0.558433 2 1
-12.922145 18.728809 -10.881165 3 1
26.656271 64.651367 -0.632625 4 1
-47.425831 45.242847 -13.369013 8 1
-4.559860 62.787354 23.993587 4 1
-6.293767 68.468422 19.031502 4 1
-39.805000 39.941761 34.827492 9 1
-29.289549 49.913200 -48.172455 12 1
19.501198 58.151134 -26.212753 2 1
26.981133 61.884399 4.899339 4 1
-36.228527 55.377632 23.699200 9 1
-28.387024 52.011562 27.991276 9 1
36.603069 42.310696 13.834208 5 1
-10.066767 19.291451 -15.741807 3 1
-6.795657 19.314392 -2.974224 0 0
-16.803755 67.466042 -40.127197 11 1
-24.363094 61.410885 16.331730 7 1
-2.110259 63.605545 -35.911652 13 1
-41.873154 51.734753 26.639523 9 1
35.846794 65.385422 6.775015 5 1
18.864586 70.470947 8.503493 4 1
-20.273245 70.105957 -7.168864 7 1
-56.204697 45.007492 19.006910 1 1
27.844872 73.879837 7.961437 5 1
-3.696451 54.043308 -51.233967 13 1
-7.193954 49.129475 -18.929911 0 0
-3.942414 21.476473 -0.826209 0 0
-39.902878 56.284264 -1.358797 10 1
7.333665 12.405014 17.832533 6 1
-47.109142 46.201233 -10.763487 8 1
-22.735102 68.204582 -31.497751 11 1
-43.257854 45.638683 28.179758 9 1
6.854623 69.503830 6.245014 4 1
-28.732370 44.717892 34.231026 9 1
20.097380 15.676907 1.157062 6 1
-16.204311 64.901970 2.575361 7 1
-1.687822 61.582371 7.663677 2 1
-51.875305 44.062260 -2.187258 10 1
-52.098053 44.561943 28.077366 1 1
-47.579578 53.709435 22.301193 1 1
35.351894 40.882759 17.496309 5 1
-27.701244 56.097748 -31.265493 12 1
37.849281 59.391861 7.441538 5 1
32.824074 63.967434 18.063530 5 1
27.071024 66.712387 19.050106 5 1
-44.158264 51.221085 -14.275105 8 1
33.287037 54.838589 -13.536681 2 1
35.249641 43.296474 17.964821 5 1
14.910018 66.223511 -22.042883 2 1
-16.013042 15.407114 -4.140725 3 1
-17.569683 65.384453 6.457497 7 1
-39.504986 52.900684 -12.767028 8 1
17.395977 17.158102 6.719463 6 1
-24.999287 70.018883 -5.656070 8 1
-8.274453 66.075386 -1.486239 0 0
-38.433884 60.780407 10.595658 10 1
16.487597 61.686966 -10.188897 2 1
-0.152457 48.760033 30.264952 4 1
17.976463 56.922291 -21.029135 2 1
0.517567 63.236206 6.320105 2 1
-15.393995 69.835976 -21.762299 11 1
-14.046850 63.624901 -41.028225 11 1
6.414562 54.415318 -44.751411 13 1
-7.501454 60.939190 -40.336601 13 1
21.292139 65.222260 13.742722 4 1
-19.512661 63.532726 -50.818089 14 1
-26.105335 61.678280 22.659954 7 1
-12.273155 53.187614 -25.946894 0 0
3.817639 18.067619 7.987175 6 1
1.818610 15.031144 13.287570 6 1
-11.026945 66.284035 -42.885929 13 1
-1.895968 34.159470 -0.480340 0 0
-25.029402 54.215309 -40.280376 12 1
-9.797827 58.439926 -39.483788 13 1
-6.580749 67.956306 -8.684728 0 0
23.640871 67.433861 6.301682 4 1
-21.356567 43.923828 -71.117935 14 1
-0.447041 41.433407 -5.038803 0 0
17.195904 65.516457 19.817226 4 1
9.044625 75.586395 5.861123 4 1
0.913536 17.613020 6.922732 6 1
-11.916937 20.040285 -12.352494 3 1
-3.406569 65.695045 -36.198086 13 1
-21.031866 67.866638 -33.503895 11 1
-25.504667 49.826855 -64.481674 14 1
8.408073 17.368681 3.997235 6 1
-1.903959 3.498698 -2.423309 0 0
8.155054 52.816368 22.111523 4 1
9.212523 53.825188 -44.281471 13 1
-9.038630 63.239182 -38.472267 13 1
4.389637 68.156387 -1.129030 2 1
17.254644 11.954604 21.162710 6 1
34.684986 47.777988 18.568020 5 1
11.516595 12.790027 19.062277 6 1
1.455083 52.664173 -47.943428 13 1
-13.256623 63.710663 -37.616402 11 1
-23.276257 69.975677 -9.434373 8 1
-36.010971 55.090622 16.671677 1 1
33.643539 71.474960 3.678411 5 1
-38.134300 50.301456 -7.150131 8 1
-29.069466 61.686508 21.644032 7 1
-35.328079 65.142326 -3.305471 8 1
-40.655151 56.311279 -14.542749 8 1
-49.679844 49.948982 18.641432 1 1
3.042980 49.402534 33.727303 4 1
-14.634370 43.564915 5.208205 0 0
-15.284943 66.086769 -26.209356 11 1
-26.972189 42.735275 -70.545097 14 1
-3.259663 50.499660 32.421329 4 1
-16.988638 45.735031 -69.833122 14 1
36.569187 63.306629 12.319595 5 1
-51.531113 52.913967 15.022018 1 1
-15.087166 69.015678 -29.721966 11 1
21.324669 68.624207 9.755757 4 1
-18.905966 68.508049 -15.187241 11 1
-11.148628 17.506378 -5.991756 3 1
-13.117579 18.647392 6.095211 3 1
-19.986992 52.208035 -63.427990 14 1
7.140486 52.704323 -45.950806 13 1
-35.940422 49.983063 21.733158 9 1
-21.073719 68.239952 -18.702536 11 1
-35.639938 59.715954 5.754756 10 1
17.118362 59.097118 24.219213 4 1
41.150452 47.503830 6.707982 5 1
-25.557087 57.406235 -58.651096 14 1
-36.952850 44.614151 24.840811 9 1
-35.321239 48.116730 22.843842 9 1
1.012567 51.692341 -57.499027 13 1
-25.538841 51.447395 -43.066696 12 1
33.589272 39.061356 18.313728 5 1
-5.234227 12.236243 -1.523249 0 0
0.255925 48.772495 -54.301163 13 1
-27.647514 60.524666 -55.326908 14 1
-35.728855 47.390331 -30.626608 12 1
-43.122108 55.046013 1.245931 10 1
-37.626816 44.469925 -47.683342 12 1
-3.752907 17.437452 -4.016703 0 0
-15.656448 71.468819 -0.753822 7 1
1.566805 45.867390 34.370068 4 1
-1.193762 61.639107 -43.855080 13 1
-48.295364 49.106312 28.054598 1 1
1.086278 55.724102 23.510307 4 1
-42.059696 57.136826 12.454809 10 1
-1.531319 26.417202 -3.353052 0 0
25.534481 70.110825 18.050611 5 1
-52.765663 47.720013 16.562912 1 1
-25.673040 65.368752 11.876390 7 1
-29.102877 66.462074 -10.729671 8 1
-39.049683 46.651733 3.534752 10 1
22.047808 65.808083 6.852453 4 1
29.796347 51.406315 22.773205 5 1
-38.512531 59.406391 14.351442 1 1
-24.702021 60.299099 -48.272057 12 1
-26.486420 46.681927 32.560562 9 1
-1.545872 58.881485 -3.724074 0 0
-44.146332 51.787594 18.429836 1 1
38.302574 52.958839 10.679329 5 1
14.041163 15.210125 6.691860 6 1
14.608809 76.286674 4.730594 2 1
-37.775002 52.349857 7.893343 10 1
10.169325 57.285263 28.335569 4 1
7.786045 61.212959 -0.890132 2 1
-21.421633 10.786375 -17.052017 3 1
-10.651101 65.697792 -34.114540 11 1
-17.107082 45.099110 6.196146 0 0
-31.826960 66.348480 -5.336784 8 1
1.015117 17.595613 0.278519 0 0
-50.784492 45.806751 30.224871 1 1
-41.831451 37.269382 -38.490078 12 1
32.389427 41.448418 20.330128 5 1
3.332621 65.905190 21.583857 4 1
1.736711 61.055161 17.818098 4 1
-4.429228 14.722402 -0.763084 0 0
-46.742004 54.764263 12.675959 10 1
27.295027 65.343231 22.962418 5 1
-31.655386 43.522888 33.763828 9 1
-31.046291 35.799122 34.754890 9 1
-34.715900 53.563438 -1.584543 10 1
5.548851 51.499916 -47.594345 13 1
-13.455683 65.468925 -32.295544 11 1
-27.657595 67.719818 -14.522061 8 1
-28.403919 50.124313 -63.932659 14 1
39.561642 49.488228 9.121978 5 1
16.907454 72.385948 8.885721 4 1
12.032080 70.343147 18.890507 4 1
12.781801 55.171566 24.916065 4 1
18.336477 76.579987 2.604189 2 1
-51.419586 48.854942 6.636023 10 1
13.876840 62.061867 24.041285 4 1
-14.547386 66.331001 -3.216657 0 0
-36.768272 61.379845 -2.972248 8 1
-0.330098 61.543865 4.683360 2 1
8.577529 48.000908 -51.854725 13 1
-35.114235 56.371201 6.824969 10 1
-31.479923 37.346622 36.718147 9 1
-37.318256 36.962299 34.521763 9 1
3.989529 74.773514 10.669625 4 1
14.732609 16.651731 3.056906 6 1
-32.228088 62.829674 -18.130785 8 1
18.208275 67.252304 1.827003 2 1
-28.808681 58.846458 -49.240425 12 1
35.875980 55.581120 12.900171 5 1
-9.229511 42.222008 3.371324 0 0
25.430342 70.082321 0.686820 2 1
-14.286303 17.737915 -14.757237 3 1
-14.730803 62.138130 -37.739944 11 1
34.484241 70.817558 8.646376 5 1
19.457836 65.076172 15.595363 4 1
-26.253626 54.479485 29.293238 9 1
-13.480373 58.651077 -61.136116 14 1
-16.818918 68.283173 -32.480728 11 1
33.313099 63.091534 12.391974 5 1
-42.818398 46.610172 -12.022679 8 1
3.319259 15.425238 15.320776 6 1
-21.301468 47.426022 9.714792 0 0
-21.249603 60.515770 -54.222942 14 1
-17.011011 14.656548 -15.090820 3 1
-32.994450 48.711071 -30.643543 12 1
-41.463615 55.644203 -10.936309 8 1
-14.976899 56.714451 -62.213589 14 1
-43.762989 43.381840 31.505741 9 1
-36.355686 45.015564 -38.277470 12 1
34.341515 54.362335 18.627041 5 1
18.427378 63.656956 -2.472563 2 1
-50.706848 51.245068 9.743512 10 1
-8.265913 19.037111 -5.039894 0 0
-19.297485 66.430862 15.608114 7 1
18.867908 75.485008 -1.507678 2 1
-3.190482 69.027870 19.016720 4 1
-1.686869 29.906168 -4.537755 0 0
-6.210823 43.404667 -12.752176 0 0
11.364492 73.842079 -14.312411 2 1
-9.386741 49.741760 -22.231932 0 0
23.977633 59.912518 13.786969 4 1
-35.946472 55.455036 -13.254569 8 1
28.018141 77.422653 6.115113 5 1
37.248825 68.106964 6.622303 5 1
-37.397602 50.543545 -37.950569 12 1
-19.762148 66.822151 -43.127201 11 1
1.184246 62.241570 -37.557598 13 1
-12.149490 59.697903 -34.512024 0 0
-22.658497 63.828163 4.798437 7 1
-34.203888 51.889339 -44.879761 12 1
34.683952 36.405266 16.562593 5 1
22.753811 56.767788 14.404155 4 1
-8.222988 61.280994 -6.754453 0 0
23.808887 59.326008 8.734490 4 1
28.422964 58.643806 -16.675823 2 1
1.231358 48.122025 31.767374 4 1
11.690887 65.404625 8.542170 4 1
12.754044 70.049927 2.574265 2 1
34.508869 63.975765 16.002527 5 1
20.545666 11.827307 7.791687 6 1
33.299175 58.551323 -12.617669 2 1
-18.935858 42.957645 -70.991089 14 1
5.284237 77.591049 9.943055 4 1
36.667801 69.361656 1.193774 5 1
-10.564453 66.868629 -36.553730 11 1
-44.728008 50.381062 -7.307609 8 1
13.871183 73.536530 -12.339137 2 1
10.649631 67.645950 0.849761 2 1
7.800723 71.178574 -8.009450 2 1
36.724255 48.076057 15.410116 5 1
0.292631 47.059959 -1.951035 0 0
-38.123798 54.542873 14.211962 1 1
30.991196 55.974373 23.668480 5 1
-33.347267 53.028431 -46.844002 12 1
-36.786636 50.092678 -50.569252 12 1
28.005943 57.732384 26.647583 5 1
-19.425669 59.203121 -0.331937 7 1
-32.682419 64.347946 -16.238226 8 1
-33.027843 56.539249 -41.007309 12 1
-6.544236 55.122986 29.565483 4 1
-27.467550 45.141258 -67.892334 14 1
-37.389755 57.313385 20.045414 9 1
-20.422384 68.135086 7.239161 7 1
-7.418676 64.383194 -44.413528 13 1
29.519712 75.725479 4.462707 5 1
-36.920784 55.301041 -15.765110 8 1
-38.171368 47.390652 -48.481907 12 1
38.721867 56.105000 7.931799 5 1
-14.918393 17.019854 2.814811 3 1
20.812635 15.064717 6.821438 6 1
5.036982 46.245541 33.878078 4 1
-15.413584 68.114159 -9.530422 0 0
-2.123941 10.832714 -1.494177 0 0
-24.234102 66.423309 8.182288 7 1
25.517088 73.273697 16.716780 5 1
-54.115551 43.613991 25.961151 1 1
0.658288 43.944302 -3.433093 0 0
20.572132 10.305564 17.112574 6 1
-25.353756 59.917278 -35.810059 12 1
7.221213 72.321426 15.971880 4 1
-30.934971 50.643700 29.665752 9 1
17.349735 64.562210 -22.433067 2 1
-1.746871 -0.076136 0.261206 0 0
-4.497732 15.580021 -3.330485 0 0
1.178915 51.123219 -2.764190 0 0
-9.207286 69.974205 -29.354595 11 1
39.273746 57.811722 5.766932 5 1
-20.852631 63.336452 -40.991779 12 1
6.135563 20.004444 3.182973 6 1
15.226509 12.446599 14.475717 6 1
-10.873829 60.914200 -37.010769 0 0
4.769361 63.651165 -6.299515 2 1
-49.034039 43.882210 -3.084035 10 1
-15.056543 65.241631 -45.874012 13 1
4.289034 54.013287 -49.135632 13 1
-21.061403 65.074791 -37.031136 11 1
-13.185908 55.293877 -29.388170 0 0
-25.026987 9.102045 -13.582623 3 1
-33.334858 35.289543 36.791454 9 1
-12.946392 45.530418 -72.872040 14 1
-10.510184 70.266541 -20.106159 11 1
-34.150200 53.768925 -43.008183 12 1
-34.926998 58.977566 1.186628 10 1
41.033371 54.601948 4.149099 5 1
35.364117 61.836296 10.125703 5 1
-30.440374 63.057632 -6.257587 8 1
-23.614088 59.304905 -57.169830 14 1
-17.542763 13.917749 -11.836528 3 1
-10.867517 65.860634 -3.982925 0 0
1.000306 19.634762 3.606143 6 1
-3.820594 64.059433 -42.204990 13 1
1.596434 48.651718 -52.104900 13 1
-32.624260 60.443661 -7.126288 8 1
-9.677127 58.083572 -33.949158 0 0
-17.807428 14.641373 -8.811772 3 1
16.604290 19.937998 -2.219711 6 1
24.095976 69.950050 20.426586 5 1
-4.219673 31.184395 -1.142917 0 0
-18.905716 68.833351 17.259190 7 1
-8.455732 72.279808 -29.852568 11 1
14.422547 14.128386 10.515546 6 1
-2.044464 7.125410 -1.032344 0 0
-42.589012 55.021683 -7.439395 8 1
1.572807 56.615387 -48.253704 13 1
-53.981869 44.343567 20.561712 1 1
-37.176105 57.876965 -2.406956 10 1
-21.951488 50.709915 -66.510468 14 1
-15.519400 16.284824 -9.266457 3 1
31.383989 61.772331 20.850880 5 1
-35.314362 57.021996 19.699093 9 1
17.787527 64.463387 17.975479 4 1
-15.201925 56.919472 -29.531691 0 0
16.056999 59.438919 -23.467699 2 1
9.471815 53.808315 30.807741 4 1
-9.497526 66.160957 -30.598001 11 1
30.971750 73.571045 8.535255 5 1
-18.919189 12.894030 -17.331366 3 1
7.426539 66.191170 21.784832 4 1
-32.204277 58.315098 -7.897964 8 1
9.446367 61.733135 0.834819 4 1
37.930569 62.193447 9.746150 5 1
22.273531 61.969440 -20.431190 2 1
14.354095 54.056686 27.247017 4 1
-9.616705 68.987289 -32.914345 11 1
17.847046 16.246611 1.537376 6 1
-37.616074 44.888126 -34.283188 12 1
-29.959587 50.656399 27.505690 9 1
-4.722297 61.531418 -7.579718 0 0
-28.479174 61.157814 -34.353138 12 1
20.407343 54.362652 -19.652678 2 1
-23.918556 62.739105 -46.306034 12 1
6.979232 75.889496 8.330100 4 1
20.591057 17.180674 4.763538 6 1
-38.866207 40.123676 -37.648350 12 1
-5.007911 58.198200 -4.306611 0 0
-26.355108 40.218578 37.077316 9 1
20.873785 11.320427 10.171205 6 1
28.858543 54.987862 -18.008604 2 1
-40.990608 57.453846 -7.066341 8 1
-17.107447 58.336750 -58.791080 14 1
-22.698139 55.878624 -59.076538 14 1
-17.383743 46.790852 9.498981 0 0
3.988986 64.180458 22.844191 4 1
2.078861 51.639580 -55.047729 13 1
-29.576693 58.052765 -10.524294 8 1
-9.221546 18.408670 -8.993763 3 1
-38.725132 58.775280 -12.862782 8 1
13.238420 64.224274 -11.173153 2 1
19.128832 71.652901 -10.357546 2 1
20.600315 51.675991 -25.999157 2 1
-14.151142 60.979603 -47.267090 13 1
-28.309591 61.495720 -31.962940 12 1
22.036554 61.981232 -5.078022 2 1
-0.123738 60.886524 -41.067059 13 1
37.373253 58.876572 12.677384 5 1
-10.626463 20.757738 -17.079851 3 1
14.280213 66.540619 9.038578 4 1
-33.462097 48.191547 -34.060505 12 1
-9.551372 69.150284 -10.134670 0 0
23.289577 71.772079 -5.268421 2 1
-5.654203 64.320122 -8.634274 0 0
-26.023735 56.005463 -36.763329 12 1
21.949602 60.952087 -7.823917 2 1
5.528837 48.374416 -51.101871 13 1
31.785339 50.758812 22.846203 5 1
12.906199 71.294426 -16.262543 2 1
27.742107 62.372547 -2.501705 2 1
9.015892 16.749784 5.970368 6 1
-41.835545 54.570206 -14.949913 8 1
-12.476420 17.477785 -0.102246 3 1
15.983216 59.341381 25.951765 4 1
21.973831 66.128021 2.691412 4 1
-33.495823 55.628994 21.885347 9 1
-2.029798 39.179134 -7.858572 0 0
7.988152 73.522293 13.282677 4 1
16.695360 75.893753 8.077253 4 1
-5.746085 54.064953 -59.881542 13 1
-5.715376 57.862015 -52.597923 13 1
-38.855350 39.912682 29.200003 9 1
-19.219158 49.022537 -68.874413 14 1
41.980953 56.425285 3.176123 5 1
-24.935480 62.175549 -54.065639 14 1
25.442802 59.410851 7.380205 4 1
-44.184414 50.973606 -17.068836 8 1
-46.133705 44.334095 -11.851717 8 1
-49.610744 47.549404 22.936399 1 1
18.629448 14.261108 4.768776 6 1
-41.633667 48.524548 -12.494323 8 1
-16.418871 68.600388 -7.768353 0 0
-50.740082 47.717621 19.465431 1 1
16.734272 15.893596 9.702974 6 1
27.999983 49.859253 -21.510126 2 1
14.080540 64.663620 -3.281116 2 1
25.493027 66.332413 -12.498910 2 1
21.839699 57.181202 -12.922159 2 1
-24.645618 61.479046 19.163494 7 1
-21.454807 11.897613 -18.780609 3 1
-12.057503 66.872528 -40.150459 11 1
27.907619 56.432606 23.986824 5 1
38.569798 64.889862 6.156141 5 1
-46.314846 48.009510 -7.530724 10 1
-1.833848 20.344612 -3.650277 0 0
-54.247150 50.389881 14.652905 1 1
25.537472 57.236607 -11.516273 2 1
11.928329 65.693581 -14.417377 2 1
-17.459894 68.638550 -28.091032 11 1
8.171290 56.471710 19.186634 4 1
6.849132 60.619003 -39.862640 13 1
-32.797180 50.986500 24.325722 9 1
-34.994923 35.453072 34.343380 9 1
-40.826263 50.942085 1.461831 10 1
-26.244749 60.928104 -44.702591 12 1
12.400270 64.010574 -25.448832 2 1
-45.305416 51.469013 0.609055 10 1
-18.653435 65.965500 11.370647 7 1
5.745744 57.265488 -42.392826 13 1
-9.639401 52.941734 -24.633766 0 0
26.424629 76.085190 8.398573 5 1
-36.403488 56.549877 15.261349 1 1
14.935933 66.903099 -20.116806 2 1
-51.288593 46.611359 2.406765 10 1
-21.839670 47.686825 7.616975 0 0
20.464600 75.751892 2.097638 2 1
12.529326 77.748077 -6.308128 2 1
21.059624 75.732918 0.072529 2 1
-15.458510 44.219421 -71.438667 14 1
-29.379976 58.671108 23.232332 7 1
-47.780869 42.263615 -6.305204 10 1
8.851936 13.957730 19.202847 6 1
-46.108654 47.717358 0.645754 10 1
-12.106084 19.633038 -8.990921 3 1
-4.293256 24.106686 -3.962935 0 0
-11.747995 69.421112 -15.941706 11 1
-43.548340 55.461380 5.127334 10 1
28.716711 51.082069 27.615990 5 1
37.156933 38.984497 12.739693 5 1
-26.133064 66.827003 -13.196177 8 1
36.959801 51.098141 14.835180 5 1
1.904265 51.987625 31.698112 4 1
-45.934029 55.427643 20.787491 1 1
-18.266399 69.173058 9.877448 7 1
-14.389831 54.677013 -39.042034 0 0
18.034416 14.667084 11.189894 6 1
16.574875 60.515522 -13.689912 2 1
-2.644357 27.597984 -0.165072 0 0
-38.237686 58.398071 -18.875385 8 1
16.117746 70.420708 16.020857 4 1
-1.267834 48.374634 -1.795133 0 0
-18.334646 53.594486 -63.134338 14 1
-34.129627 56.592117 -16.897673 8 1
-9.953523 73.257782 -16.406954 11 1
-39.118782 46.624630 -31.603260 12 1
-9.689091 74.013939 -21.303766 11 1
-54.717175 43.915302 24.034760 1 1
-29.962914 53.559216 -49.817402 12 1
-15.656934 70.659409 -15.779400 11 1
3.712859 70.631523 -8.976303 2 1
-28.502172 51.739761 30.000002 9 1
22.424223 73.894859 -2.999530 2 1
22.788980 75.063896 11.448483 5 1
-2.061180 50.979378 -2.602312 0 0
6.060931 17.013899 10.133662 6 1
-44.130798 55.662296 11.264674 10 1
6.443144 70.849014 -4.072346 2 1
10.192314 17.970270 2.363546 6 1
-4.982059 20.176891 -3.707147 0 0
27.083540 56.230789 28.036007 5 1
40.083763 63.546707 2.739233 5 1
-51.229198 49.628368 15.781343 1 1
-8.727149 55.913391 -56.218876 13 1
-24.669306 63.486473 -37.138268 12 1
16.443182 59.734253 21.668486 4 1
-23.652536 49.165329 -67.567581 14 1
-21.460510 63.231934 11.545357 7 1
-28.431261 53.273472 -60.784679 14 1
-5.325848 38.302181 0.059335 0 0
-14.691687 65.971489 -28.333786 11 1
-4.191916 54.024090 27.828148 4 1
-30.259911 44.949558 30.700354 9 1
3.004537 48.181763 -57.147297 13 1
-22.744854 66.022964 15.029134 7 1
-41.927631 52.259949 8.192258 10 1
-39.438553 48.709927 -4.460364 8 1
-39.385582 44.926849 -45.359367 12 1
-11.611506 68.388504 -10.610660 0 0
30.968176 53.152069 -13.283825 2 1
6.132289 73.263474 7.797820 4 1
-36.042889 33.815666 35.438168 9 1
9.270458 20.743149 2.785974 6 1
-8.739553 58.932999 -55.400997 13 1
-27.482430 60.343506 12.786410 7 1
-13.149044 69.431320 -33.356773 11 1
7.450588 72.123421 5.697791 4 1
-23.411869 50.280029 -64.240837 14 1
-17.591156 70.191826 -14.782661 11 1
-43.269829 49.834759 26.453331 9 1
8.765339 70.162178 -17.562098 2 1
-43.994991 51.709454 16.368610 1 1
-43.765106 47.701759 19.793903 1 1
14.780837 64.976662 -25.654760 2 1
-23.678970 49.889954 10.412008 0 0
34.137268 67.148499 7.622170 5 1
-22.672865 67.158386 6.934845 7 1
-32.413162 53.483875 -60.916210 14 1
4.407699 51.366714 -52.495651 13 1
-11.542588 59.072914 -49.991493 13 1
-32.589840 55.838161 -4.131747 8 1
9.681333 73.196487 0.268390 2 1
-35.594742 48.613846 2.953153 10 1
7.232286 58.172268 18.190607 4 1
-42.568878 52.626114 19.469494 1 1
42.155159 58.735950 0.696567 5 1
-6.317817 62.119614 24.720835 4 1
10.890580 58.582176 19.119818 4 1
-40.821438 41.219841 -44.064922 12 1
9.229217 20.910822 -2.366031 6 1
-14.541217 67.903618 0.181317 7 1
-37.790653 59.500446 -15.226460 8 1
-24.201618 51.795681 11.118164 0 0
2.586056 18.879862 4.762832 6 1
-37.536343 51.376186 27.979254 9 1
-4.614448 6.139622 -0.542221 0 0
-9.272994 71.688316 -23.257378 11 1
-20.305925 53.471779 -61.616253 14 1
24.317116 78.886345 6.557237 5 1
-40.085896 38.870579 -39.739479 12 1
-12.671167 17.867256 3.804029 3 1
-9.858840 56.916840 -35.737785 0 0
0.510473 58.322086 -43.760933 13 1
-38.985744 59.938061 8.732926 10 1
-55.490559 46.663704 18.041492 1 1
-34.570587 53.023678 -29.647947 12 1
-34.291996 58.023540 -1.139990 10 1
-4.692873 9.499721 -0.807735 0 0
26.254341 69.413422 21.257648 5 1
36.619801 35.376247 13.816266 5 1
23.722622 53.279232 -17.931887 2 1
-17.752836 69.983688 2.658898 7 1
33.598194 72.862968 6.562556 5 1
-22.387493 49.071537 -39.661217 12 1
-22.829742 65.501144 18.766220 7 1
31.884935 64.633575 13.394216 5 1
-44.295269 54.987114 24.327139 1 1
-17.538534 68.609276 -13.057034 11 1
-55.036552 42.049080 21.606606 1 1
-34.750439 50.416649 29.161285 9 1
-22.896578 68.829407 -20.663027 11 1
21.011578 17.802420 0.996016 6 1
-3.666702 56.237167 -57.278839 13 1
-45.670258 44.062275 -5.183679 10 1
-23.595560 68.386978 -24.626591 11 1
4.739919 17.361172 4.754801 6 1
15.119835 62.715660 -8.692890 2 1
-31.684637 57.609127 -42.382347 12 1
-24.228148 68.312508 2.197467 7 1
-33.524002 56.637470 3.433649 10 1
29.993519 62.698830 -8.570201 2 1
-13.276818 16.519880 -3.556630 3 1
-27.313875 53.441566 -62.496319 14 1
-16.286129 60.860680 -34.334900 11 1
28.143530 52.674355 -20.037354 2 1
36.478832 41.530704 15.710315 5 1
-29.774878 54.768330 27.130974 9 1
-51.285309 48.830627 2.878666 10 1
-51.258808 45.921898 25.591335 1 1
18.796200 56.011311 -27.186113 2 1
25.390371 76.692444 6.216278 5 1
-1.700539 63.048607 -4.730645 0 0
-34.842377 53.556713 0.411758 10 1
5.728600 55.853188 29.164886 4 1
-57.049183 46.009510 15.739838 1 1
-24.633356 53.401825 -63.213078 14 1
1.893263 60.101871 4.194088 2 1
9.450831 50.467999 -46.970093 13 1
-25.052643 43.858959 -70.682320 14 1
19.532007 74.314003 6.133113 4 1
-4.897989 29.639778 -3.303850 0 0
-10.142093 67.611572 -1.589120 0 0
-0.764908 51.517227 -51.516937 13 1
16.330156 68.303680 2.050242 2 1
-52.908390 46.987080 24.653584 1 1
-51.086212 46.425888 -3.359838 10 1
-42.341042 57.156769 5.475819 10 1
-0.818323 36.571579 -4.312208 0 0
-14.038520 71.824776 -9.163076 0 0
-33.899181 52.583233 -49.698990 12 1
-42.454906 56.842957 -3.787515 8 1
-20.432610 61.297920 2.176718 7 1
36.022568 46.039249 16.628983 5 1
-7.733720 40.262005 1.309988 0 0
-36.280373 53.768002 20.095304 9 1
6.969231 47.945042 -53.075611 13 1
-1.804941 64.612526 -6.440982 0 0
5.936962 69.096840 19.754055 4 1
-32.138580 49.772869 -64.279114 14 1
5.485704 60.416355 5.559906 4 1
30.498558 57.427120 -15.466615 2 1
-34.154167 62.654396 -14.285120 8 1
-11.272636 71.485191 -24.768709 11 1
-46.023308 51.709587 19.133757 1 1
-35.885326 47.470329 -49.471294 12 1
11.512368 55.578121 29.563805 4 1
-9.373169 72.134338 -34.106056 11 1
5.478243 45.592976 -52.568810 13 1
-26.323462 60.293621 15.810597 7 1
-12.388839 47.687195 -72.132484 14 1
-22.213043 47.380489 -67.233986 14 1
2.626303 14.457829 17.278755 6 1
-43.122822 49.944988 17.148802 1 1
-42.411541 53.412457 24.021614 9 1
-34.341469 62.122353 -4.204240 8 1
-29.696306 56.841454 24.513624 9 1
-31.988220 57.722511 -38.369179 12 1
-16.861477 65.192970 0.582423 7 1
-14.392237 66.937126 -5.745348 0 0
21.981857 56.440487 -24.319563 2 1
-36.670166 60.883492 -11.521682 8 1
-33.073654 57.434444 23.127951 9 1
25.175148 59.758133 -18.875463 2 1
-32.332813 49.264233 26.253893 9 1
29.537987 61.799671 18.632254 5 1
-4.138257 40.495117 -7.526631 0 0
-0.662082 61.177429 -5.622129 0 0
-31.048775 65.535904 -14.973235 8 1
-41.208595 46.092728 2.783664 10 1
-40.109219 51.025665 -10.192176 8 1
36.253544 71.523788 4.088524 5 1
33.610485 45.321060 20.389210 5 1
-15.274923 62.801834 -42.483753 11 1
36.748955 47.957386 13.386241 5 1
-18.132782 14.956485 7.313449 3 1
-17.339132 66.560394 -20.447117 11 1
-48.555096 44.856503 -9.134984 10 1
-33.975647 54.953815 13.074181 0 0
7.849809 65.500427 -7.742185 2 1
-37.707813 52.759537 11.250451 10 1
9.003850 68.657341 -20.280418 2 1
38.796921 67.021614 3.313711 5 1
-8.290470 67.509109 -9.611266 0 0
22.018675 63.431702 -19.033602 2 1
-18.340971 60.740215 -54.359268 14 1
15.615977 65.688652 -1.040513 2 1
-1.036907 32.321983 -4.643148 0 0
19.311926 56.622242 -15.595026 2 1
10.752321 68.251045 -22.802069 2 1
9.027910 46.072399 -51.854420 13 1
-9.188305 66.403801 -42.163586 13 1
10.669649 56.189415 21.792236 4 1
15.590940 62.859158 -6.510591 2 1
31.442022 52.442059 -16.482733 2 1
28.370726 66.197884 21.241983 5 1
-28.117720 47.926037 -34.888561 12 1
-35.365013 55.011421 9.569346 10 1
-52.752079 42.852386 29.630337 1 1
32.148518 72.037888 10.462560 5 1
14.450156 77.301529 1.627917 2 1
5.163746 58.808853 18.350273 4 1
24.895983 69.646698 2.729664 4 1
-35.249935 46.689857 31.675119 9 1
-49.459377 47.751099 26.988918 1 1
-56.653622 48.274097 13.135018 1 1
-21.701071 11.736374 -6.249599 3 1
27.191021 59.762543 4.149441 4 1
-3.017115 55.990746 -54.982800 13 1
-44.979233 53.882515 12.570562 10 1
12.977536 14.542304 16.574694 6 1
-10.246272 45.275387 -11.444563 0 0
-29.686020 62.726452 16.980978 7 1
17.153172 11.493028 17.319674 6 1
-15.438519 71.432114 -3.326971 7 1
-12.680068 69.631760 -12.211841 0 0
-1.326407 51.566299 27.519176 4 1
-31.664705 38.647640 33.648151 9 1
23.967710 57.979218 -21.295547 2 1
-11.984912 73.669441 -13.801783 11 1
8.698319 72.033241 -11.380461 2 1
-26.432125 69.063980 -7.508086 8 1
30.075411 69.833466 16.936163 5 1
-18.666580 65.914474 -27.930166 11 1
18.178633 67.393005 14.012514 4 1
18.007215 61.644657 20.102798 4 1
28.984604 53.090050 24.205713 5 1
24.828259 71.381973 -0.803060 2 1
-38.849293 51.907722 19.830629 9 1
-17.155073 61.968361 -56.453484 14 1
8.174954 19.538494 -0.283935 6 1
-48.421452 49.772099 8.768147 10 1
29.162079 67.020409 15.601202 5 1
-30.450350 52.189251 -62.908169 14 1
-8.157113 73.541878 -26.305885 11 1
-12.607245 18.073650 -18.355692 3 1
-24.029037 45.439167 -68.222733 14 1
25.188629 69.896713 -5.827315 2 1
-24.614248 65.020103 15.087967 7 1
-28.794027 58.823326 -13.168811 8 1
-35.751728 52.572098 11.230230 10 1
4.690297 59.364014 -2.093198 2 1
-10.657915 57.926781 -53.318394 13 1
-38.216938 48.607971 -32.792900 12 1
-18.401590 47.215168 7.802842 0 0
-44.239372 46.153656 -13.915038 8 1
-41.197750 46.715641 -9.066645 8 1
-26.442692 67.044121 4.916373 7 1
-4.434747 54.295414 30.107046 4 1
-41.214882 48.584007 -2.538388 10 1
10.635883 48.728790 -48.345573 13 1
-19.856453 47.422943 -67.889435 14 1
-31.686094 65.659111 -3.374051 8 1
7.570465 56.054867 -45.109348 13 1
-31.388561 53.316498 24.939251 9 1
-3.515463 58.225376 24.786736 4 1
15.695428 57.212582 25.059683 4 1
29.230913 64.001900 -6.416261 2 1
-12.014209 66.574036 -2.539940 0 0
0.025850 39.434052 -2.106665 0 0
-24.733234 61.329369 12.396221 7 1
-30.014437 58.911766 -39.678551 12 1
38.739742 42.747578 11.203457 5 1
-11.723836 18.419127 -14.224195 3 1
-19.836443 66.723473 -24.585419 11 1
-3.066749 54.623962 -58.688740 13 1
16.519888 71.523933 12.537846 4 1
22.770138 74.454758 -0.831551 2 1
14.116947 70.849792 16.863895 4 1
2.785415 53.634876 30.579296 4 1
-47.776661 42.425404 -11.068603 10 1
0.690590 17.846384 10.516314 6 1
35.944447 65.274895 12.512306 5 1
10.925980 63.922054 -0.828954 2 1
28.016846 61.746964 24.419102 5 1
-39.420425 41.159813 -33.625496 12 1
-20.536997 55.753895 -61.987766 14 1
12.393265 76.774475 0.933672 2 1
28.032780 55.540462 -12.377429 2 1
-42.011372 40.119141 32.364437 9 1
14.975266 61.251423 -20.128845 2 1
24.964046 61.040531 2.978514 4 1
38.673893 50.802284 12.143142 5 1
17.053329 17.663095 -0.113199 6 1
27.053181 63.321072 21.586945 5 1
5.263347 16.751873 6.682150 6 1
-1.355608 49.744354 32.930462 4 1
-20.777155 67.412842 -37.753357 11 1
22.873310 72.993599 2.436579 2 1
-18.885353 13.595751 -5.804142 3 1
-17.922483 67.030396 -4.966518 0 0
-7.121852 56.664963 28.521137 4 1
-9.341140 58.108810 -50.001724 13 1
13.582361 70.713249 4.660838 4 1
23.095308 77.466125 9.165157 5 1
-39.979244 57.377441 0.344141 10 1
20.442759 77.213249 4.821802 4 1
-3.057722 42.882561 -4.024024 0 0
32.590149 67.511871 16.017082 5 1
33.300468 48.666527 17.263615 5 1
23.905952 75.715332 7.922295 5 1
2.226527 46.713291 -55.711567 13 1
-38.799812 61.656673 -4.421212 8 1
11.641638 51.662453 -46.000416 13 1
36.123653 53.656490 13.269617 5 1
-32.165909 55.257366 -1.878922 10 1
32.099525 67.196777 10.888769 5 1
-20.339407 13.045312 -10.549169 3 1
-26.566328 49.728237 9.505460 0 0
14.806533 73.958794 -10.640835 2 1
-48.496445 54.952198 15.272682 1 1
-37.190254 54.489635 -11.890860 8 1
24.031395 65.847549 24.476490 5 1
28.623306 73.619934 11.682422 5 1
4.030516 61.791859 -39.834171 13 1
-19.851768 12.314676 -1.185260 3 1
15.794188 18.244642 3.550214 6 1
-31.498159 58.575035 -34.805168 12 1
-18.975161 63.126030 -53.806946 14 1
18.313799 12.408014 19.321747 6 1
25.084322 60.781178 10.157007 4 1
0.624804 19.294174 -2.232461 0 0
40.868324 51.524132 6.155149 5 1
-8.345256 42.602993 -11.491476 0 0
42.160076 45.798153 6.367330 5 1
-7.722917 61.067852 -8.641495 0 0
-12.725865 67.210083 -25.058727 11 1
5.344842 45.306610 -55.335079 13 1
-18.208193 50.880253 -65.987572 14 1
-26.518074 53.948788 -45.714512 12 1
-26.357519 58.727253 -34.201370 12 1
-42.776489 52.810024 -18.529455 8 1
-17.350256 14.222882 -17.482174 3 1
-7.767301 63.878616 -8.656660 0 0
16.756180 68.045097 -17.147308 2 1
-16.090410 16.211658 4.521254 3 1
-44.249794 47.866749 -0.113473 10 1
-4.739152 38.017952 -5.231278 0 0
-50.072247 51.477512 7.877919 10 1
10.480706 63.856850 -5.660705 2 1
-10.129204 71.553482 -17.698133 11 1
14.529058 62.643841 -27.695772 2 1
31.733963 58.952980 16.821775 5 1
13.530126 20.000803 0.185351 6 1
-1.598220 50.252438 -57.642483 13 1
-24.851486 58.008057 -39.661552 12 1
22.555159 77.163330 12.955446 5 1
-30.114542 59.736935 19.063793 7 1
8.344678 76.818695 7.318583 4 1
27.573681 65.528671 -9.149751 2 1
38.695801 56.269840 10.547281 5 1
21.775101 53.217083 -26.368910 2 1
-41.675667 51.409389 -15.282842 8 1
-11.333137 18.235298 -11.870720 3 1
18.825727 63.251991 15.132466 4 1
-15.827551 72.055550 13.044693 7 1
13.026171 64.001427 -18.959719 2 1
-17.213511 62.278656 -53.272690 14 1
-9.440457 72.492828 -31.536692 11 1
-45.733234 49.629822 5.302237 10 1
-4.293751 1.649334 -0.545677 0 0
-38.115154 51.066898 6.233939 10 1
12.604615 16.583996 8.751402 6 1
-22.726402 64.212448 1.286945 7 1
24.129301 49.829678 -25.456566 2 1
24.233335 75.664009 13.000100 5 1
-38.336674 55.615772 -19.450861 8 1
15.515134 13.419303 18.892532 6 1
-21.302120 11.683149 -2.613293 3 1
-22.187754 57.944775 -57.164055 14 1
-6.165618 54.424053 -55.404392 13 1
-31.647409 58.027416 -46.575665 12 1
-11.193037 65.846001 -5.886970 0 0
23.435955 60.832966 4.801823 4 1
-5.285211 61.689465 -37.077927 13 1
5.048866 61.422680 24.859921 4 1
-23.233376 41.317402 -71.640053 14 1
-3.997435 40.294098 0.828851 0 0
0.111268 54.833160 -44.883648 13 1
-26.472635 56.135674 -59.776043 14 1
-10.685357 54.691730 -38.767689 0 0
-51.156071 49.694080 4.742598 10 1
-42.435349 46.073059 -5.248720 10 1
-15.227622 68.425461 -36.260815 11 1
20.067007 73.211418 -5.632316 2 1
-2.757702 66.988182 17.042843 4 1
