68.975151 172.906490 -37.371460 53 1
-80.986229 108.210110 -32.808823 24 1
-73.508995 122.068820 79.020584 16 1
53.046261 282.226530 34.242058 2 1
1.438235 144.814160 32.197144 0 0
23.706642 111.954510 -82.735069 38 1
-17.945208 154.289760 73.539948 8 1
26.312574 280.347080 24.239433 4 1
-7.812674 220.820620 -70.196770 58 1
42.630241 132.408340 -126.203870 13 1
-70.591187 121.015460 61.012207 18 1
10.074140 157.812910 -4.127962 0 0
27.397064 157.251100 56.709679 7 1
-90.296661 48.150650 14.957212 27 1
52.888336 123.443640 -121.770200 13 1
-3.107309 131.992110 -9.396508 0 0
-65.854057 278.990260 -16.189545 64 1
13.310523 175.775620 68.090500 6 1
-48.707260 200.615280 -59.915695 36 1
-34.972294 77.766434 43.666096 21 1
14.144863 184.514370 -11.996948 0 0
-98.356697 27.413111 9.571233 25 1
-18.839472 269.913640 -52.731304 65 1
78.581291 163.877060 -39.167412 53 1
140.142260 220.146670 18.562565 1 1
-91.284439 26.885052 31.113422 25 1
-72.295372 108.147380 -5.282758 30 1
91.541885 142.434080 -51.125351 52 1
32.909615 235.456480 -29.991505 0 0
56.422520 103.081910 -93.399582 37 1
97.992989 232.507390 30.805754 56 1
106.274710 257.327210 -34.415775 34 1
-74.410362 137.158080 45.343742 18 1
54.667538 109.923630 -126.855290 13 1
-10.175144 38.764133 1.129604 0 0
74.644188 228.056400 24.987083 56 1
1.512623 103.965400 -57.252258 55 1
25.645342 190.002750 -62.818470 58 1
-46.015671 216.051040 -35.531250 36 1
53.983608 129.685490 -4.334720 59 1
102.945820 231.371410 -18.917278 45 1
19.233986 213.397860 -18.824770 0 0
-24.536318 155.997970 63.263981 8 1
-7.369145 102.193160 -30.461901 54 1
-25.311369 258.076020 -56.975128 65 1
-42.146908 243.885710 -46.394550 65 1
6.714024 194.018010 -37.438976 63 1
-11.158688 106.943050 -16.676842 0 0
-70.010368 277.485230 -8.465668 64 1
3.384588 276.165220 -59.267979 66 1
45.255711 158.100810 -99.446098 15 1
-33.718365 27.467726 -52.374672 42 1
52.711029 245.103260 -71.095726 23 1
18.932699 190.896120 -31.285254 0 0
-89.056870 151.359910 -15.768550 31 1
-64.404060 48.144855 36.752560 26 1
36.166256 73.059097 -13.823039 44 1
27.309553 207.238070 -52.230488 58 1
70.565407 162.119350 -74.591759 49 1
19.029861 244.650240 -14.647969 0 0
-45.806362 242.665910 -38.396248 65 1
12.285369 36.029327 -67.881187 43 1
61.738617 230.773160 19.292097 56 1
62.170013 174.667180 -25.587505 50 1
-54.810223 107.204790 -56.213264 22 1
4.411216 218.406810 -38.180805 58 1
-33.754143 89.276955 53.286602 21 1
-11.161709 174.931060 -25.094038 0 0
-104.288280 84.080139 -45.212963 24 1
17.227150 268.447140 -57.321861 66 1
87.081451 134.601270 -4.744588 51 1
-68.478912 145.468690 56.913452 18 1
96.808617 145.354490 -39.643036 52 1
75.543396 245.139560 -72.512268 12 1
4.887087 50.641155 -53.054161 43 1
-80.140350 262.203950 -34.165443 64 1
5.315666 83.950981 59.867531 20 1
-22.107544 167.753250 53.341640 8 1
-16.339296 199.168580 -113.595180 35 1
32.556190 106.401510 -63.019466 0 0
62.871361 250.703750 -17.672403 66 1
-90.255219 136.147860 16.257217 33 1
-44.583302 280.856230 -21.221523 64 1
-67.576477 164.115540 -20.286613 32 1
-6.673500 209.544400 -48.544033 58 1
88.955208 233.054780 -7.361255 56 1
67.314232 179.785540 -40.588108 50 1
123.857320 227.419400 21.247608 1 1
-14.905972 92.970840 -52.813919 54 1
3.310672 145.302380 -8.752912 0 0
-21.280224 92.159653 52.063988 21 1
6.428573 273.239590 -3.656986 0 0
1.819661 110.325450 12.016171 0 0
59.273243 266.606410 -68.903221 23 1
-55.830128 139.628710 56.984310 17 1
49.080921 202.964810 -7.689940 0 0
52.786015 71.353729 -35.393959 41 1
20.603821 290.868620 3.954518 4 1
138.868090 217.847820 26.391968 1 1
38.831997 110.982130 -72.953964 0 0
96.499924 242.713230 0.774827 45 1
61.411476 259.072970 -17.376705 66 1
-64.155617 117.926430 -9.319665 30 1
10.140576 105.581890 -45.845184 55 1
49.396309 247.569890 -82.934952 23 1
65.882019 140.748670 -111.636680 14 1
-10.842808 29.076675 -10.250466 0 0
14.774331 200.356080 -58.713440 58 1
28.023611 118.666230 -87.362984 38 1
-25.239735 158.015950 52.091118 8 1
70.637482 267.269010 -51.512310 34 1
75.112091 256.274350 -60.184483 12 1
7.213364 77.596542 72.859512 20 1
54.383438 196.410920 -57.250843 49 1
59.752705 176.417010 -62.286816 49 1
45.136715 257.531310 -78.930679 23 1
52.038677 270.677490 -21.048815 66 1
132.300260 229.653460 20.670546 1 1
-1.981902 100.485940 0.965736 0 0
-22.164915 165.620680 34.799408 11 1
14.957981 270.773410 -69.525917 66 1
102.898880 225.163270 -78.691353 12 1
-35.454998 69.159325 49.110947 21 1
57.529118 127.062620 12.083887 59 1
22.874983 204.135990 -63.170612 58 1
53.713493 253.430510 47.352303 2 1
-63.306835 106.945030 -4.976554 30 1
-5.858157 260.543300 -53.904957 66 1
33.820274 76.552483 0.585138 47 1
-102.176810 99.233131 -30.248753 24 1
68.068123 185.920730 -60.028496 49 1
-21.005276 148.036300 48.747189 11 1
-44.828270 268.311400 -36.298660 64 1
-36.845406 121.296290 11.905430 0 0
8.763393 170.136690 54.139561 10 1
81.606575 226.104110 40.703518 56 1
82.296768 245.366940 25.317286 56 1
64.055779 66.733391 -33.897175 39 1
37.317505 159.157350 49.623600 7 1
13.957638 173.990190 104.966510 6 1
-11.634726 186.887680 -30.253372 0 0
-110.117900 90.254990 -31.697010 24 1
34.925289 121.975360 -22.851665 60 1
-61.598831 274.886720 -21.002684 64 1
3.878887 58.365425 1.377225 0 0
-27.803799 213.533570 -42.590454 36 1
-10.720623 195.415130 -25.572535 0 0
-94.949539 99.030830 -56.935238 24 1
64.810211 198.046510 -28.590734 50 1
-21.443558 46.597153 -67.723213 28 1
30.041296 174.710560 96.487114 6 1
-18.451309 104.167500 -50.755783 54 1
2.131472 151.784010 29.167694 10 1
-74.877617 136.133040 -27.393917 32 1
116.833520 121.966300 -29.520206 48 1
-0.221834 151.316150 7.282465 9 1
86.045029 156.151630 -25.093113 53 1
-18.475981 211.507800 -92.052811 35 1
49.950245 234.904680 -76.356171 23 1
42.991692 277.865480 -15.414149 5 1
-0.364096 160.454590 15.064419 9 1
7.758221 258.059020 -73.825027 66 1
119.770480 214.492800 -36.188019 45 1
53.345898 130.054170 5.419188 59 1
28.354401 256.795140 -56.624336 66 1
7.278939 50.062302 -5.988989 0 0
96.858879 246.567030 -14.563441 45 1
8.027841 168.902130 -10.309733 0 0
-2.167624 279.408630 -47.733608 66 1
90.647240 244.901020 10.658411 56 1
-45.711319 133.701980 80.169693 17 1
36.225883 261.423610 -32.421707 66 1
-26.828518 201.398270 -108.949470 35 1
-0.071352 79.694183 70.394943 20 1
8.675930 62.894794 -14.362656 0 0
53.845993 279.047850 43.879646 2 1
44.125027 125.354980 -123.591800 13 1
-16.478207 272.497530 -13.459116 65 1
-70.307312 54.165085 27.834309 26 1
-56.722748 84.305527 -70.739151 22 1
144.714170 208.789350 21.782639 1 1
-3.815394 33.033512 2.618385 0 0
-67.425591 100.039600 103.593830 16 1
17.796425 217.506320 -37.988819 58 1
115.872960 222.380250 -20.708050 45 1
24.512497 139.322540 -13.446712 61 1
-12.626768 48.723347 -64.612450 42 1
-88.254860 145.380660 -0.025199 33 1
106.120120 220.539460 -11.620773 45 1
59.281990 259.465450 -31.104351 66 1
70.503448 135.436650 -100.390120 14 1
84.393341 129.815090 -66.101295 52 1
-44.141857 230.701810 -48.097897 65 1
80.431404 239.733050 19.968323 56 1
105.125660 248.245970 -66.021561 12 1
26.853710 158.294680 64.246490 7 1
25.037029 265.398470 -34.054016 66 1
21.659849 289.069920 -18.424252 5 1
-11.577717 262.706910 -43.500019 66 1
-2.513058 92.506554 -6.423417 0 0
-0.594609 74.757095 -4.786736 0 0
-22.995424 77.816078 99.946365 19 1
-32.231335 32.020245 -40.933361 42 1
-81.058792 59.037029 11.276699 26 1
129.161620 221.321520 6.799375 1 1
-31.153688 268.752870 -21.293484 65 1
23.094887 123.805980 -31.137228 0 0
-24.019789 93.838715 65.681366 21 1
74.743523 237.454510 49.291656 56 1
32.616562 110.967210 -97.524559 38 1
-32.737625 40.613758 -47.186779 42 1
22.281559 107.729070 -89.216476 38 1
-81.234215 144.699860 -25.554760 32 1
51.450153 266.325200 -75.734230 23 1
-13.323144 271.198360 -31.059284 66 1
-78.526489 130.421450 45.959324 18 1
32.341286 144.233990 -109.672510 15 1
90.725182 221.084930 50.809410 56 1
-44.527603 276.554720 -3.806199 64 1
55.627930 265.988830 -10.286708 5 1
28.171049 63.786781 -20.792227 46 1
-61.992737 133.499590 64.031929 18 1
56.461807 149.385560 -102.465290 14 1
95.419693 156.758440 -17.224619 51 1
40.660290 163.615920 -104.255360 15 1
-80.593781 119.308040 51.701111 18 1
39.734730 121.344150 -128.252880 13 1
6.579659 212.140900 -54.509384 58 1
123.249440 236.725280 14.158591 1 1
-62.785919 127.447090 -29.762724 32 1
-92.801903 45.083279 2.138605 27 1
-31.632143 139.458340 66.118965 17 1
-85.908714 63.095177 5.169569 27 1
83.764961 189.059390 -42.855247 53 1
40.997856 154.450000 56.128120 7 1
-41.241726 77.219498 57.198494 21 1
-5.162295 89.653763 63.839458 20 1
84.682312 227.290910 51.351875 56 1
-11.548757 63.052963 15.692229 0 0
-40.446167 205.698910 -56.353592 36 1
-18.806473 279.621400 5.665724 64 1
43.000423 239.185640 -27.624422 0 0
75.229019 150.787540 -55.931721 52 1
-12.609816 93.502167 -16.931591 0 0
61.303055 270.495570 -57.040298 23 1
-65.227600 125.325700 91.446167 16 1
-66.287964 112.849420 -51.441505 22 1
49.541367 104.421460 -87.118629 37 1
64.922447 259.474370 -71.786957 12 1
38.018364 271.287480 -34.711060 66 1
-36.919586 125.755600 79.557709 17 1
64.636215 265.128780 -43.730057 66 1
69.941925 153.152470 -62.332500 52 1
-8.522494 274.966090 -22.896128 66 1
14.007229 269.727720 -25.658895 66 1
18.704277 261.693020 35.179020 4 1
-55.812920 146.238880 -3.528523 0 0
87.416061 136.413790 -33.036388 52 1
105.233510 212.241210 -84.253792 12 1
-34.343761 252.095580 -56.512505 65 1
18.594362 235.058580 -13.442197 0 0
5.199159 88.075737 53.725807 20 1
77.629570 236.671070 2.808556 56 1
2.004680 151.184310 15.715247 9 1
111.450100 233.233760 14.213073 1 1
69.617783 253.097890 -5.219926 66 1
71.625679 197.307170 -32.775791 50 1
33.383472 262.467710 45.837456 2 1
24.389978 262.338200 -47.752869 66 1
-30.746792 276.191500 -7.953296 64 1
-14.690311 280.840940 16.869165 3 1
63.246712 144.657940 -23.860001 51 1
7.044089 289.933200 -8.501696 3 1
63.655247 162.404910 -102.507000 14 1
-63.912716 151.985410 -1.907100 32 1
-8.096412 110.516230 -63.811317 57 1
3.234259 111.739730 -58.335114 55 1
59.769413 56.529480 -34.773186 39 1
-0.495488 168.805080 62.510143 8 1
-7.376251 145.197860 51.143158 11 1
-25.478037 37.657494 -54.644043 42 1
-66.790215 142.340840 66.032806 18 1
90.252113 242.338000 -74.136124 12 1
19.073965 264.143310 -5.689645 0 0
80.856438 143.109070 -62.546032 52 1
-41.311745 233.740840 -57.583672 65 1
69.150269 246.168350 -76.454758 12 1
-25.381313 207.320360 -103.825070 35 1
-10.532968 160.378830 66.968002 8 1
94.568329 264.930150 -39.584911 34 1
40.543903 61.618805 -17.745899 44 1
-105.042360 144.753450 -8.122594 31 1
3.431332 168.965480 40.603477 10 1
-45.977551 138.679290 61.586296 17 1
20.563007 286.192080 31.373947 4 1
15.245171 280.224640 36.226257 4 1
-14.422467 113.825620 -8.686476 0 0
-22.009960 267.638820 -30.700638 65 1
76.979324 128.853060 -101.262290 14 1
9.109673 141.524750 12.151205 9 1
-17.854336 89.412109 -13.467343 0 0
-4.227486 96.227905 48.382805 20 1
-111.171340 137.555970 -13.935831 31 1
81.507660 137.547710 7.632370 51 1
28.824938 159.644870 -30.145571 0 0
141.133940 217.797390 11.722007 1 1
76.409920 155.108110 -25.417393 51 1
-102.851530 153.523670 -3.237094 31 1
-10.270467 263.464900 -15.009341 65 1
-70.102509 127.733440 70.079102 18 1
36.128914 252.909070 -27.685278 0 0
-18.451624 83.956642 40.431049 0 0
-90.265587 107.760330 -38.236366 24 1
-9.417052 57.451553 -4.039058 0 0
113.797370 224.855970 -2.389257 45 1
-67.252823 127.365690 49.873638 18 1
-80.245026 128.915760 56.504593 18 1
-90.444679 157.461270 -9.891174 32 1
102.806770 239.460050 -9.379362 45 1
56.802032 186.606250 -24.097143 50 1
-12.505458 33.150272 -3.069056 0 0
43.519714 289.595730 9.533672 5 1
72.393425 230.302800 51.709843 56 1
61.270222 65.568001 -45.406338 39 1
-24.151649 59.155193 13.867383 0 0
-2.359256 196.564030 -35.819851 63 1
-39.947453 143.231640 68.140305 17 1
67.045738 254.949890 -66.522308 23 1
47.664429 129.112030 -32.791351 60 1
58.156708 108.280330 -79.172478 37 1
-0.154899 215.405470 -51.610100 58 1
45.930836 288.985690 36.675468 2 1
37.797462 105.314090 -107.808140 29 1
28.861635 221.977740 -25.337187 0 0
81.098526 264.894900 -45.923908 34 1
42.389210 126.293910 -37.209827 60 1
-4.815765 169.727340 51.212261 11 1
37.312489 141.611100 4.227695 61 1
18.243139 71.373169 -14.184183 46 1
8.844724 201.236500 -67.274368 58 1
107.751070 137.876530 -34.519924 48 1
3.162608 266.337130 25.502394 4 1
89.760590 127.420740 -3.915089 51 1
57.460682 272.406830 -63.868454 23 1
-16.020187 160.502810 24.903597 11 1
6.005064 100.696630 -7.238841 0 0
28.356413 285.569340 -2.760053 5 1
43.314045 258.234590 44.503761 2 1
9.226932 272.992070 32.256298 4 1
76.573929 176.163960 -48.521660 53 1
7.261574 255.804060 35.002186 4 1
35.082203 130.662720 -24.608334 60 1
8.662313 262.737210 -16.472549 0 0
84.519669 178.385860 -57.117737 53 1
-95.046539 35.534958 0.614825 27 1
91.054787 225.083820 40.465401 56 1
74.156952 217.786270 52.704140 56 1
39.251652 152.838930 63.130535 7 1
69.420914 133.624400 -107.924670 14 1
43.487885 262.377500 -25.952726 66 1
25.888962 257.400570 -41.680634 66 1
71.002731 174.501500 -44.195465 53 1
-78.690842 111.243780 61.015507 18 1
4.842143 39.008183 -11.648097 0 0
-67.627007 154.846920 -21.243053 32 1
105.480080 239.516830 -23.546717 45 1
72.150856 141.525890 -20.889568 51 1
-23.709246 45.528786 -49.431870 42 1
5.467147 131.484360 -8.080811 62 1
13.675687 265.015990 30.868582 4 1
-3.756190 84.144836 77.206833 20 1
13.326603 151.035250 34.153988 10 1
68.215233 193.113130 -39.140347 50 1
-76.213219 161.309490 -0.142367 32 1
-7.725880 104.271450 -45.389549 54 1
-19.994112 73.110184 14.116426 0 0
-71.472214 142.373520 -20.161133 32 1
-2.223090 48.608727 -53.637909 43 1
30.877769 197.541700 -57.948456 58 1
-84.802124 149.281830 19.901600 33 1
54.196510 155.921510 -98.466316 14 1
-35.689465 209.089710 -99.786110 35 1
80.530724 148.463060 -23.744146 51 1
56.848064 131.782520 -122.472980 13 1
104.217120 233.701100 3.219671 45 1
87.085312 186.013920 -48.716377 53 1
-97.194946 27.035456 17.246992 25 1
31.453869 102.037940 -100.787980 38 1
-101.499710 140.277850 -25.973509 31 1
-9.570099 207.497150 -61.941837 58 1
31.464848 138.066300 -50.151680 0 0
-69.871765 103.761150 -48.730370 22 1
-1.075125 102.002750 -67.261459 57 1
3.763859 199.797930 -25.460331 63 1
13.489907 194.959400 -19.020344 63 1
2.942872 279.192260 -42.726330 66 1
117.031830 219.711840 -30.127958 45 1
39.406918 99.911362 -78.615303 38 1
-10.226016 94.798492 -25.947147 54 1
22.127548 169.048770 50.536816 7 1
-76.431137 52.486969 14.723961 26 1
-38.043861 275.912930 -19.718414 64 1
16.950144 245.996670 -4.845174 0 0
-87.942528 154.663280 1.466369 33 1
-35.315243 218.774400 -32.300983 36 1
31.183321 98.319725 -114.510600 29 1
115.157800 250.435420 -27.335796 34 1
-25.662411 22.892115 -84.685547 28 1
35.659374 269.269990 0.023197 0 0
-36.397793 213.218800 -50.783737 36 1
6.145623 169.452240 33.727566 10 1
52.187363 274.124820 -0.009296 5 1
73.314575 189.570940 -50.933308 49 1
40.175655 130.368620 -18.677217 60 1
-63.029049 142.746720 79.429733 16 1
-53.526043 203.719010 -51.194286 36 1
68.064445 239.115880 43.422180 56 1
14.091362 37.435596 -51.904232 43 1
35.513031 243.468170 -26.031706 0 0
-46.636391 273.702000 -42.497681 64 1
-8.093669 46.916912 -46.292488 0 0
-40.388626 251.200120 -28.636683 65 1
94.019371 237.679870 -4.900216 56 1
0.363018 163.460250 50.822628 10 1
-1.934651 83.574112 0.148112 0 0
23.308584 169.886960 -31.544495 0 0
12.016729 134.901210 -100.555120 15 1
-31.407770 47.021835 -38.538609 42 1
26.422573 290.220890 -8.536601 5 1
-65.100044 110.097580 -44.968689 22 1
-71.921730 128.997540 81.618286 16 1
32.111313 284.335390 22.195337 4 1
-99.225754 156.307620 -10.131172 31 1
-67.273788 97.087906 -59.547195 22 1
-2.059906 217.338820 -40.863453 58 1
75.697151 248.369570 27.985142 56 1
35.537182 188.364090 -59.488201 58 1
77.981247 197.219160 -46.781929 50 1
-15.015688 216.602870 -82.314392 35 1
59.176201 242.459660 26.642879 56 1
45.562626 140.546950 -7.290039 60 1
45.957851 257.101140 -38.431557 66 1
5.692401 250.460590 -65.765099 66 1
39.065731 136.350620 -3.215154 60 1
83.106270 169.029280 -46.630997 53 1
38.486561 133.658040 5.789465 61 1
-12.766375 43.142834 -5.183340 0 0
43.592720 263.928920 4.735332 0 0
60.742817 132.025730 -0.913150 59 1
54.483013 180.179760 -57.039940 49 1
5.418149 286.273130 17.892517 3 1
-64.928566 120.842050 -27.617897 30 1
4.883144 209.807310 -47.122761 58 1
66.722069 255.948490 -59.281242 23 1
-2.515058 173.002430 43.158447 10 1
82.929146 249.230150 -66.331978 12 1
20.154463 167.072360 -100.687610 15 1
-71.586533 114.399310 -9.417295 30 1
84.367638 144.946090 -89.929726 14 1
-37.231464 130.823880 74.312195 17 1
57.854179 98.690193 -108.036120 29 1
14.535787 166.070400 62.656342 10 1
43.399349 247.899430 -28.281197 0 0
15.030796 169.345670 114.664940 6 1
-7.047879 272.423130 -58.236279 66 1
70.397964 42.468491 -33.678490 39 1
7.712697 161.498630 32.328457 10 1
81.268944 138.384260 -43.583477 52 1
37.624043 116.237460 -87.113716 38 1
-9.612839 215.522990 -56.445076 58 1
-27.833055 127.038950 78.592735 17 1
24.618601 163.030030 114.262570 6 1
5.221066 281.400020 -32.890724 66 1
34.428684 263.515900 -55.804016 66 1
50.344471 111.286900 -93.596725 37 1
99.039543 147.380810 -12.718890 51 1
42.906723 272.613130 39.699993 2 1
80.972954 142.864940 1.580114 51 1
-45.858997 139.526890 51.416668 17 1
-62.256203 111.688770 -18.859301 30 1
-8.069550 165.533190 62.297321 8 1
47.970737 249.039900 -75.239594 23 1
-78.089760 109.398510 -43.034180 24 1
72.545670 255.047100 15.727122 56 1
-81.102547 141.892590 22.799292 33 1
-4.882957 260.026640 -63.179562 66 1
83.527809 152.961930 -58.617393 52 1
12.175802 213.849300 -49.060032 58 1
-65.937462 269.808380 -29.733349 64 1
67.332985 228.956130 15.485427 56 1
13.184008 102.924670 -38.632771 55 1
72.004814 262.180050 -62.304859 12 1
35.871216 134.526720 -126.241980 13 1
92.935966 137.444530 -12.154553 51 1
21.587294 98.713440 -50.264164 0 0
4.254649 102.690740 5.465424 0 0
-55.679298 279.550200 -17.422073 64 1
-80.223488 122.257420 76.876740 16 1
1.880444 208.854130 -60.341812 58 1
-35.045586 262.080900 -29.851322 65 1
-12.242540 157.685930 35.732327 11 1
12.971021 280.765440 6.054345 4 1
-73.734535 112.197120 55.383568 18 1
-15.650106 19.426096 -89.956322 28 1
28.209457 170.069890 108.933720 6 1
37.222660 103.346670 -88.056595 38 1
8.124625 101.812390 -54.530182 55 1
24.155859 193.126710 -56.377907 58 1
106.023420 141.142670 -21.808689 48 1
48.651108 139.375990 -0.170694 59 1
56.073658 256.963380 -38.029835 66 1
102.220320 231.091960 20.214811 56 1
2.990479 137.145340 -14.279921 62 1
71.875290 234.272460 40.168945 56 1
57.392597 149.328690 -119.239240 13 1
15.893799 266.932530 39.719158 4 1
-93.982323 147.165890 -18.341358 31 1
22.725586 149.376070 -105.871720 15 1
-7.674301 115.644590 -46.699982 54 1
-92.552177 260.099980 -28.824034 64 1
25.335575 51.495712 -14.326457 0 0
-21.175167 107.994710 -11.318697 0 0
38.946800 107.111760 -67.179688 0 0
22.493433 204.567990 -47.987843 58 1
129.267300 233.494420 1.417333 1 1
-55.089298 271.185550 -37.682495 64 1
48.600571 230.373440 -81.960678 23 1
-74.560425 262.291470 -26.266272 64 1
135.112750 222.422930 30.100065 1 1
6.332455 284.882200 29.217613 3 1
-64.368607 114.487140 -31.785601 30 1
-10.846546 214.783780 -68.543510 58 1
115.106220 214.810130 -11.051689 45 1
57.359932 58.977062 -22.903574 40 1
80.924477 260.159610 -58.877823 12 1
10.980486 268.418240 -6.209867 0 0
56.110279 134.437680 -23.113693 60 1
49.012817 133.145290 -16.913958 60 1
56.712090 188.042860 -60.761089 49 1
75.225426 228.562040 11.028945 56 1
-26.091698 268.787630 -16.402044 65 1
-7.178992 281.796690 14.451360 3 1
-18.295094 168.315480 59.155468 8 1
62.326977 180.494720 -35.684002 50 1
32.067638 153.833910 -101.220560 15 1
23.489166 280.995820 10.361309 4 1
-44.004051 275.756810 -31.573988 64 1
-31.301191 116.103070 35.412529 0 0
-32.863998 129.393100 16.660156 0 0
28.107960 61.375946 13.050673 47 1
68.201126 146.382190 -107.838710 14 1
23.229231 171.428130 43.895706 7 1
-69.199120 119.024270 -22.016865 30 1
-13.608672 72.070160 24.053579 0 0
83.613533 237.678800 37.860458 56 1
23.418047 212.914000 -40.962467 58 1
26.895641 129.261410 -40.678871 0 0
67.839165 150.217480 -95.401291 14 1
68.404343 156.247730 -17.533941 50 1
-77.999931 157.174480 11.761138 33 1
51.662628 266.639830 -66.055458 23 1
-72.655823 97.576363 -54.814308 22 1
-6.462826 159.423290 23.557743 9 1
-81.339081 122.158430 20.631014 33 1
8.539004 42.292091 -52.193398 43 1
58.657162 274.472290 -8.145558 5 1
-7.817126 189.139330 -24.969580 0 0
-10.627303 276.889500 -36.449009 66 1
71.889595 170.650990 -63.959549 49 1
-6.030900 215.964100 -85.881149 35 1
-11.242651 161.548970 43.426624 11 1
78.619484 158.298280 -94.939644 14 1
84.688530 127.076580 4.351853 51 1
20.520363 102.697960 -94.974464 38 1
-64.457489 147.046720 -12.520870 32 1
86.887299 169.021990 -53.081169 53 1
19.031843 273.421260 -63.039574 66 1
-53.049046 270.084260 -23.997290 64 1
13.245978 210.021240 -55.573170 58 1
21.649040 75.220695 -1.295750 46 1
12.000597 220.850040 -17.371544 0 0
87.324341 276.392760 -41.633633 34 1
24.095997 258.946230 -4.210317 0 0
74.791641 241.108670 28.447306 56 1
-12.002164 48.318073 -32.879452 0 0
-61.654518 76.290649 6.026405 0 0
95.036362 234.168440 -76.869507 12 1
-23.227253 50.328247 -56.967888 42 1
64.488701 252.651080 24.547241 56 1
11.085478 141.640990 -99.675766 15 1
-64.383430 107.406570 -58.189896 22 1
29.229748 264.864650 2.178096 0 0
92.506485 157.527530 -49.433323 53 1
-78.597481 269.911530 -20.588142 64 1
31.508598 135.965900 -7.078887 61 1
-88.146744 54.815094 13.264972 27 1
31.198446 180.217120 -8.308664 0 0
58.096931 63.469986 -32.659889 40 1
81.254410 232.715210 12.608556 56 1
-23.130783 58.119297 -47.527744 42 1
31.512814 138.899890 7.155494 61 1
-9.369624 8.700673 0.791810 0 0
25.854836 284.928800 3.751534 4 1
51.583031 277.376890 -15.268942 5 1
24.785095 290.133240 15.857605 4 1
5.184480 155.096950 -8.513969 0 0
13.479104 289.995120 14.051971 3 1
6.700204 283.915190 -3.500045 3 1
3.703870 153.143940 42.108948 10 1
82.340584 159.073350 -36.098614 53 1
42.009289 56.280647 -51.478947 41 1
-70.865082 43.154316 33.429153 26 1
-44.044529 212.326810 -40.999512 36 1
17.155344 278.311340 -19.325884 0 0
-44.501183 271.641360 -24.725550 64 1
73.394714 144.895860 -64.621086 52 1
60.868130 189.826950 -40.303589 50 1
88.642647 156.035140 -18.760788 51 1
47.083473 152.584810 -79.878815 0 0
56.237457 60.581463 -41.890179 41 1
-79.297562 154.965440 19.803280 33 1
-77.161652 105.206280 51.219578 18 1
8.864389 160.315750 43.383892 10 1
-29.785431 131.902470 73.992935 17 1
98.105026 270.071350 -35.360332 34 1
-27.169012 266.025730 -42.870884 65 1
104.199910 224.319000 -5.909803 45 1
104.750880 276.027440 -25.239508 34 1
45.788040 131.117100 -24.911804 60 1
-1.476963 66.801056 0.200334 0 0
6.716506 193.217150 -29.041006 63 1
1.734541 134.563480 23.456652 0 0
78.597076 236.283040 -77.950020 12 1
-71.809662 258.388490 -33.499363 64 1
62.483196 139.924240 -122.098240 13 1
-81.066780 133.622530 22.797800 33 1
59.681591 242.605330 17.685642 56 1
-70.844994 106.819930 -41.730209 22 1
66.637932 248.187360 -69.585541 23 1
78.994652 181.896610 -58.952332 49 1
-2.982150 159.836940 29.344027 10 1
86.024094 256.528050 -49.252228 34 1
-71.451065 114.903020 -42.102203 22 1
12.011523 277.467620 -4.403478 4 1
66.151718 190.232440 -23.735767 50 1
39.846935 289.095860 -3.887586 5 1
26.637981 268.840300 38.871468 4 1
75.944641 263.253170 -50.354706 34 1
-2.580315 42.689308 -60.644768 43 1
54.559425 55.574615 -50.539772 41 1
84.048996 152.458340 -12.660295 51 1
-33.709145 96.425865 81.519768 19 1
35.007526 270.902010 31.462870 4 1
89.698250 245.387240 1.687984 56 1
80.314095 125.788390 -96.191093 14 1
-13.569799 50.396034 -57.925880 42 1
48.809612 114.336450 -77.190010 38 1
42.471542 194.010030 -4.733784 0 0
89.547829 128.330960 -53.073246 52 1
-4.615997 206.122790 -57.197002 58 1
-97.628304 21.180687 20.556698 25 1
44.285313 63.926010 1.183551 44 1
17.923958 177.347060 -37.474659 0 0
-69.354736 162.016530 -11.961932 32 1
-23.132732 97.739265 45.200371 21 1
-8.811672 17.489752 2.671756 0 0
42.631512 120.026670 -22.506727 60 1
-31.912756 118.232200 15.368427 0 0
108.756000 146.748980 -17.614395 48 1
-22.541357 157.261000 38.157761 11 1
-36.042313 206.027680 -62.518848 36 1
48.083122 255.725910 -73.160042 23 1
123.609990 116.857910 -22.880720 48 1
-57.516056 110.362690 -4.885540 30 1
76.072762 147.629580 -100.274930 14 1
15.485693 269.752990 -11.990936 0 0
88.436951 236.409260 -77.903023 12 1
71.778542 180.228620 -58.160393 49 1
-27.147516 261.786650 -25.476866 65 1
15.011780 172.453310 53.297371 10 1
-27.858528 107.789870 26.412247 0 0
-5.370018 268.227330 -20.786989 66 1
-11.070673 253.427760 -38.950851 66 1
-19.612698 270.597720 -19.081495 65 1
14.561860 93.943359 -94.103172 38 1
-16.768711 48.169132 10.681576 0 0
87.604286 231.467830 7.312982 56 1
-8.076399 110.292730 -11.754267 0 0
77.970100 274.604460 -42.313801 34 1
-10.013845 149.578400 43.092850 11 1
-9.952150 93.511108 58.429493 20 1
7.681170 148.418520 30.809559 10 1
71.961731 185.357300 -24.042870 50 1
109.832890 235.080930 -21.069351 45 1
48.040367 269.936340 -15.506984 5 1
-53.246288 140.516490 74.403862 17 1
17.271706 66.607368 -7.522532 46 1
-21.735092 95.959251 77.971977 19 1
-22.552628 81.313797 13.434619 0 0
-36.660053 265.626310 -18.858622 65 1
42.273842 286.676850 25.440239 4 1
114.451100 216.345030 -24.406742 45 1
33.789478 288.563320 28.696665 4 1
-26.038162 88.620331 55.118847 21 1
26.539053 203.124950 -57.424332 58 1
132.095780 229.324720 38.248253 1 1
85.435783 160.531850 -55.510075 53 1
57.803085 282.627320 6.414032 5 1
-2.354687 133.557340 -16.451477 0 0
-85.183266 127.993390 20.555182 33 1
100.459940 154.797790 -21.114767 48 1
-59.456921 123.493000 95.763969 16 1
19.963766 273.071750 -33.552185 66 1
-29.563299 49.245178 -46.012848 42 1
101.250690 146.753880 -26.687746 53 1
81.589249 240.167080 -2.157955 56 1
-61.590855 263.292570 -31.009712 64 1
-47.598915 207.852130 -48.371300 36 1
-4.619846 92.639435 -66.554100 57 1
44.509258 62.204243 -9.670122 44 1
-67.269585 90.955452 -64.965759 22 1
-65.845856 158.205060 -3.979312 32 1
40.780155 91.046822 -117.217620 29 1
77.326500 188.252370 -29.323765 50 1
66.748314 127.246280 -2.196442 59 1
-59.928802 273.516270 -12.753855 64 1
-74.376610 44.875214 20.833290 26 1
4.047813 268.076290 -43.726433 66 1
122.282860 237.757660 1.310042 1 1
82.395905 137.279630 -97.313133 14 1
120.525850 204.291700 -29.062138 45 1
94.544991 231.683150 36.422058 56 1
58.658699 266.891270 -17.738384 5 1
64.614319 95.428940 -87.601288 37 1
-17.466343 102.061370 -24.153982 0 0
42.188194 108.782970 -98.456406 29 1
119.142830 140.880710 -11.719092 48 1
91.689400 145.706830 -35.278938 53 1
106.954630 236.981030 -33.812523 45 1
52.688667 138.307210 -5.299922 59 1
-62.599194 121.631700 -41.266701 22 1
-38.617393 280.764530 -24.250412 64 1
79.850792 250.086780 21.387119 56 1
7.276305 163.362610 53.305622 10 1
12.623767 274.325260 22.427616 4 1
-58.768978 118.202380 -24.317535 30 1
45.714645 86.731567 -116.425900 29 1
-19.000025 92.580177 88.740211 19 1
115.909920 138.165880 -22.175314 48 1
-110.966470 123.248600 -16.729471 31 1
10.198279 285.316620 35.655296 3 1
37.605610 283.020420 9.309141 4 1
-67.360077 126.534980 56.744766 18 1
88.907883 225.476010 21.386158 56 1
60.765034 167.078480 -67.656387 49 1
-22.446255 102.624280 -41.525772 54 1
-22.094992 211.865770 -46.636139 58 1
7.845446 260.146730 -23.313980 0 0
-30.013584 81.892403 45.308666 21 1
51.166451 159.822940 -87.320847 0 0
90.751167 227.494520 -81.609566 12 1
92.262810 251.312470 -64.268127 12 1
21.027975 194.196470 -64.921867 58 1
48.755283 183.967000 -60.582096 49 1
80.629120 243.036160 -76.345924 12 1
-67.592430 71.834785 7.897783 0 0
18.889084 264.167630 -71.265640 66 1
-19.922531 273.316990 -38.795231 65 1
72.191696 187.509280 -41.121376 53 1
57.309929 154.858830 -110.255740 14 1
-11.892908 108.198810 -37.900887 54 1
-66.066048 108.053110 1.285899 30 1
-80.605591 147.923510 5.721031 33 1
-5.423492 212.732650 -65.313889 58 1
-73.095039 120.461150 46.009464 18 1
64.310768 158.062710 -73.347168 49 1
74.868347 224.898990 48.621284 56 1
10.214226 289.803220 27.291349 3 1
11.734358 105.388630 -2.521281 0 0
56.744976 251.095690 -75.452171 23 1
-39.319530 81.849442 52.677662 21 1
-65.430084 136.970170 71.903015 17 1
-37.762829 285.404850 -8.455857 64 1
35.642155 66.940063 8.300394 47 1
29.037600 133.108140 -22.699865 60 1
-38.540676 242.376210 -56.415825 65 1
0.329686 219.636050 -46.632095 58 1
15.949655 175.500670 95.415741 6 1
25.233768 139.390260 -100.752810 15 1
19.933620 281.355870 20.008850 4 1
-83.683914 258.120420 -30.470655 64 1
41.671638 153.463730 42.348057 7 1
16.260862 82.994843 -29.179974 0 0
5.384850 142.305020 -3.318778 0 0
6.747796 187.501980 -38.196125 0 0
-35.932487 75.290619 97.509537 19 1
-17.754133 170.067660 27.658903 11 1
73.412468 238.457730 -2.166547 56 1
-14.164655 94.914925 84.414635 19 1
-85.594315 137.691220 11.939819 33 1
0.576397 196.857030 -19.695173 63 1
23.537703 273.269350 27.993437 4 1
-5.634078 158.690800 35.203400 11 1
81.254173 254.710100 -70.608246 12 1
-5.976934 263.529450 -37.689903 66 1
99.846405 223.788500 31.235989 56 1
70.218338 141.321910 -56.262333 52 1
18.386648 265.452270 -23.380730 0 0
-32.089775 41.329510 -73.493179 28 1
-73.943413 56.894821 22.574291 26 1
69.635971 240.991620 17.314938 56 1
130.972920 226.582140 26.849144 1 1
144.787030 214.476640 16.161297 1 1
-28.917997 37.635212 -41.062691 42 1
3.681621 205.135860 -65.384483 58 1
-18.317932 271.013210 -26.521246 65 1
45.861671 288.156370 2.775653 5 1
-54.931137 120.159870 -7.961832 30 1
52.336216 203.800130 -2.101262 0 0
81.448204 177.079590 -26.480347 50 1
65.498207 167.116210 -16.845627 50 1
-67.941505 273.659880 -20.169186 64 1
-13.949386 278.521970 -15.634583 65 1
-80.395233 269.134920 -12.644491 64 1
-85.356323 106.075850 -48.919590 24 1
16.079950 207.575490 -47.402256 58 1
18.419121 283.830290 -10.168531 5 1
-93.727921 107.854720 -27.818308 24 1
27.624151 163.610350 -97.080513 15 1
39.727783 72.559776 -2.577285 44 1
-93.024490 34.283363 26.579067 25 1
81.681625 182.407840 -31.030945 53 1
38.443218 136.394500 -16.545269 60 1
20.074984 194.294480 -25.688778 63 1
-16.677809 161.917560 60.705887 8 1
31.745327 272.652680 -39.455025 66 1
51.301991 260.279480 -78.091339 23 1
80.185402 137.934420 -57.009476 52 1
22.106133 103.546610 -24.737158 0 0
-7.246338 158.679810 16.692581 9 1
15.266635 113.615910 -26.226524 0 0
-96.833260 43.482090 8.455736 27 1
-23.869076 99.684494 -17.554895 0 0
-8.706879 45.904919 0.834827 0 0
30.165207 162.683290 33.759090 7 1
49.515018 266.536410 47.700596 2 1
62.434021 103.376900 -79.330292 37 1
-34.111977 31.797426 -47.180557 42 1
-29.680597 107.024020 -25.062141 0 0
45.899181 137.766850 -13.649987 60 1
109.790360 229.994630 -1.682286 45 1
6.542523 41.560390 -4.604340 0 0
47.360516 279.214600 44.837700 2 1
-7.896531 276.156620 -48.812717 66 1
34.211590 289.464970 6.472084 5 1
65.184029 148.122410 -54.840736 52 1
-76.393265 62.050335 27.674231 26 1
-77.824966 109.559450 46.433117 18 1
2.900542 113.564970 -46.252987 55 1
-76.182068 117.294810 64.440216 18 1
110.092460 255.299710 -29.139637 34 1
61.763893 123.932740 2.595331 59 1
-89.581017 44.937592 7.805413 27 1
-18.148687 164.833370 20.639015 11 1
-59.775631 126.370350 -16.981083 30 1
-13.971332 73.656197 33.026039 0 0
-0.280077 86.477440 -5.350100 0 0
-86.225243 64.498627 18.266582 26 1
92.039680 133.491210 -46.808022 52 1
45.780556 64.865311 -39.125305 41 1
31.045898 165.448430 45.984360 7 1
65.801483 156.310780 -95.798286 14 1
87.883331 150.995380 -31.083700 53 1
-16.750877 162.309980 69.023216 8 1
5.081518 205.367160 -54.938271 58 1
-28.238565 211.118500 -56.173744 36 1
-94.796532 45.669998 20.721172 25 1
17.607742 173.630740 110.242810 6 1
-13.156678 37.064243 6.747084 0 0
-33.650570 79.083443 50.056530 21 1
-22.383482 44.024979 -55.536369 42 1
-92.833168 143.208190 4.326446 33 1
8.203352 249.522840 -74.328514 66 1
-14.134346 170.400210 46.199497 8 1
-0.138394 87.127182 -71.191727 57 1
7.553006 38.653229 -57.392151 43 1
-50.175159 78.499054 0.719750 0 0
37.437843 70.002403 -8.000940 44 1
15.033234 92.231255 -21.202353 0 0
0.714310 122.003640 19.555176 0 0
105.682790 267.741000 -28.531178 34 1
-62.198200 135.051700 90.726768 16 1
52.111767 67.276894 -40.572865 41 1
9.450937 164.791000 -5.025216 0 0
-11.257463 100.562400 -35.292156 54 1
51.731808 283.875640 -1.986226 5 1
110.635740 144.447920 -30.971668 48 1
64.084946 127.067670 -8.607657 59 1
94.196716 155.839840 -30.900276 53 1
-9.884886 167.545910 17.214966 9 1
8.344136 137.097870 -6.950098 0 0
-50.713474 104.489390 -63.570496 22 1
75.899605 229.424710 -2.785849 56 1
51.731136 114.920350 -124.126600 13 1
4.193797 288.839840 4.823510 3 1
24.915277 135.111330 -8.547870 61 1
-95.311424 34.054390 20.501020 25 1
-79.645035 162.741100 -5.354482 32 1
75.834122 147.311580 -91.947350 14 1
39.306736 135.576610 -24.619438 60 1
50.162231 136.533160 -125.738690 13 1
33.967762 129.459270 22.066137 61 1
-12.208486 215.345400 -48.948517 58 1
17.552374 44.844631 -9.819038 0 0
0.704397 41.183758 2.679576 0 0
1.319821 107.585820 -9.723191 0 0
91.925247 238.736010 23.647072 56 1
-75.726654 150.868390 1.129089 33 1
-0.981560 221.575120 -12.518303 0 0
16.422352 203.622100 -52.528187 58 1
101.479260 279.497890 -30.522409 34 1
-2.914740 157.599180 46.665535 11 1
23.452969 148.075200 -32.454136 0 0
62.438908 179.806440 -17.126663 50 1
-33.998940 260.643680 -36.232815 65 1
22.454306 160.634630 -3.979909 0 0
83.613792 237.057040 -8.007053 56 1
6.916526 288.934720 -15.849951 5 1
-8.100699 173.156110 -19.782177 0 0
17.832136 266.280430 -34.997490 66 1
-84.233009 146.727230 -16.863289 32 1
-22.272905 58.141418 7.042947 0 0
-78.224579 150.851550 -6.453300 32 1
98.843330 252.239260 -42.189125 34 1
21.526960 253.280720 -2.693790 0 0
52.178692 248.249070 -31.991116 0 0
-39.319443 132.540880 80.614197 17 1
77.310417 159.930710 -18.902798 50 1
32.256992 247.493670 -29.867477 0 0
28.396025 263.137600 -9.335474 0 0
40.466000 267.549770 42.732708 2 1
29.481674 253.118730 -62.087643 66 1
53.539738 112.016170 -81.481415 37 1
112.863590 226.036940 -34.454094 45 1
44.350193 98.170197 -111.271890 29 1
22.587711 91.969276 -99.384079 38 1
-36.409756 253.888570 -38.696686 65 1
-4.430154 282.132900 -13.514816 3 1
57.454990 148.721940 -112.723520 14 1
-19.283085 277.577790 -10.099462 65 1
66.262123 185.088970 -47.504677 49 1
25.869448 171.001850 101.393450 6 1
100.592270 237.496890 16.758930 56 1
-68.739113 118.727800 -37.817791 30 1
57.750786 282.844540 39.807476 2 1
27.230309 273.513670 -52.477013 66 1
7.442412 153.409360 13.202362 9 1
67.386581 169.513470 -42.669506 53 1
38.358379 113.641370 -96.850739 38 1
95.089211 241.070820 8.095863 56 1
14.039278 199.794360 -10.727862 0 0
-5.736623 155.355350 7.064746 9 1
50.993614 90.536407 -112.503720 29 1
4.488132 181.294540 94.937561 6 1
-8.579460 104.679990 -66.763084 57 1
53.860294 272.972470 38.719643 2 1
-69.335083 107.564640 -53.772045 22 1
17.905882 278.150880 -55.261707 66 1
10.808743 267.954070 35.760345 4 1
51.545433 177.231670 -66.417908 49 1
84.563667 243.371670 -69.530510 12 1
-15.512124 94.612175 -22.459387 0 0
-14.547622 101.028630 -15.231161 0 0
-41.719654 72.761101 6.258989 0 0
-49.897274 149.021640 67.255409 17 1
-97.684502 143.035660 -15.288397 31 1
-108.614210 131.114590 -19.480515 31 1
86.802048 241.116930 26.616735 56 1
24.864359 153.179150 -100.220960 15 1
-42.232323 119.298160 -30.182632 0 0
1.863884 280.222320 29.735737 3 1
8.022266 185.384350 -13.303198 0 0
9.750688 267.811830 -50.859554 66 1
-17.815304 114.349620 -46.707966 54 1
96.267273 231.312450 -9.098903 45 1
-89.106346 52.843269 19.334108 26 1
49.511604 260.300900 48.923420 2 1
-2.651484 53.007160 7.139282 0 0
33.692760 158.774510 -105.395030 15 1
64.352570 201.215420 -43.469837 50 1
57.817677 250.880200 -65.497185 23 1
67.129089 272.059540 3.502001 5 1
71.831917 119.549230 -1.812910 59 1
-31.873474 66.592010 7.270458 0 0
-24.393911 210.176220 -94.219444 35 1
-24.667912 169.038090 43.948105 8 1
12.068954 72.794739 -23.240318 0 0
-14.409209 95.939781 68.057899 20 1
110.801720 132.465160 -33.468109 48 1
-79.192093 137.637730 17.303699 33 1
-68.957680 137.610520 -28.950336 32 1
-7.734859 44.455532 -22.917589 0 0
81.845276 244.430570 14.487831 56 1
-87.438049 44.650791 -4.724151 27 1
3.731660 200.740510 -9.278790 0 0
8.088169 219.020580 -43.725269 58 1
24.405910 72.667931 -14.117090 46 1
-27.780975 271.529240 -10.956103 65 1
4.315637 101.110960 -46.914394 55 1
120.175540 238.281230 7.336397 1 1
-75.112480 91.011078 -62.816387 22 1
-43.040977 210.429170 -52.890324 36 1
13.423669 266.361110 -18.397318 0 0
132.327470 216.798480 16.343473 1 1
-51.035831 211.785710 -39.286530 36 1
-91.799553 141.769780 13.914780 33 1
67.368164 260.902800 -12.504302 5 1
67.424568 197.415530 -52.718742 49 1
-103.710400 99.130569 -24.158363 24 1
-12.214943 169.822850 59.897148 8 1
29.201580 171.128660 41.975857 7 1
-85.159119 266.922000 -22.656359 64 1
7.914307 175.779160 104.714830 6 1
10.943281 169.230610 42.508999 10 1
-2.552640 106.054100 -5.025457 0 0
-55.018040 277.291080 -8.608573 64 1
-48.483559 128.194370 81.343056 17 1
83.677536 181.904190 -37.121971 53 1
-100.930740 127.865170 -24.516010 31 1
45.285484 282.506960 -18.958912 5 1
48.741161 241.830580 -85.414856 23 1
5.284242 144.834950 15.865877 9 1
-58.751789 283.196810 -5.424646 64 1
18.952276 94.034035 -45.825943 0 0
-37.777958 141.451260 62.533421 17 1
1.294955 183.215530 -39.202927 0 0
70.790443 252.752230 -11.484061 66 1
50.197491 280.330110 10.417103 5 1
63.858776 250.750930 -62.573616 23 1
3.400409 125.435390 -8.432867 0 0
-72.406273 48.309692 28.564388 26 1
51.908546 154.614120 -83.461906 0 0
30.585232 162.254010 60.266525 7 1
-102.921170 95.920349 -42.028954 24 1
86.977997 232.162090 45.778107 56 1
-40.853313 250.974470 -34.872005 65 1
3.108012 173.773530 64.184441 8 1
-75.392899 134.813550 59.247437 18 1
-11.006905 41.094383 -75.361900 28 1
-50.234318 264.264130 -36.688995 64 1
-1.163681 278.005580 24.364571 3 1
32.145813 172.387070 89.537979 6 1
-97.616730 37.290962 9.349926 25 1
45.470428 148.091580 -121.135400 13 1
51.962524 190.256060 -53.244846 49 1
-2.267267 219.333450 -78.031891 35 1
73.773239 155.350270 -99.706444 14 1
-47.705235 134.443420 3.585030 0 0
28.088200 202.098250 -46.611095 58 1
51.234371 135.742520 6.862524 59 1
-2.349550 255.853670 -56.254284 66 1
-4.136766 94.919174 60.182816 20 1
57.388435 144.413880 -123.075690 13 1
-29.888138 93.219627 62.231174 21 1
34.889824 229.635100 -31.006224 0 0
13.603480 84.498718 -13.657989 0 0
27.241898 73.324249 2.949816 47 1
-58.645092 135.938320 69.174141 17 1
33.276829 159.826130 38.811653 7 1
-40.318943 84.962578 93.746681 19 1
28.134348 284.170320 38.565403 4 1
-19.690725 40.208176 -75.932877 28 1
-104.160280 133.489150 -13.881018 31 1
108.149510 227.106490 -24.777357 45 1
76.460739 192.934420 -33.397793 50 1
5.643620 158.869060 26.877392 10 1
81.824677 170.926240 -30.386478 53 1
27.979588 195.767120 -51.756741 58 1
19.521109 88.314194 -34.057446 0 0
8.432795 262.684020 -61.778080 66 1
40.121906 118.801960 -92.504585 37 1
-76.723923 123.523360 63.845684 18 1
86.672508 137.555890 4.180204 51 1
-41.512180 131.774340 69.586571 17 1
-54.856583 113.962460 -60.150181 22 1
-57.847980 117.554410 -53.782448 22 1
14.735388 290.067050 5.820380 4 1
-13.618737 107.637940 -62.532909 57 1
17.662771 289.461580 -13.690072 5 1
68.693466 265.630770 -57.877686 12 1
-83.534912 58.713551 24.378838 26 1
-1.641063 210.469710 -11.134064 0 0
-31.249393 80.580803 95.007538 19 1
6.471448 272.350770 -24.427120 66 1
-34.332653 114.691310 -24.632322 0 0
-26.557060 262.703640 -36.239735 65 1
1.641356 155.716780 11.232289 9 1
-15.548447 97.653030 -45.880230 54 1
63.804523 247.225370 27.556273 56 1
-39.628990 216.275270 -46.468437 36 1
5.565443 39.491116 -68.000542 43 1
31.756567 157.578660 51.847244 7 1
-86.411331 53.366001 -3.850124 27 1
-10.633035 93.380516 -69.474319 57 1
100.435600 241.323620 -3.974714 45 1
91.164932 140.606030 -5.640722 51 1
9.381423 92.825172 -46.022057 55 1
75.240273 165.579960 -22.594950 50 1
80.728622 117.684740 -99.393005 14 1
23.964186 96.347374 -95.137543 38 1
69.050056 230.231200 45.088089 56 1
1.996989 151.247760 35.418629 10 1
34.715595 168.139020 98.554489 6 1
14.339787 282.228210 0.061776 4 1
0.374290 104.821080 -51.242409 55 1
-64.302780 136.673840 79.451530 16 1
104.519190 143.477940 -34.590332 48 1
113.995700 263.048830 -25.807337 34 1
-30.388962 261.290220 -47.085384 65 1
28.225544 148.812640 -108.613210 15 1
34.103390 257.837340 -58.606800 66 1
36.284115 293.041320 18.353760 4 1
40.890282 269.806950 3.378094 0 0
36.556648 239.833340 -32.701832 0 0
-9.666564 41.561531 -13.420895 0 0
-55.451744 119.469570 -14.106102 30 1
-4.817531 77.421272 -1.174245 0 0
17.542482 259.826690 40.936348 4 1
12.733854 255.218340 38.552094 4 1
-29.315378 32.502598 -59.875626 42 1
-11.232403 22.775707 -9.897380 0 0
-75.392181 63.582222 12.461595 26 1
60.208946 198.021560 -54.975643 49 1
-75.233635 106.953600 94.533836 16 1
-49.594494 131.183560 76.040115 17 1
-72.908134 156.960540 6.660472 32 1
59.269463 183.520460 -51.776001 49 1
-7.180655 127.872010 -11.998420 0 0
139.276540 226.904390 30.719921 1 1
103.305000 235.377980 10.737154 45 1
63.806496 216.997310 0.371434 0 0
16.122087 270.496250 27.336025 4 1
28.181252 134.624210 4.038150 61 1
83.687958 145.313980 -12.228602 51 1
5.080454 134.428090 -2.492620 0 0
-23.456444 213.671660 -53.300888 36 1
22.986097 163.658250 30.432882 7 1
62.846157 270.000550 -7.853874 5 1
72.171562 226.810210 19.513580 56 1
37.424492 148.505710 -105.433390 15 1
-32.507397 85.759804 34.036255 21 1
-92.458565 22.831333 26.623417 25 1
138.535450 212.765290 22.824137 1 1
13.682266 208.602940 -17.942268 0 0
-36.495724 256.934360 -26.861683 65 1
81.132217 250.178500 -6.001434 56 1
-6.401697 23.549845 -4.604731 0 0
18.860373 278.216220 41.141209 4 1
-14.134897 144.410680 52.839901 11 1
56.779640 127.439030 0.767372 59 1
-86.720337 152.889830 8.819529 33 1
46.768421 230.744190 -90.275291 23 1
-54.701424 286.924590 -12.395297 64 1
30.963503 280.966980 13.501810 4 1
-18.767391 215.661440 -87.049324 35 1
5.253839 268.381530 -37.575001 66 1
49.784607 132.464890 0.852140 59 1
16.500759 27.772572 -64.292465 43 1
46.340702 262.714450 -40.816727 66 1
65.096840 128.475280 -124.372480 13 1
-8.167786 79.796669 -11.341901 0 0
7.461260 53.134602 -47.781597 43 1
6.003301 133.780380 -18.394300 62 1
88.177261 246.915600 15.951811 56 1
69.687668 239.780820 37.571301 56 1
42.535995 282.788480 15.871561 4 1
-59.237144 149.286060 -9.888916 32 1
-29.154617 146.309400 15.149959 0 0
98.738075 139.728650 -41.047142 52 1
31.644676 265.421230 -31.935106 66 1
16.085730 249.102740 37.414703 4 1
-47.234642 278.970830 -8.707825 64 1
-5.818787 73.164734 -7.755494 0 0
81.885254 229.654100 18.053869 56 1
39.049816 282.122500 -13.539036 5 1
62.767460 187.954930 -32.372059 50 1
22.160820 175.096660 89.429085 6 1
68.546432 143.124850 -27.503090 51 1
-14.482628 88.890610 95.005768 19 1
24.092876 189.747010 -38.303665 0 0
13.371154 141.787920 35.027489 10 1
79.017838 152.539790 -96.959999 14 1
32.776108 252.261660 -52.034931 66 1
75.780327 223.641780 54.512020 56 1
-33.139549 29.733475 -79.821220 28 1
47.675861 253.515010 -29.730940 66 1
-68.769028 108.303140 -10.401770 30 1
67.281372 172.383480 -23.192347 50 1
68.976089 245.428240 30.329874 56 1
60.033524 262.810180 44.061935 2 1
55.794884 257.322050 -24.798141 66 1
-72.489044 164.683410 -16.562563 32 1
-33.850510 212.160550 -44.911678 36 1
32.567184 284.346950 1.709221 5 1
-59.018375 134.683000 58.524643 18 1
64.020851 239.859250 -69.182777 23 1
16.104164 264.441100 -43.767113 66 1
11.181572 39.411846 -62.951496 43 1
-37.170197 220.488770 -42.110592 36 1
-60.485947 155.558150 -19.049780 32 1
-3.870121 11.915397 -0.919204 0 0
-32.398613 81.908012 39.534367 21 1
7.951323 32.359848 -70.686478 43 1
-27.302443 263.271300 -52.938324 65 1
-98.354385 145.949520 -25.248770 31 1
-9.148842 114.895810 -59.672508 57 1
-36.896278 248.871280 -46.303684 65 1
19.753353 183.126020 -39.547668 0 0
-77.956970 147.459560 11.182070 33 1
9.100875 137.829390 -13.702997 62 1
-7.523510 111.814390 -40.249325 54 1
-26.044291 39.945995 -48.972942 42 1
90.552872 178.174500 -56.501255 53 1
77.744644 146.943600 -2.413241 51 1
26.516443 269.419490 31.616785 4 1
0.599463 47.960876 -59.110744 43 1
121.508940 232.974000 23.473412 1 1
85.220337 223.743440 46.310421 56 1
-1.285899 284.377260 -3.222849 3 1
-4.071114 43.278255 -43.304897 0 0
-32.193790 89.123062 45.984428 21 1
36.721844 112.477230 -78.774818 38 1
96.394295 228.441250 -78.909019 12 1
-66.618866 267.878020 -21.537491 64 1
-6.643631 33.151428 -5.954597 0 0
-29.704563 212.034580 -91.840973 35 1
77.133484 242.020400 -5.822556 56 1
39.687389 183.098820 -4.285655 0 0
88.631111 171.810790 -47.979053 53 1
-39.483410 261.675660 -22.481083 65 1
3.678278 95.004669 -4.824708 0 0
22.295511 277.757780 -43.514412 66 1
1.692176 93.047310 54.836819 20 1
89.674500 148.167680 -51.632019 52 1
67.592857 156.150500 -102.973180 14 1
108.836670 135.883120 -28.018538 48 1
45.141800 290.312190 29.659054 2 1
19.864624 101.118640 -86.472855 38 1
11.132116 288.701690 -2.537570 3 1
134.946330 222.786240 7.810830 1 1
5.911963 75.108276 78.209534 20 1
61.339676 188.567090 -20.484768 50 1
-63.438713 120.600520 -14.737145 30 1
16.359434 253.010600 -73.989044 66 1
81.736504 253.665450 14.041729 56 1
28.248732 130.448100 13.431975 61 1
-74.549118 104.595890 -53.007477 22 1
24.870817 177.873380 74.496498 6 1
98.901352 230.671770 1.736497 45 1
-55.343353 212.041380 -43.508671 36 1
-33.674641 252.123410 -50.338406 65 1
32.976288 59.529282 -17.579317 0 0
127.693120 224.447720 1.856993 1 1
30.383718 125.310290 -34.793579 60 1
25.002424 164.346450 36.391327 7 1
36.810425 266.218380 36.699043 4 1
48.790154 103.933980 -102.733410 29 1
-29.421114 122.270720 82.016273 17 1
35.484356 166.523030 -103.213710 15 1
-112.715400 127.519690 -9.430854 31 1
-59.132347 122.845730 -28.426552 30 1
-15.671046 166.446760 37.057129 11 1
-45.029793 221.981310 -37.079063 36 1
-21.415474 161.216430 64.356537 8 1
76.862267 251.239070 -73.765366 12 1
68.129799 54.067287 -35.380718 39 1
-25.113771 154.596560 19.982191 0 0
40.865925 281.129150 -2.501881 5 1
20.713511 126.382050 -6.077883 61 1
15.599900 287.169070 25.036674 4 1
42.597801 107.925900 -104.946070 29 1
-98.852974 98.750229 -35.859028 24 1
-7.576329 29.236809 -88.194427 28 1
-10.339186 253.235150 -44.917213 66 1
81.284355 194.497630 -42.195263 53 1
17.437649 37.301060 -57.732174 43 1
-104.270270 142.228260 -21.008381 31 1
-2.471861 45.673882 -0.841769 0 0
-19.686823 167.939450 47.162601 8 1
-96.206917 49.271187 13.896644 27 1
30.614237 131.955960 -28.411129 60 1
92.091393 221.532090 -84.045929 12 1
39.983921 256.095250 -47.662956 66 1
2.180355 32.072147 -1.212850 0 0
-39.972771 216.194150 -35.077232 36 1
-18.075653 97.909317 -51.400681 54 1
60.256527 182.394740 -62.516422 49 1
26.868553 72.838005 9.506839 47 1
39.179756 257.934450 -36.310123 66 1
-57.023552 95.872795 -67.865318 22 1
-24.373331 87.758453 49.227039 21 1
-44.286072 273.607670 -10.996581 64 1
-77.418808 146.901210 -14.145428 32 1
-90.793480 51.162525 3.538293 27 1
-84.852768 110.398020 -37.400082 24 1
66.414566 253.654460 -21.627947 66 1
47.734875 263.225680 -20.902805 5 1
61.937336 268.403900 -62.625729 23 1
-16.969597 150.222610 43.845123 11 1
-76.424957 139.553300 -22.654686 32 1
45.552628 237.156230 -83.266121 23 1
-3.656083 198.037810 -30.013916 63 1
113.870560 226.676450 -13.016123 45 1
41.485085 159.867780 35.994286 7 1
-1.133600 122.895160 -3.972112 0 0
-4.990610 38.100319 -81.298874 28 1
61.658398 159.813130 -89.548759 14 1
-22.835533 275.709380 2.857532 64 1
