5.556369 127.783780 -16.882359 32 1
18.542013 121.690550 44.558670 36 1
-44.864025 234.131550 -1.614199 20 1
-42.701466 83.154358 -26.370167 2 1
-2.444503 157.347890 -50.515015 5 1
11.075712 230.653670 13.327814 17 1
-76.368210 173.867100 -48.975281 8 1
-37.891876 225.230380 -40.955673 21 1
-5.818689 138.043500 13.483976 0 0
-57.907700 193.502980 -87.217278 38 1
25.317621 144.641490 -39.956554 27 1
1.587666 238.265010 22.539219 17 1
30.891056 106.074640 4.823660 35 1
-11.885621 158.596050 -29.904564 28 1
-9.602540 117.444850 -5.305622 0 0
21.975769 233.113920 -14.532176 1 1
-20.518505 215.643050 -111.620160 34 1
7.343676 126.163660 45.833183 36 1
20.837633 94.067780 15.153769 0 0
27.971052 137.585720 -32.998466 27 1
-12.886478 123.392680 -25.765484 0 0
23.355680 171.608580 32.857788 11 1
-88.207672 212.696300 -47.512741 9 1
15.108214 122.499380 7.276011 35 1
-59.977329 217.322130 -8.646299 25 1
11.098653 111.714600 18.896904 35 1
20.449648 227.422360 33.617405 16 1
18.130228 104.046260 27.776960 35 1
-27.925690 193.000210 -19.073263 0 0
-49.881737 220.430660 -86.449051 38 1
-30.510973 158.226180 -38.978752 26 1
7.503848 225.181030 28.006788 17 1
73.663078 114.300840 44.766026 40 1
17.454510 111.721200 -10.245828 35 1
-0.466169 117.706070 26.128977 36 1
-43.771450 167.686660 -60.296947 7 1
-39.756565 222.656270 -1.624790 25 1
-11.710109 148.432420 -10.190050 0 0
14.268606 211.162480 -98.566132 34 1
30.033813 211.278990 35.959896 16 1
-58.783878 72.306503 -5.609849 2 1
70.352730 116.684200 35.385441 40 1
-49.792458 76.144196 -50.301929 41 1
31.982363 233.626360 -9.358072 1 1
25.450651 243.035030 22.291821 16 1
-59.088554 134.580870 48.301289 6 1
-40.989544 79.579254 -41.850563 42 1
39.165241 231.658100 4.063541 1 1
-24.739981 165.949830 34.579037 13 1
9.954072 234.702610 28.724676 17 1
-15.755297 231.452960 -19.666977 0 0
-5.470390 60.250893 0.755020 0 0
13.378127 177.949360 74.752831 10 1
30.482157 121.818560 -97.624290 12 1
-34.080544 192.860200 -21.316975 0 0
-7.067366 79.888580 -20.175806 0 0
-9.369919 62.195488 -7.707746 0 0
-46.779236 153.067540 38.699825 13 1
2.163264 143.759660 -55.516026 4 1
-46.313190 80.950752 -16.360081 2 1
-93.096336 155.933060 -91.001541 3 1
-58.344849 197.639040 -81.824059 38 1
8.354628 123.337210 -31.455809 32 1
-59.612724 209.301640 -78.366539 38 1
-61.916260 217.500210 -63.156822 21 1
-46.972504 216.740340 -13.273752 25 1
-38.067791 146.785660 -58.921753 26 1
-30.609051 235.806950 -25.998962 22 1
24.098177 108.393120 25.779291 35 1
21.269278 113.568790 50.591602 30 1
22.589411 240.852580 -13.022374 1 1
-20.848188 219.293470 -102.821800 34 1
19.623070 195.029970 -106.392460 34 1
-17.096725 157.694470 -10.394741 0 0
5.003368 217.054380 14.734881 17 1
-5.220417 23.839209 3.683196 0 0
44.586823 132.081680 -52.160660 27 1
50.172474 127.863620 -34.904652 27 1
1.166750 161.851670 -45.853588 5 1
-63.132721 176.204570 -58.586758 7 1
4.543731 132.002120 30.896553 36 1
-60.629822 80.972588 -35.860481 41 1
-16.287840 117.489420 -0.330533 0 0
-64.802834 66.716576 -52.943977 41 1
19.567080 125.564150 -36.601425 32 1
41.991016 116.378910 -96.876022 12 1
-20.146908 122.603380 -17.136477 0 0
36.004944 139.199070 -56.965153 27 1
-53.444752 231.439330 -21.503239 24 1
-56.404232 77.753685 -21.571009 2 1
-9.762490 121.394380 -31.074387 32 1
-27.049879 104.635790 26.468664 0 0
-8.393839 113.983250 33.864075 0 0
-25.323002 209.124970 -110.078420 34 1
12.110806 131.752400 -44.463890 32 1
-8.811304 89.436653 1.769805 0 0
2.024249 136.120650 -25.438538 32 1
6.690246 135.700350 -19.992247 32 1
-43.226711 135.095460 28.015299 19 1
-62.217251 215.961240 -84.425430 38 1
29.836935 121.152420 37.620895 30 1
40.808987 207.309660 -8.758251 1 1
15.036336 190.121480 -111.449980 34 1
-45.509056 205.729800 -124.761420 23 1
29.968691 105.618260 57.835979 30 1
-35.125942 219.012910 -51.225029 21 1
-31.605721 228.934270 -37.714951 21 1
-12.152297 104.034320 -5.439373 0 0
-58.065189 173.594890 -65.071686 7 1
-18.557404 129.255140 -7.926648 0 0
-75.652496 172.881910 -28.111420 8 1
-67.656662 169.476640 -73.142151 7 1
-40.434925 215.836110 9.060310 25 1
24.522507 246.178760 16.292479 16 1
3.466019 205.198260 -100.876510 34 1
-50.799267 204.493360 -83.261383 38 1
25.697092 101.804480 10.337074 35 1
58.454842 96.304199 0.245017 31 1
-0.150851 227.532470 26.848858 17 1
25.598927 226.736340 29.687246 16 1
-84.353027 215.069380 -62.585445 9 1
-29.322462 129.659580 44.027973 18 1
20.898170 238.378510 30.631828 16 1
-41.538628 213.851960 -60.078491 21 1
-37.565239 239.177140 -28.788269 22 1
-54.083637 124.440500 3.166749 19 1
-67.158798 170.930830 -55.047863 7 1
9.988019 233.184770 6.297268 1 1
-70.009018 177.667420 -43.971012 8 1
44.079987 111.722840 -0.251285 31 1
-28.942799 127.561490 -24.604315 0 0
5.371271 245.182330 12.688195 17 1
-60.409088 123.983670 11.623112 19 1
27.665859 217.238800 36.118073 16 1
-44.916447 203.750290 -95.222832 38 1
54.308109 124.174060 -39.565151 27 1
18.539577 87.647285 15.109015 0 0
-14.019499 71.386009 -3.984794 0 0
22.635576 125.921310 17.309942 33 1
-1.175749 117.977130 -9.745824 36 1
-13.257104 188.039610 -19.424051 0 0
-31.847921 153.852720 -60.053982 26 1
75.718445 115.814210 32.175392 40 1
16.295933 205.251680 -99.450012 34 1
-86.089439 219.202500 -40.550117 9 1
14.760285 133.421170 33.517788 33 1
-13.395954 73.869202 -20.713469 0 0
-42.403648 214.633220 -1.486075 25 1
40.189384 114.254780 48.606842 30 1
-49.757557 206.415210 5.825715 25 1
16.620386 118.263400 -11.261090 35 1
-28.118546 159.633670 -50.123684 26 1
10.958272 123.566820 -19.414322 32 1
-62.025578 226.883410 -37.724861 9 1
24.083569 223.629700 18.938566 17 1
-77.357651 219.874220 -34.790466 9 1
-56.921982 208.013470 -1.174368 25 1
30.368637 118.965740 -24.721348 32 1
-19.400663 218.216740 -61.510017 21 1
-62.429253 212.913540 -4.351446 25 1
23.500925 124.461330 -16.699024 32 1
-86.833580 224.494140 -31.075354 9 1
-96.776314 203.733780 -59.368797 9 1
7.702459 209.508680 -103.260730 34 1
-8.300705 67.496132 -17.617952 0 0
-78.931282 172.941880 -57.270630 7 1
-40.760292 141.133610 -59.662746 26 1
21.885748 112.738640 -21.140858 32 1
-111.669750 152.960920 -74.667282 3 1
32.909981 196.487010 34.144363 16 1
-30.099579 223.631640 -14.671832 25 1
49.855618 135.003450 -73.250870 12 1
-73.576576 223.140290 -42.963074 9 1
-14.090291 85.125801 -21.303946 0 0
-16.282721 132.610960 -15.767117 28 1
-42.591438 129.106020 16.745340 19 1
-107.976920 157.144060 -70.152779 3 1
-2.478775 223.527190 22.381096 17 1
-104.867760 167.954320 -65.885216 3 1
-79.811630 159.053020 -25.910610 8 1
12.688578 166.104770 91.035652 10 1
-49.550518 131.264130 20.900496 19 1
1.960709 197.001540 -115.639720 34 1
-21.162075 137.865100 -16.883377 28 1
3.644830 202.210530 19.791124 17 1
-62.241119 221.384830 -16.588614 25 1
-3.198033 95.454597 26.921183 37 1
-39.906643 157.198460 45.618965 13 1
-4.275280 179.268080 46.766956 13 1
0.636230 111.946820 -0.144774 35 1
-42.409821 164.995480 -71.078171 7 1
-37.385864 181.433110 -138.630840 23 1
-7.715313 70.736443 -10.501107 0 0
-53.526829 211.053650 -69.581673 21 1
48.100620 107.202850 -5.100868 31 1
6.111058 182.981220 63.393158 10 1
-94.136917 211.534000 -50.667511 9 1
41.250263 139.767110 -48.900959 27 1
-37.739761 218.544740 -62.797905 21 1
32.599594 116.261240 48.411114 30 1
-53.171150 217.336290 -4.574808 25 1
45.283703 129.549620 -82.121857 12 1
-3.027267 138.317250 -64.284813 4 1
-88.739082 146.181930 -27.444975 8 1
-81.525726 176.406950 -39.491074 8 1
-42.972919 126.132680 7.615783 19 1
-23.410063 84.733284 50.811615 15 1
35.437080 106.609800 53.735962 30 1
10.698414 174.787230 49.085014 11 1
8.286028 144.334110 -53.598236 4 1
-29.680931 220.832530 -5.542903 25 1
-3.201705 238.478960 18.158979 17 1
-32.618435 221.597500 4.441796 25 1
-24.931368 70.464973 0.576827 29 1
31.847218 240.966350 6.898866 16 1
35.856331 112.166870 -16.553793 35 1
-47.195473 234.815400 -7.557295 20 1
-11.084239 83.776260 13.255649 37 1
26.444551 206.615800 38.153248 16 1
-26.821285 120.828590 51.371853 18 1
20.498234 105.050730 10.735673 35 1
-13.258297 88.522835 53.959076 39 1
-8.426099 203.338000 -115.885190 34 1
-15.276314 178.897280 -22.552361 0 0
21.291920 217.924420 38.395523 16 1
-51.478764 196.098880 -91.443588 38 1
-41.257019 220.719860 -83.674278 38 1
-98.224831 210.575410 -41.564846 9 1
-50.501328 176.279070 -60.952564 7 1
-10.860989 53.744995 -1.471582 0 0
-70.775635 191.981740 -90.241943 38 1
-50.296043 212.837590 -96.859779 38 1
-59.411877 152.111250 -84.844421 7 1
-24.864386 197.780030 -60.299732 0 0
-9.454759 44.324100 -1.765759 0 0
11.734510 112.771460 -17.512850 35 1
-48.827988 78.658813 -33.352737 42 1
-66.816971 171.625000 -33.559132 8 1
-9.375220 219.372310 -89.177315 34 1
-22.848822 182.538680 -37.033024 0 0
3.495787 228.527330 11.680896 17 1
22.741018 164.787670 41.572121 11 1
-40.859528 158.215580 28.405325 13 1
-43.977989 228.047010 -46.278564 22 1
-12.812764 213.745740 -86.684120 34 1
-106.471370 207.272320 -43.680717 9 1
-74.315414 174.531860 -97.366386 38 1
30.017971 228.712360 -18.899485 1 1
45.713154 111.461650 11.904835 31 1
-53.421516 226.316800 -29.749329 24 1
-35.867630 214.548280 -81.506546 38 1
-59.236767 131.590500 -58.328934 26 1
-6.900255 233.125920 10.517077 17 1
-77.352814 169.026230 -38.234470 8 1
-36.290730 65.736732 -53.361393 42 1
-14.904878 155.755040 -40.302990 5 1
-65.935463 80.081810 -39.313450 41 1
-67.571983 165.035680 -27.831886 8 1
-24.548859 174.316990 25.405788 13 1
9.679241 179.369090 30.572456 11 1
-13.358561 118.436920 -12.858865 0 0
9.183802 123.036980 4.045602 35 1
-30.038118 219.971620 -106.046140 34 1
-85.197044 217.336360 -50.455688 9 1
-47.437222 74.362869 -43.890881 42 1
14.664282 138.958250 -36.951412 32 1
-43.418701 210.013110 -73.017525 21 1
-46.905540 161.820050 -77.728668 7 1
59.223419 92.510971 -5.103789 31 1
-9.578317 37.095551 -6.410356 0 0
19.321383 234.015080 35.675850 16 1
17.251270 124.076690 -80.803230 4 1
1.349608 131.008540 -36.033348 32 1
31.526478 129.724840 -46.071060 27 1
29.311110 227.598240 19.259981 17 1
-37.293560 237.694500 -34.651257 22 1
34.677269 212.321930 -16.751856 1 1
2.325229 193.938080 23.126274 17 1
28.112803 118.654120 -5.562042 35 1
-36.562099 152.204820 -45.501900 26 1
50.951984 130.991270 -78.716721 12 1
-32.702545 80.638092 -38.625847 42 1
45.329712 211.266850 -2.413202 1 1
-50.837257 220.776930 -38.142860 21 1
-98.816620 150.630360 -86.416084 3 1
-63.262276 73.553558 -15.619480 2 1
11.388367 227.803330 -0.502453 1 1
35.198692 118.127090 36.629822 30 1
-23.128616 222.338530 -52.004986 21 1
-10.251104 230.483730 -89.107208 34 1
-119.869960 144.339860 -78.179588 3 1
-14.324607 110.918360 8.142321 0 0
-69.799957 121.361850 38.186340 6 1
35.059902 134.275390 -44.274323 27 1
-71.860725 174.925200 -53.307041 8 1
-61.502411 72.982285 -45.502323 41 1
21.932777 129.807130 -72.182053 4 1
16.702583 133.012800 -16.506548 32 1
-82.134819 172.427950 -46.699982 8 1
-32.616474 163.776030 52.043522 13 1
-33.169819 235.199950 -39.463558 22 1
-74.657913 180.538560 -88.363831 38 1
-18.843151 224.516860 -91.108513 34 1
21.944355 136.738630 -25.930786 32 1
-0.010613 233.856670 10.063764 17 1
-54.938416 77.186104 -39.705154 41 1
-51.511795 153.621460 -83.879051 7 1
-55.611904 212.298360 -91.406265 38 1
51.507442 108.066760 19.229246 31 1
-40.246929 223.626050 -7.669127 25 1
-46.642654 223.008380 -26.842442 25 1
-24.225420 172.004610 39.604664 13 1
-74.719551 168.088410 -50.150238 8 1
19.986128 170.648650 80.345619 10 1
-15.618889 177.136280 30.569147 13 1
-34.432312 198.744640 -134.593460 23 1
16.879862 222.900410 25.768553 17 1
-13.011368 87.051353 65.887680 39 1
-7.550993 87.927208 -17.504677 0 0
15.325722 248.120990 -6.339760 1 1
-35.521767 224.490010 -19.310728 25 1
4.612065 138.300030 -37.009369 32 1
13.400407 239.343280 27.121305 16 1
-12.307424 117.847710 24.570663 36 1
7.409275 129.970760 41.183697 36 1
30.505262 142.352040 -55.044037 12 1
-14.359261 96.647026 -5.310570 0 0
-4.630765 18.958019 0.165780 0 0
-34.007259 214.120670 -67.176567 21 1
-74.937943 165.340770 -75.994331 7 1
-29.242085 190.487530 -52.006294 26 1
27.561691 117.199610 42.581127 30 1
18.728643 231.962540 15.391583 17 1
31.341862 230.159520 28.845476 16 1
-120.274670 141.399860 -83.709122 3 1
-38.655266 160.307530 -146.306170 23 1
31.999945 163.539410 39.413021 11 1
5.154758 114.287350 8.013360 35 1
44.082184 125.106340 -87.390465 12 1
-36.340523 167.132250 32.317085 13 1
2.040560 137.957430 -59.140560 4 1
8.681567 117.807580 -21.219810 32 1
-76.384277 177.020390 -35.086643 8 1
3.857891 191.091260 -115.608640 34 1
-8.225880 107.142590 28.229622 0 0
-43.673317 183.290820 -139.595320 23 1
35.563755 227.425920 1.028640 1 1
-4.290335 82.410645 -13.098189 0 0
-15.671858 213.818010 -16.051977 0 0
-4.995231 53.399628 -0.392724 0 0
-56.352257 186.302020 -95.526230 38 1
-51.967880 78.639572 -11.354444 2 1
34.238510 219.581120 27.879719 16 1
16.909718 133.116740 23.110504 33 1
37.696987 112.247760 54.099644 30 1
-3.919592 122.017830 -35.717846 32 1
-5.441889 113.665680 -7.494565 0 0
-60.188725 173.585280 -26.373690 8 1
29.681149 108.126060 29.180632 30 1
-61.113537 177.427840 -137.676060 23 1
57.002575 102.482420 6.452131 31 1
4.180969 102.729920 -22.886854 0 0
-91.336807 166.653990 -38.082520 8 1
-36.196678 216.091870 -56.400917 21 1
-35.497578 122.354410 28.270790 0 0
38.762074 110.530930 30.713068 30 1
-34.729565 125.547570 42.272175 18 1
-62.335480 219.765760 -79.640289 38 1
-38.984852 143.796680 -53.620556 26 1
-14.395939 116.712810 31.815876 36 1
-47.797825 215.717990 3.148888 25 1
38.113415 105.620990 0.211703 31 1
-53.629787 216.211530 -15.165879 25 1
52.053932 125.136510 -28.614466 27 1
-60.725628 220.357390 -38.342480 9 1
-60.643963 169.923680 -73.463120 7 1
19.546452 125.921780 40.558212 33 1
15.378511 214.981090 19.921688 17 1
-5.462788 170.364880 32.036720 0 0
-89.954247 219.174870 -32.650902 9 1
22.788822 128.236790 -41.187954 32 1
35.994133 107.261650 11.715865 35 1
-53.340061 201.349900 -126.037660 23 1
37.065411 202.540120 34.012989 16 1
-29.155447 209.449430 -114.884490 34 1
13.631287 130.423140 38.671356 36 1
-7.153106 66.628937 -4.452351 0 0
-60.418648 70.750275 -52.999744 41 1
28.258621 134.323200 -83.613968 12 1
-7.374434 107.575370 3.325034 0 0
5.573363 156.472270 -56.318024 5 1
58.113445 120.293380 -30.379095 27 1
4.712575 170.076140 92.811882 10 1
-38.138134 150.596940 -35.411083 26 1
1.442285 124.846790 27.407795 36 1
-10.138012 123.091350 35.765522 36 1
6.240813 230.843930 -12.015084 0 0
1.977570 117.816920 34.332367 36 1
-97.913841 171.381840 -58.028679 3 1
-58.036728 197.394650 -127.533760 23 1
19.264921 109.562290 44.645531 36 1
10.421266 128.596180 14.726410 33 1
-18.219456 213.448580 -89.869484 34 1
-35.099579 189.101030 -135.333570 23 1
10.124573 244.753490 2.919026 1 1
-47.871201 230.045520 -26.931311 24 1
-27.664536 52.917278 -17.627653 0 0
-48.195518 134.309280 -60.600956 26 1
35.767273 228.688310 -9.357405 1 1
-29.846437 220.384720 -25.596466 25 1
-10.396608 87.401680 43.230499 14 1
-36.756378 204.575590 -77.051765 21 1
2.291973 217.520630 -18.277277 0 0
-15.170593 222.914050 -16.654032 0 0
-60.671524 117.183120 4.056112 19 1
-31.774008 162.565200 37.296951 13 1
-53.153893 191.677410 -105.801930 38 1
-89.313499 207.100720 -65.919357 9 1
-39.076687 164.541490 -64.572495 7 1
30.882946 230.897900 8.575350 1 1
-14.547278 150.373760 -35.436401 0 0
41.751808 115.970170 35.044628 30 1
21.745838 133.404710 27.009144 33 1
-2.473360 85.658691 7.211373 37 1
-47.541157 193.767090 -128.416950 23 1
49.575397 102.050200 3.776440 31 1
7.429358 242.377820 19.947010 17 1
-14.176864 122.129230 -3.185501 0 0
-52.638008 182.584720 -137.236510 23 1
-0.473397 216.782200 23.301386 17 1
-35.350391 202.516040 -125.584510 23 1
33.754379 138.007720 -27.925709 27 1
-7.798762 121.123510 21.478415 36 1
-2.143592 183.411040 70.315788 10 1
7.046507 208.377150 24.348333 17 1
6.710013 126.132160 -75.834938 4 1
-65.806679 181.035000 -41.566582 8 1
-29.540569 213.015640 -61.367035 21 1
30.078499 120.357590 19.057465 35 1
14.661654 114.890650 30.262646 36 1
-14.358097 133.313450 -31.152378 0 0
-11.560264 59.441109 -2.542129 0 0
-60.203117 207.498500 -92.942520 38 1
-84.561745 169.982860 -35.577568 8 1
51.292252 131.564930 -46.651100 27 1
-87.903664 173.021420 -59.316940 3 1
8.623838 111.143690 -7.785279 35 1
-7.913779 51.847153 -12.594789 0 0
-47.432194 200.255050 11.911035 25 1
-0.035679 90.886673 28.683617 0 0
-1.846344 230.079210 -90.054657 34 1
-84.759064 169.960830 -94.319687 38 1
-8.153279 80.000435 -3.591198 0 0
-20.092751 142.562710 -13.374950 28 1
46.964710 118.464710 40.267967 40 1
6.175923 128.599040 -28.172089 32 1
-48.944328 82.194702 -21.362005 2 1
-76.924263 168.128560 -68.419891 3 1
-9.093925 1.416793 1.331133 0 0
-52.145294 220.935760 -57.647102 21 1
-6.566515 151.943240 -20.189228 28 1
52.346672 113.062130 -94.720978 12 1
-33.691917 134.539510 34.944077 18 1
35.467709 132.277010 -84.170036 12 1
-77.076172 163.008290 -29.358063 8 1
5.711744 228.047590 -4.724559 1 1
-36.807228 235.306960 -15.671853 20 1
-79.927467 228.782000 -27.545109 9 1
-29.507549 211.812440 -86.983261 38 1
-65.239731 174.118640 -63.688190 7 1
44.554249 115.689130 -11.619908 35 1
17.493814 249.882200 5.720107 1 1
-9.066995 146.346800 -63.060955 5 1
-7.977728 225.981370 11.534387 17 1
-12.277895 208.126110 -99.834679 34 1
33.733406 210.150600 31.405067 16 1
-7.537204 125.560120 -25.924868 0 0
-32.494884 215.858550 -95.375534 34 1
13.331637 119.551170 45.870255 36 1
5.253600 132.017620 -67.429413 4 1
-37.546741 124.261830 49.189354 18 1
3.242430 121.404210 45.331882 36 1
-47.395218 214.642550 -79.598373 38 1
12.084209 137.617770 -20.449224 32 1
-11.731202 207.789280 -113.957200 34 1
42.625298 133.586900 -33.600430 27 1
12.909781 112.790990 -24.376068 32 1
-5.863204 124.429730 -79.268562 4 1
-8.052088 35.007034 1.365628 0 0
-12.786245 100.724320 1.834811 0 0
-70.925056 71.955414 -44.569500 41 1
-47.552151 153.969860 -39.770298 0 0
-31.661417 210.104570 -76.449127 38 1
-50.032055 191.387920 15.324717 25 1
-30.915298 165.443310 26.440580 13 1
11.337041 210.390170 19.470539 17 1
-21.058187 144.951800 -18.708624 28 1
-31.060360 59.518200 -21.271341 0 0
-62.531525 175.252470 -34.630600 8 1
-30.132130 207.527280 -130.701170 23 1
-66.556198 228.156850 -34.482800 9 1
49.783478 103.389320 11.980510 31 1
22.907812 113.621740 -14.693533 35 1
30.414738 156.049870 44.894962 11 1
4.078910 126.573790 12.302571 33 1
-35.830185 227.080370 -34.200996 21 1
-42.761829 208.677260 -103.897320 38 1
-53.705765 133.775510 29.363354 6 1
-43.180645 139.935880 -54.373898 26 1
28.931795 219.923340 31.120363 16 1
44.532272 137.424880 -73.197815 12 1
41.885155 107.698360 21.015526 30 1
-41.802334 238.254960 -24.158522 24 1
18.181772 117.951870 -2.955373 35 1
-2.163444 71.444008 -9.445461 0 0
-3.151258 203.398450 22.760336 17 1
30.069893 222.745000 -14.567301 1 1
-62.997162 126.399920 34.167866 6 1
-53.689671 218.954760 -23.336515 25 1
-24.296072 214.507970 -18.022594 25 1
0.328857 125.416620 -34.108498 32 1
-33.824875 75.570541 -47.584904 42 1
42.771191 134.036330 -43.074139 27 1
-85.402321 160.321820 -29.546898 8 1
27.842972 242.049940 -4.298273 1 1
38.910095 125.171600 -89.694794 12 1
-19.893908 208.405270 -107.595540 34 1
13.355644 140.875720 -30.871389 32 1
-18.352989 168.136180 -12.235232 0 0
-21.773052 223.646380 -13.442060 25 1
25.572187 135.644590 -53.296906 27 1
27.238829 108.814770 0.610009 35 1
31.002924 227.911700 -2.716757 1 1
-6.088145 125.629940 -2.454594 0 0
-4.199342 100.395360 4.352990 0 0
-78.977402 194.332230 -84.023071 38 1
-71.504578 159.854920 -82.894684 7 1
-64.700508 169.102920 -23.750315 8 1
-10.511420 216.421080 -101.454250 34 1
13.526093 180.084110 66.806076 10 1
-17.414152 166.448230 -22.600679 0 0
14.069715 116.321990 -32.857960 32 1
-9.608109 69.659317 -0.360134 0 0
-67.032120 189.323620 -93.504929 38 1
-76.335030 175.326000 -66.109276 3 1
26.945032 120.676450 4.695959 35 1
-78.158279 211.976070 -61.480091 9 1
-2.786098 193.714220 -115.647430 34 1
-53.019615 139.639190 -53.079559 26 1
-16.530048 156.671460 -16.128248 0 0
-104.854390 153.104970 -80.758347 3 1
-29.228975 217.609130 -55.816181 21 1
-69.354691 182.940780 -89.803604 38 1
-3.395437 211.125000 -93.739456 34 1
-51.466858 218.960530 -63.099659 21 1
-67.208427 224.746310 -48.776382 9 1
-2.214565 205.881810 -100.774170 34 1
-67.912338 178.242870 -95.941414 38 1
-37.843712 219.035320 -30.318968 21 1
-30.511839 178.629610 -147.620640 23 1
21.918543 138.151490 -64.440239 4 1
34.231693 104.252810 61.288002 30 1
-2.214235 121.892490 31.250626 36 1
-39.758789 207.920620 -124.906910 23 1
-20.049612 140.387050 -22.581671 28 1
15.738474 247.371770 13.599700 1 1
44.762150 221.407840 3.148280 1 1
-62.742168 222.179840 -58.565460 21 1
-6.792293 134.069020 -66.354942 4 1
-56.980434 201.698440 -100.594830 38 1
26.500412 98.188377 14.903691 0 0
-19.149105 156.295870 -30.722828 28 1
-13.519583 87.600113 -3.552113 0 0
-47.603294 143.135180 -52.899025 26 1
-43.979008 211.150120 10.107720 25 1
-26.331249 197.697940 -139.051280 23 1
35.233528 138.649430 -66.948334 12 1
39.749107 217.273060 -13.117034 1 1
-56.876183 127.817970 23.894400 19 1
-42.963272 224.025390 -37.915810 21 1
-2.577621 209.881210 -107.283390 34 1
-60.359146 195.591160 -98.321487 38 1
-6.613149 146.339690 21.165405 0 0
38.418346 120.455500 -95.504913 12 1
20.984169 139.058900 -45.159065 27 1
-53.046974 143.643330 -86.558914 7 1
-14.473530 176.087040 24.575382 13 1
34.358040 107.318680 36.384655 30 1
11.397675 128.006770 -73.443489 4 1
-29.696850 182.313770 -18.069864 0 0
-40.774384 219.109950 -48.090015 21 1
-48.211075 235.758910 -28.552282 24 1
-39.306198 192.731870 -136.215210 23 1
-3.792454 218.919780 -90.644211 34 1
18.317783 112.047870 -4.740232 35 1
-21.425213 219.361270 -89.353203 34 1
-7.542378 166.246170 27.479959 0 0
42.851387 113.959690 23.029533 35 1
62.570770 116.220120 42.896324 40 1
-14.827394 240.941600 -9.562095 0 0
21.776140 116.620640 42.013584 36 1
-36.068260 207.670460 -94.693619 38 1
-14.179745 148.176800 -25.938784 28 1
-77.379951 207.241330 -78.312332 38 1
-32.494663 111.784910 24.425043 0 0
-8.506664 179.409390 30.896029 13 1
-5.039230 28.717657 -1.037392 0 0
-12.832732 109.485020 -6.282097 0 0
-8.255559 128.760210 -37.188114 32 1
-104.374470 198.442320 -57.013805 9 1
24.599720 229.065840 2.019340 1 1
-14.623111 139.083950 -31.911310 0 0
-44.506081 188.218200 -136.703540 23 1
-32.780163 222.429780 -55.208176 21 1
-17.730234 84.323761 12.142224 37 1
-32.552490 221.722890 -46.390804 21 1
-44.262238 174.283100 -143.217860 23 1
-13.298708 173.211990 43.303806 13 1
2.134329 235.755360 -1.850872 1 1
17.392891 108.971440 -29.319744 32 1
-71.107109 172.332840 -42.438339 8 1
6.754135 140.201110 -30.303801 32 1
-33.280094 184.848240 -144.066300 23 1
-6.414246 155.453990 24.682558 0 0
-16.945332 113.028220 -11.335883 0 0
-25.962889 174.264330 -15.902567 0 0
-7.950414 152.311870 -58.470886 5 1
-42.604664 155.045170 -78.075310 7 1
-55.054462 212.873380 -57.448616 9 1
-13.824038 83.449768 47.086803 15 1
-43.723408 137.715420 -85.930763 7 1
-58.841824 217.158740 -44.918816 9 1
-1.360662 96.697723 -23.808170 0 0
-53.049488 80.306725 -29.842470 2 1
-5.589504 208.283510 16.108845 17 1
1.505543 133.183470 -71.308395 4 1
-56.500904 227.109620 -23.130587 24 1
-62.407860 180.388150 -94.979660 38 1
-34.176250 217.975160 -16.914146 25 1
-39.614193 165.948550 -144.456600 23 1
24.035414 243.229450 -8.252588 1 1
35.943504 136.311610 -39.227337 27 1
33.498436 235.897030 23.518887 16 1
-51.047573 221.167970 -15.085023 25 1
-9.492761 210.889690 -109.989530 34 1
-57.708618 216.761060 -20.271168 25 1
4.564557 233.941300 5.696738 1 1
44.117081 131.318050 -26.368988 27 1
-90.855705 208.993030 -55.010529 9 1
-7.517856 81.872231 19.782106 0 0
19.013811 102.111370 20.077919 35 1
-90.863991 166.340130 -70.774948 3 1
16.796429 126.877100 -75.807442 4 1
21.530373 236.357240 10.607368 17 1
-23.607092 220.092100 -96.122917 34 1
-64.473015 218.579530 -11.878795 25 1
-53.339317 199.431120 -105.545090 38 1
43.581165 221.959980 24.232586 16 1
-26.614166 102.405230 21.468868 0 0
-10.068705 120.643680 6.548849 36 1
-12.908245 76.443619 42.461605 15 1
33.134861 223.639370 -9.402099 1 1
-2.845687 114.306990 31.945339 36 1
22.034332 207.303910 41.456631 16 1
-39.139492 132.562550 39.217426 18 1
-96.911919 155.962330 -86.716347 3 1
-26.581993 137.023150 -17.143206 28 1
1.513355 212.799450 14.578962 17 1
-14.803603 153.435320 -57.290070 5 1
-35.246395 173.945390 -144.409290 23 1
-38.727917 205.789200 -85.982552 38 1
-45.129227 215.916980 -7.833260 25 1
31.516323 141.256700 -21.332764 27 1
-3.284834 114.786910 10.357697 36 1
40.857914 213.501540 24.709017 16 1
35.930172 221.158950 -18.147024 1 1
48.621555 116.084950 30.072649 40 1
-10.677896 69.084343 31.271120 0 0
43.652100 116.998050 1.218030 35 1
-27.975878 133.156110 40.046146 18 1
-34.217846 223.162870 -0.546119 25 1
-11.456131 93.309143 -24.798508 0 0
-46.795929 80.269760 -42.564438 42 1
-57.232380 220.688100 -14.315990 25 1
-8.012077 221.289520 16.831306 17 1
-14.122289 52.573853 -13.894804 0 0
22.054031 130.183240 31.851366 33 1
-55.277214 161.791760 -80.363792 7 1
32.334591 105.257640 17.336414 35 1
-85.809837 171.036130 -64.717361 3 1
-18.746595 172.639650 -20.483364 0 0
-6.787096 9.391187 -2.112506 0 0
6.184629 115.481470 -16.967731 35 1
26.063301 104.469310 19.938129 35 1
-0.162144 205.817660 -110.786190 34 1
-6.562367 119.566610 -83.773575 4 1
-36.467045 161.370380 44.721210 13 1
2.240414 182.006180 29.166298 11 1
15.013458 127.499450 -21.158009 32 1
-71.377571 161.038010 -19.174509 8 1
-52.565094 174.938540 -56.101376 7 1
-30.047125 204.723130 -77.074722 21 1
-69.358734 214.557720 -78.106407 38 1
-80.899231 171.735080 -90.938316 38 1
-86.604744 166.287060 -40.925426 8 1
-60.144524 225.176160 -32.040085 9 1
-56.711468 123.747330 15.587046 19 1
-51.699299 173.357640 -139.415250 23 1
-41.758102 229.637880 -40.155769 22 1
-70.268738 217.178700 -43.267258 9 1
-29.430059 78.509880 -42.389023 42 1
-53.481239 73.544434 -44.347446 41 1
28.050205 132.728520 -29.721233 32 1
18.322800 138.324370 -54.493690 4 1
-66.574509 176.383710 -52.399765 8 1
32.696575 229.800230 -13.788423 1 1
9.168261 202.408310 -102.302670 34 1
-7.465570 122.172940 15.634270 36 1
-8.125764 211.939910 20.683975 17 1
-73.057785 207.462750 -81.743622 38 1
-67.796730 221.615740 -55.796867 9 1
-25.130617 220.828160 -22.979820 25 1
-30.927324 153.941600 -53.323277 26 1
41.025383 136.523620 -23.427341 27 1
-11.739497 63.312302 2.798223 0 0
-94.901451 157.331120 -33.537636 8 1
-37.378765 142.475520 -34.138153 26 1
-44.884029 169.435380 -68.624611 7 1
32.183090 101.753400 34.632790 30 1
21.776663 176.636230 17.320118 11 1
-11.922565 103.477800 -30.113945 0 0
-54.068634 181.928940 -100.844990 38 1
-2.759442 84.294899 12.810135 37 1
-32.103413 167.428620 41.580429 13 1
-46.131298 141.456020 -59.314289 26 1
-52.669941 135.679920 -86.920387 7 1
20.642399 169.116810 52.080330 11 1
0.189783 151.414810 -60.578934 5 1
10.110760 134.105360 30.880520 36 1
30.985468 141.416500 -35.295650 27 1
-57.755951 221.834000 -54.793991 21 1
-47.759529 132.882400 26.125584 19 1
29.666731 161.881120 51.850018 11 1
-74.966988 155.994900 -19.246973 8 1
39.855064 226.044660 20.437426 16 1
-88.812424 214.341090 -42.422733 9 1
-57.988735 172.260040 -56.193287 7 1
25.978981 228.307750 -15.259380 1 1
-55.982647 213.441940 -1.223378 25 1
-5.566668 217.276370 12.450916 17 1
-7.857009 142.392120 -16.898180 28 1
7.957381 183.191570 58.348152 10 1
-77.264320 176.364150 -93.262474 38 1
28.490738 162.793880 28.853548 11 1
-29.279247 197.385820 -133.903260 23 1
-39.649445 210.005260 -80.722031 38 1
-74.852425 186.989620 -83.987381 38 1
11.119759 133.364230 -70.555069 4 1
-8.017240 53.817883 4.543182 0 0
55.912277 104.767010 11.185995 31 1
-10.557479 74.940216 -0.977986 0 0
-24.018461 186.853500 -43.795559 0 0
-67.356941 167.947460 -59.805687 7 1
-66.879791 219.850920 -38.152828 9 1
-19.458443 72.387276 2.197456 29 1
1.560001 197.511810 -108.325650 34 1
-50.527271 215.372500 -9.362969 25 1
-41.306797 144.390050 -44.413776 26 1
-12.575322 83.826134 -26.450644 0 0
-73.977730 224.511660 -37.123318 9 1
25.017597 126.410950 27.858418 33 1
-102.463820 203.912450 -48.638538 9 1
-57.067848 131.065230 41.010704 6 1
-46.199516 145.015030 -82.907600 7 1
7.146172 116.138560 44.321072 36 1
34.946686 136.146960 -74.071632 12 1
8.245543 197.469960 -114.215040 34 1
-96.827110 164.117130 -69.436707 3 1
-85.310593 216.400790 -57.470394 9 1
17.071419 179.613170 17.519789 11 1
-11.207870 67.487907 -7.833712 0 0
-63.484852 62.103970 -55.309067 41 1
2.247443 79.272575 44.383591 14 1
24.538786 169.253020 77.915932 10 1
52.850258 117.725360 35.938263 40 1
24.345968 140.514820 -59.275539 12 1
40.758820 132.688950 -81.725807 12 1
-34.967197 219.162830 -5.243062 25 1
-52.691895 222.661120 -46.994576 21 1
38.663872 224.203960 -9.394756 1 1
11.921508 111.234560 9.324060 35 1
-6.453785 111.845850 -32.495262 0 0
-61.434834 193.863190 7.102521 25 1
-12.943647 233.429900 -15.557542 0 0
-42.459957 237.020720 -8.631253 20 1
-68.520096 192.103870 -84.298103 38 1
10.188918 201.252960 -110.985800 34 1
28.968637 140.741970 -50.106457 27 1
29.222546 136.474110 -76.261063 12 1
-49.412224 168.099060 -60.940285 7 1
5.440103 115.570410 16.539904 35 1
-12.193799 171.007840 -21.118959 0 0
12.278284 141.479450 -56.848820 4 1
-11.235003 178.670820 35.496346 13 1
-7.544164 57.850906 -10.176114 0 0
-36.657188 215.848180 5.237371 25 1
-31.052980 120.185170 59.175343 18 1
24.382627 229.735110 -9.295864 1 1
66.522873 120.182190 26.796211 40 1
21.443695 220.793400 23.659990 17 1
-40.411758 205.335370 -97.548874 38 1
-35.423401 207.114650 -121.951120 23 1
-2.707272 106.866140 26.829575 0 0
15.446708 124.373100 -25.420801 32 1
54.847813 99.533562 -5.741634 31 1
-40.565838 136.431610 23.628117 19 1
53.113644 117.201930 -3.812678 35 1
-68.408348 66.386261 -49.018745 41 1
52.048607 98.866951 0.111655 31 1
-27.739290 191.871810 -139.118260 23 1
-65.572243 75.267578 -43.007042 41 1
-12.715591 222.009320 -21.263250 0 0
-43.900887 172.733570 -61.877296 7 1
14.683679 221.629810 15.955696 17 1
2.741542 241.008830 2.959815 1 1
-33.411930 211.973220 -25.397827 0 0
-8.061333 114.288830 1.858401 0 0
-25.936216 83.743187 56.223351 39 1
-57.322685 168.209400 -63.106415 7 1
30.400688 127.100310 -91.792229 12 1
-6.721726 222.935270 -93.812752 34 1
33.409332 225.240520 25.552929 16 1
-49.084274 220.029500 -6.699312 25 1
-32.753948 156.636900 -43.482887 26 1
-1.325563 179.080520 32.885185 13 1
14.506089 243.550520 -10.648870 1 1
42.209103 201.252640 30.205076 16 1
21.062601 162.928590 85.497032 10 1
35.619667 113.926360 44.772720 30 1
-42.579765 149.671710 -38.187607 26 1
63.371376 114.312360 54.690090 40 1
-39.752850 199.086320 -125.143220 23 1
-13.832060 131.755170 -11.099757 28 1
-3.637031 139.851270 -71.849686 5 1
-55.256916 121.922390 7.725726 19 1
-50.668465 165.427000 -76.378944 7 1
-64.987335 174.415070 -47.714302 8 1
-28.360910 117.335340 28.388388 0 0
-83.399437 168.752380 -30.589952 8 1
23.189547 164.050220 47.942062 11 1
-62.275368 191.161530 -127.597210 23 1
-20.473930 50.222626 -13.995130 0 0
-55.368610 207.858020 4.027281 25 1
-44.877426 220.115920 -88.321075 38 1
-53.748775 216.279160 -48.347267 21 1
-62.096363 178.469060 -44.455769 8 1
-2.762075 180.738970 74.796555 10 1
-40.691261 196.915310 -132.617650 23 1
-21.672005 170.451480 30.642719 13 1
31.371288 162.293120 44.963348 11 1
-40.766735 65.222618 -56.187393 42 1
-58.669430 172.724490 -138.259930 23 1
-28.420116 80.810471 65.734657 39 1
-51.978550 208.913360 -100.624000 38 1
-63.085701 126.403850 49.678131 6 1
-90.772125 163.255810 -32.887466 8 1
-118.887970 155.082990 -67.900726 3 1
7.355277 216.069950 -93.932884 34 1
-88.034698 151.110470 -25.540474 8 1
65.430351 118.465850 36.102425 40 1
-11.766151 141.847600 -68.685616 5 1
25.015818 234.691770 -18.705790 1 1
2.766608 117.300290 -0.648699 36 1
-13.807334 81.548775 39.758457 15 1
-12.230163 200.091380 -114.125990 34 1
-7.372010 59.648445 28.124670 0 0
-66.857170 179.066470 -33.694927 8 1
-100.301920 169.842770 -68.291649 3 1
27.231688 114.495360 -20.848087 32 1
-45.734924 212.391910 -63.094364 21 1
-41.753609 207.557280 -118.921430 23 1
-1.839224 116.687730 -84.121063 4 1
-39.553467 148.855090 -52.383572 26 1
42.481857 216.244460 -3.289095 1 1
-22.887352 67.440872 -4.776371 29 1
-8.318322 137.854520 -14.286742 28 1
24.161116 240.083360 26.717680 16 1
-32.918804 228.116700 -9.598373 25 1
-9.076920 42.201347 9.431236 0 0
-31.451233 211.418140 -70.859848 21 1
-16.792778 149.082980 -8.815371 0 0
4.506090 235.482330 26.738062 17 1
39.811516 227.306700 -2.602857 1 1
20.226244 109.946340 4.071346 35 1
-13.292356 154.832340 -25.167469 28 1
-12.847258 65.776398 18.491705 0 0
-66.309486 199.246700 -91.742271 38 1
8.256614 135.738940 -61.223396 4 1
-16.026848 241.067340 -14.753448 0 0
10.273865 213.484830 25.065897 17 1
36.803085 193.133330 35.709900 16 1
19.195446 119.762180 1.843192 35 1
7.619887 97.004379 -6.836140 0 0
-6.751711 58.444698 15.108696 0 0
31.540918 154.748370 39.969036 11 1
-75.459412 228.726350 -30.539280 9 1
74.142746 107.176710 54.274986 40 1
31.365219 140.549070 -59.834297 12 1
-19.257078 79.796158 68.515099 39 1
9.838283 211.520190 -95.515488 34 1
-9.622021 126.786760 -32.597565 32 1
-41.295822 233.049710 -33.959614 22 1
46.911640 131.049610 -37.522640 27 1
55.770424 115.605160 50.451126 40 1
-81.093964 155.174120 -22.350971 8 1
-106.940310 144.285610 -88.367348 3 1
-109.516080 164.048630 -62.615143 3 1
-50.417866 79.869446 -38.902203 41 1
-55.348618 221.491120 -79.971283 38 1
-8.076735 84.864815 24.345751 0 0
-33.191750 136.789460 -27.419708 0 0
-5.370083 128.017040 13.779297 36 1
53.529381 117.808670 -11.250038 35 1
-10.064378 53.414131 -6.924067 0 0
-4.949184 59.575958 6.099350 0 0
10.882711 235.628010 11.681526 17 1
-114.143360 142.343250 -85.660706 3 1
38.593620 116.425440 18.010197 35 1
-84.152473 212.312210 -53.111580 9 1
-40.981792 149.105450 -47.115578 26 1
-2.609697 165.353290 25.599131 0 0
-56.679356 189.607150 -101.913280 38 1
-37.101162 209.948140 -66.224869 21 1
-81.205315 223.570450 -34.199337 9 1
-34.528503 190.519580 -140.281050 23 1
25.944828 128.613200 -21.045055 32 1
4.896062 113.604630 2.250298 36 1
4.854698 182.693020 68.421028 10 1
1.313618 59.612705 5.619375 0 0
36.223351 117.551030 7.206682 35 1
-42.892345 220.777190 -33.197281 21 1
-54.522209 230.679310 -26.554504 24 1
-26.605389 78.498741 46.767628 15 1
-75.626083 190.935760 -87.241394 38 1
31.498234 242.119510 12.545955 16 1
55.917423 94.643501 -8.422347 31 1
-58.299820 163.805250 -73.250908 7 1
-17.642275 85.624321 60.483936 39 1
40.108421 212.550810 -15.583449 1 1
22.418047 122.141980 11.601299 35 1
-101.181630 167.414730 -58.670441 3 1
-0.588068 184.713850 54.500820 10 1
-14.672340 148.676250 -14.377327 0 0
10.592751 138.653720 -40.063019 32 1
-7.909211 82.281784 50.048477 14 1
-6.415596 102.835320 31.461357 0 0
-46.167068 221.397870 -82.356529 38 1
-21.398731 172.770980 46.970490 13 1
-41.751766 220.368230 -59.695782 21 1
-4.651361 180.914950 82.312454 10 1
-36.966412 219.909350 -93.680367 38 1
48.263203 133.930970 -41.768494 27 1
-8.963306 26.632269 1.528277 0 0
-17.827946 75.938431 -1.706907 29 1
-0.734951 79.102348 -7.725803 0 0
20.308538 229.308750 -3.019994 1 1
23.585867 120.046280 45.825214 30 1
-35.112671 170.012370 -147.810750 23 1
33.876785 116.216200 -14.125046 35 1
-19.100555 147.916580 -27.413305 28 1
-9.233507 203.786000 -23.188986 0 0
27.698254 238.321590 15.623503 16 1
-5.280267 3.349695 -1.485095 0 0
70.487572 113.475290 48.969715 40 1
-47.402264 144.765660 -46.409870 26 1
-31.685820 215.386990 -110.745380 34 1
-71.602463 170.726550 -70.147438 7 1
-89.057739 158.837110 -89.416229 3 1
6.529414 125.996600 -21.567154 32 1
-53.047203 173.513870 -66.020470 7 1
-13.183142 57.733494 -15.484401 0 0
-38.572857 199.934540 -75.936768 21 1
-19.671993 174.314900 39.703056 13 1
13.101494 207.362320 -102.829380 34 1
-61.068542 225.508180 -49.174641 9 1
-81.643784 167.350660 -42.909695 8 1
-7.134375 135.684780 17.876720 0 0
-32.258644 221.086850 -30.270378 21 1
-75.974129 217.847400 -60.735531 9 1
-32.540466 204.662580 -23.965752 0 0
-85.041382 185.493160 -83.600533 38 1
49.420444 118.934590 45.197445 40 1
13.886598 136.887070 -64.550194 4 1
-40.283924 177.595350 -143.247220 23 1
43.725948 206.423810 28.397062 16 1
-30.190968 206.270220 -84.175888 38 1
-10.918241 74.992325 -6.058166 0 0
-29.073208 171.753300 29.912661 13 1
-44.782940 200.935990 -123.173230 23 1
-9.316811 52.752232 20.554680 0 0
25.334787 226.903170 34.948555 16 1
15.117334 109.981740 25.522850 35 1
-105.648660 199.568240 -51.861298 9 1
26.324553 132.524640 -88.015930 12 1
-51.979462 193.970140 -131.122210 23 1
-50.457649 190.555160 -99.638191 38 1
-62.100506 184.560530 -134.299530 23 1
-33.837620 150.487580 -50.505550 26 1
-11.266755 91.550453 18.993994 37 1
24.729799 124.674110 -25.044342 32 1
-105.754700 166.439120 -56.441013 3 1
-74.396965 173.873580 -59.426430 7 1
-0.037838 127.223410 -40.451523 32 1
-20.755716 145.829270 -9.545111 0 0
34.250195 139.453900 -45.018681 27 1
22.086521 141.291350 -49.582993 27 1
13.553627 122.203060 -33.370487 32 1
-49.966595 207.041410 -74.357727 21 1
-16.931164 113.108410 2.137108 0 0
-66.669914 220.449260 -18.868679 25 1
-12.846410 205.553190 -18.043152 0 0
14.654809 232.907490 29.327118 17 1
-50.985996 168.019100 -143.851910 23 1
10.141880 127.896930 -41.497284 32 1
-31.078808 213.002090 -82.272522 38 1
-42.562263 79.958275 -36.068287 42 1
-34.628563 198.011340 -129.515500 23 1
12.432095 176.101100 41.134117 11 1
6.655488 203.340620 24.099344 17 1
-44.837471 213.310640 -69.116127 21 1
-24.423208 191.062700 -53.420193 0 0
-28.867634 164.863530 45.706078 13 1
45.951820 136.911450 -51.217720 27 1
-11.112037 174.116910 37.692692 13 1
3.317948 225.020170 -14.114735 0 0
-37.661942 72.376350 -46.869526 42 1
-47.600765 199.528490 -102.484740 38 1
-49.383961 198.985280 -123.848220 23 1
-47.712433 210.381880 3.052633 25 1
-41.740749 144.410810 -39.089760 26 1
17.931475 233.967740 8.010984 1 1
-24.512236 170.468380 50.470909 13 1
-19.440399 154.204800 -45.145081 5 1
-3.492685 174.659610 30.294756 0 0
-42.749901 74.749039 -42.092690 42 1
-115.454130 146.724910 -77.774391 3 1
56.590572 118.084270 27.278187 40 1
-49.069683 163.006880 -68.954315 7 1
27.966824 107.878540 38.584957 30 1
21.627777 119.826480 -14.380005 35 1
15.327729 109.396720 47.903957 36 1
57.547264 121.348400 -36.585022 27 1
-103.361900 158.306300 -72.065269 3 1
-49.665092 221.965180 -21.367165 25 1
-6.059776 201.627900 -106.696650 34 1
27.693678 103.533560 15.274965 35 1
27.573570 234.636080 28.848194 16 1
-77.843880 212.188080 -56.403942 9 1
-46.274910 215.969330 -94.749397 38 1
26.788614 130.418000 -38.430073 32 1
2.021714 216.027220 -97.794800 34 1
17.536688 178.683180 64.130997 10 1
34.941879 128.242980 -89.834030 12 1
-36.280621 239.062350 -20.239178 20 1
-34.310017 218.141020 -104.156640 34 1
2.254530 88.894913 -8.553063 0 0
5.357639 119.448090 -83.886940 4 1
-23.545670 83.615738 61.116386 39 1
2.199363 199.818570 23.947268 17 1
-59.549805 178.479290 -55.928581 7 1
6.490011 115.799930 35.126400 36 1
-0.896378 224.988980 -89.764267 34 1
23.147820 94.731155 10.773313 0 0
-61.538933 157.074710 -82.650963 7 1
15.232697 229.368620 -5.619745 1 1
10.644283 111.942230 -2.739340 35 1
-40.571156 237.810520 -13.513147 20 1
-37.508282 218.153240 -10.955445 25 1
8.825375 174.544170 80.283325 10 1
42.040897 106.775630 14.768737 31 1
-19.309572 176.331150 23.150517 13 1
-59.381073 76.285439 -17.495007 2 1
23.310230 136.960710 -31.306356 32 1
31.940908 239.683430 20.633699 16 1
-41.276646 183.613530 -135.180650 23 1
-5.435883 89.866478 -23.119757 0 0
-76.171753 198.335300 -78.853584 38 1
-23.484116 211.431090 -98.845940 34 1
-93.746033 159.667800 -79.687874 3 1
-3.661052 238.445940 8.138469 1 1
25.478271 168.601460 46.688175 11 1
45.178883 105.109220 5.345950 31 1
-20.683081 227.620000 -19.473286 25 1
-0.389413 184.465530 61.316250 10 1
-73.588509 166.396900 -65.099525 3 1
17.772270 226.585690 2.438801 1 1
-94.697609 213.494930 -39.610809 9 1
-62.714741 203.347500 4.644126 25 1
3.760529 206.819490 17.525034 17 1
60.749157 116.439130 51.035522 40 1
-8.899219 73.028252 19.686184 0 0
-46.395531 188.305500 -131.806200 23 1
26.188921 139.685290 -71.770081 12 1
-94.971748 199.424650 -61.205296 9 1
-10.344679 176.163600 27.591888 13 1
-87.808983 158.563720 -83.925293 3 1
-2.819474 158.861430 -45.774014 5 1
-12.411731 180.604400 -18.547115 0 0
30.938292 114.043030 52.535919 30 1
-4.189262 111.538310 3.319542 36 1
-21.043751 228.020680 -88.356750 34 1
6.814880 178.109270 73.543228 10 1
-39.426510 220.963040 -43.679714 21 1
51.282951 107.554810 14.293001 31 1
-52.827633 80.091682 -24.102978 2 1
-51.501793 158.427920 -81.604286 7 1
-7.072496 89.058594 20.808119 37 1
-21.436728 157.194380 -36.513668 0 0
-5.489888 121.027640 -0.253686 36 1
-43.853085 234.636400 -21.391769 24 1
-39.603626 217.408510 -52.634964 21 1
-25.122711 152.969500 -34.632069 0 0
-13.483165 126.496400 -5.422630 0 0
-7.325396 112.047960 28.878084 0 0
-29.442350 225.787430 -26.413946 25 1
-71.159454 167.308960 -23.950218 8 1
-7.205215 45.602852 14.784247 0 0
57.842190 118.576230 41.720726 40 1
-72.060944 203.134930 -84.689278 38 1
-102.307080 157.439220 -78.791519 3 1
-68.392380 202.496440 -88.334412 38 1
-15.907311 122.248100 -29.812466 0 0
-10.858458 135.813190 -10.571827 0 0
-31.761419 221.329450 -97.568481 34 1
16.318033 180.253830 59.589661 10 1
-76.644325 217.299700 -41.272690 9 1
-46.211002 223.809520 -47.739971 21 1
-24.523024 126.983090 44.422535 18 1
-59.486942 177.596420 -98.181038 38 1
-54.469025 150.305250 -86.120186 7 1
23.132696 113.540750 -5.044658 35 1
-46.261379 67.495430 -54.243225 42 1
-69.047569 116.570720 44.007984 6 1
-29.255428 168.352160 22.819380 13 1
-33.992645 233.770520 -34.747272 22 1
20.749994 174.498090 70.988960 10 1
-69.904190 168.321840 -51.884644 0 0
-39.010078 160.063190 37.310257 13 1
-27.424131 125.906560 50.213547 18 1
-61.510708 169.478200 -49.641132 0 0
-79.135483 169.326260 -27.823025 8 1
-22.876432 122.438950 -5.991969 0 0
34.551182 106.810590 21.845137 30 1
-41.568794 203.894490 -127.327090 23 1
-37.181889 225.377790 -25.082077 25 1
-38.941662 236.141660 -41.661636 22 1
46.833588 110.817600 17.705902 31 1
-110.868260 158.623380 -66.204475 3 1
-44.149548 70.339340 -48.463936 42 1
26.153296 168.671100 39.195225 11 1
52.992355 100.904750 8.828025 31 1
-13.989235 155.609420 -33.510204 28 1
0.455500 122.008920 36.399059 36 1
9.148884 106.279060 -8.216588 0 0
-44.752682 205.995700 -75.914001 21 1
29.881411 106.063930 33.731976 30 1
-62.231682 190.977430 -87.683586 38 1
-39.236923 214.275220 -67.676620 21 1
-10.619767 155.831940 -50.203358 5 1
-9.224569 210.325810 -92.472321 34 1
41.615051 218.042680 -8.644714 1 1
3.744654 134.501400 35.042614 36 1
-78.751419 202.549440 -77.916519 38 1
12.446274 134.705960 24.364246 33 1
-85.955376 208.253570 -62.033379 9 1
-8.952304 97.426292 24.230055 0 0
-31.137300 232.734630 -22.220844 22 1
-31.336874 223.186980 -9.956002 25 1
-21.244560 222.961200 -25.056202 25 1
-45.974472 221.552780 -55.309574 21 1
-31.928238 193.280030 -134.647380 23 1
-69.076790 224.772810 -43.968731 9 1
-17.495131 155.227710 -52.458031 5 1
-50.739162 207.989810 -120.802510 23 1
-65.415482 162.899090 -81.100586 7 1
34.768715 230.032500 5.453797 1 1
37.893520 216.693450 29.484116 16 1
-25.698967 159.551270 -40.048576 0 0
18.687094 134.534180 -69.735062 4 1
-24.907488 146.096830 -6.498775 0 0
-96.152725 209.388870 -46.073433 9 1
-34.861187 162.561160 33.164291 13 1
-47.761742 151.435490 -81.311752 7 1
-2.783474 241.903690 14.638094 17 1
17.939056 194.281480 -111.011540 34 1
-11.598783 82.893288 -1.712108 0 0
-9.283336 120.579000 -9.026117 0 0
19.714897 223.589750 16.390001 17 1
-48.556915 230.622280 -22.139750 24 1
-54.278934 221.821090 -84.827034 38 1
41.598965 114.184650 4.628043 31 1
-53.118828 168.847820 -73.879845 7 1
-2.822733 120.040470 22.423183 36 1
-10.946306 93.927338 2.896687 0 0
-52.343948 210.611430 -2.799916 25 1
-6.456241 91.239845 25.977079 0 0
-20.390659 134.036940 -19.807232 28 1
-52.084419 135.962230 -58.171322 26 1
-16.073421 134.666730 -7.760437 0 0
-50.236118 124.267700 10.599667 19 1
-8.785327 21.262556 1.570073 0 0
-68.096558 125.964650 34.085243 6 1
15.682220 178.333080 25.373684 11 1
-28.131994 225.342250 -38.424580 21 1
-89.581741 154.439180 -28.750002 8 1
14.615576 247.212860 2.778232 1 1
-21.749926 219.259480 -57.135105 21 1
-29.791725 71.383423 47.360382 15 1
31.071114 135.139080 -35.938606 27 1
-92.041206 204.545120 -60.059967 9 1
-19.010902 140.951450 -8.903107 0 0
-78.862869 174.545170 -61.930298 3 1
5.979540 208.675960 -96.819336 34 1
-63.158192 186.454760 -96.462837 38 1
8.343630 112.493000 -32.844196 32 1
-26.239544 215.405590 -94.216133 34 1
-39.435863 147.229830 -82.771866 7 1
-82.243973 170.440260 -70.540115 3 1
-39.890629 217.951290 -26.065996 25 1
-10.806467 126.078380 16.513788 36 1
3.338600 178.270190 76.910225 10 1
9.351402 229.918530 28.293770 17 1
-6.250149 11.644858 2.137759 0 0
-65.610344 210.811550 -86.088699 38 1
-5.051509 34.501141 -2.396154 0 0
-12.098649 146.840970 -18.846748 28 1
46.513454 115.699760 -16.040585 35 1
-36.957195 225.683530 -10.669711 25 1
-30.574633 72.030678 -48.111015 42 1
-115.692570 158.731830 -65.789574 3 1
-68.457809 121.336810 43.463581 6 1
-43.556789 136.302510 32.825920 18 1
-86.453224 165.008700 -30.716467 8 1
-31.557550 216.709760 -63.742092 21 1
39.456997 109.657300 50.422199 30 1
-11.199792 129.662930 -73.830139 4 1
-10.937600 106.359240 -9.493360 0 0
11.724236 193.153090 -113.782590 34 1
-1.829584 147.427550 -65.668159 5 1
-81.325706 217.681610 -38.608307 9 1
-18.559635 205.659610 -116.349910 34 1
25.780666 237.284010 -13.615133 1 1
17.100397 134.858730 -47.255543 32 1
-10.057931 98.542809 5.635126 0 0
-42.729641 169.318360 -142.084630 23 1
-40.492470 225.872990 -33.964268 21 1
-30.838266 180.501330 -143.189160 23 1
-10.579413 114.703650 9.136613 36 1
34.905495 154.366040 44.407486 11 1
-17.277170 164.214050 -18.312147 0 0
-30.313799 108.225620 26.832327 0 0
-26.955547 187.177080 -142.739270 23 1
-56.067036 220.076170 -39.535133 9 1
-59.465134 200.777890 7.101808 25 1
8.526192 115.415660 21.579157 36 1
19.207964 174.052640 32.935001 11 1
11.721963 117.963890 -2.705401 35 1
12.208334 138.032300 29.016914 33 1
48.962196 130.407100 -21.241863 27 1
25.960501 171.778820 23.606951 11 1
7.657053 238.216490 -5.795994 1 1
-49.765850 217.320570 -0.935741 25 1
-12.362336 143.611400 -8.011045 0 0
26.708111 114.409590 -9.501980 35 1
-61.051594 169.155960 -140.520430 23 1
48.775356 108.732920 9.401781 31 1
-120.770360 148.903560 -71.862228 3 1
1.926099 178.622970 83.399010 10 1
-19.384125 118.088780 -3.955248 0 0
-13.977756 235.824390 -20.549122 0 0
-64.321449 216.335820 -58.963261 9 1
13.818370 171.202820 47.078159 11 1
19.212523 137.988460 -38.811897 32 1
-56.531170 214.678310 -10.682887 25 1
-33.696079 223.618800 -50.656029 21 1
70.027725 109.001390 58.541340 40 1
-16.939674 215.107730 -21.016520 0 0
-17.674326 86.752655 54.533627 39 1
-47.342651 219.837910 -31.243481 25 1
-22.664988 166.205180 -11.005703 0 0
-4.606505 125.713440 -38.683228 32 1
-8.863293 116.323270 -30.174070 0 0
-86.704666 217.331180 -45.864628 9 1
-4.432963 176.475650 42.757347 13 1
-36.182144 209.071080 -75.275848 21 1
-25.287638 212.761060 -64.517494 21 1
5.813149 65.146774 7.614633 0 0
45.708252 112.382270 49.392242 30 1
-57.844318 75.993271 -44.886375 41 1
-7.383403 61.744228 -3.360392 0 0
6.356382 218.178960 25.726957 17 1
34.136059 118.202190 20.361025 35 1
-42.454037 131.955520 45.131485 18 1
-12.531664 149.667210 -63.429325 5 1
-73.484886 167.711500 -60.167309 7 1
-99.957581 206.369870 -51.918613 9 1
-9.118443 119.025120 -35.291420 32 1
-87.543701 164.265500 -83.126488 3 1
50.543499 103.410320 17.403568 31 1
4.744493 131.624660 20.481956 33 1
