-52.700436 250.367750 28.445517 51 1
-85.191277 61.808571 30.181379 13 1
-75.619255 76.869354 51.220551 13 1
-57.482998 300.963590 -72.032822 8 1
-58.682098 312.484830 -55.033951 8 1
6.402463 180.781220 48.885441 16 1
-44.040825 187.514450 54.901466 55 1
5.966320 63.866119 68.322243 17 1
-68.273170 241.338300 20.988579 51 1
-118.651260 107.951610 -18.151289 45 1
-75.744179 76.732681 30.896240 13 1
-5.666314 156.150440 13.327078 0 0
-88.127800 284.168330 -28.336740 31 1
-61.058323 99.011757 -35.714855 24 1
-37.417221 142.270940 4.241447 0 0
-8.119996 74.070755 20.000650 0 0
-37.048801 46.737671 -81.448357 60 1
-45.045368 308.015350 -21.145052 42 1
38.314049 202.222600 44.942074 47 1
-16.975271 205.440890 51.061359 57 1
-108.468250 119.091510 -39.699364 56 1
-32.466282 175.419540 49.957108 54 1
-33.012630 312.752620 40.139473 6 1
21.094738 186.340850 27.624918 16 1
-61.787003 217.041320 14.503732 0 0
9.027587 235.497630 -1.628038 44 1
-62.902760 206.098540 -36.449913 0 0
-17.039761 141.574750 -31.851133 23 1
-62.173843 88.806076 54.668995 14 1
-5.926097 127.113520 2.923975 0 0
-42.418354 101.387830 -61.625278 2 1
-36.785362 160.880630 -5.092158 0 0
-7.067557 154.725140 -12.113966 23 1
-6.714404 216.897920 52.194050 46 1
-98.053467 240.780990 60.307545 5 1
-70.394302 227.389970 18.758953 0 0
-12.904319 179.378680 56.797642 55 1
-12.551628 170.925060 65.403908 38 1
-96.365471 230.286360 11.608775 29 1
-19.346508 241.810910 13.120569 44 1
-31.711870 327.707640 19.035112 6 1
-21.125269 196.480220 -47.525372 0 0
-38.728451 303.216640 -16.188562 1 1
-37.070087 184.441010 -34.034885 0 0
-22.569387 67.862709 13.831263 0 0
6.926451 72.340805 64.485031 17 1
-36.154839 113.121890 -66.854645 0 0
-26.671055 210.363650 11.661657 57 1
-37.014084 293.169250 -9.785060 0 0
-48.041584 300.324980 -27.149055 1 1
-8.304705 213.914570 27.720232 57 1
-5.970878 68.981277 23.162077 0 0
-16.240732 184.148650 60.886288 55 1
15.979485 94.452942 24.696775 35 1
11.347744 202.262650 17.492048 48 1
-94.883430 220.485340 -28.651129 30 1
-69.962486 98.172104 -61.928555 61 1
-135.109310 240.529210 0.072126 19 1
-63.768246 168.403340 72.964111 50 1
-55.761501 107.783380 64.271233 9 1
-29.646038 327.043400 0.688474 39 1
-19.525517 122.855350 2.977665 0 0
-54.587200 235.007130 35.014042 51 1
-32.359257 239.696140 -24.673979 0 0
-24.377905 182.354750 -6.217728 0 0
-61.945869 280.398160 -39.470818 1 1
9.954478 218.635350 55.902935 46 1
-16.652668 181.022170 8.122200 0 0
-55.817814 88.989006 45.321327 15 1
-49.625359 203.740340 39.150997 57 1
14.926026 216.798690 -12.670643 44 1
-76.890862 282.340480 12.172251 40 1
-61.703552 95.357140 77.023773 9 1
-82.888489 245.717530 19.837023 29 1
-27.812756 98.881660 -2.569750 0 0
-91.328835 238.952030 8.095640 29 1
9.475077 305.394990 -8.128284 39 1
-88.454239 236.857540 22.014975 29 1
-41.311714 172.762020 -39.175705 0 0
-63.626778 305.055420 -68.227852 8 1
15.318351 226.894930 -4.900161 44 1
-20.679741 249.826610 -70.785637 20 1
-26.331188 235.911480 -89.296509 20 1
-0.571051 123.248790 -0.356093 0 0
-15.735389 332.058840 8.103139 39 1
-83.882454 287.967250 -9.363354 40 1
-37.504017 148.329040 8.554009 0 0
-21.381552 229.358860 -12.930717 0 0
-62.851486 167.362590 39.137619 53 1
-66.448639 196.511660 31.120510 57 1
-46.530636 190.048340 -33.325306 0 0
-49.120461 306.521940 -25.664701 42 1
0.082770 160.315840 -49.485077 4 1
-39.226238 277.963680 -25.699352 0 0
-3.750263 153.581850 -31.155310 23 1
-111.465420 196.440170 68.939018 5 1
13.940800 280.638210 -29.418844 43 1
-24.430916 253.417970 -18.379793 0 0
-36.002403 134.980670 -29.599615 0 0
-44.055305 100.117500 -67.904160 2 1
-98.805466 283.480770 -25.988571 31 1
-105.075900 213.399840 9.510689 29 1
-61.721413 204.796450 12.806822 57 1
-17.469610 195.817050 57.645599 55 1
-30.273577 180.041840 7.149125 0 0
-0.163177 194.074480 42.132015 49 1
-20.418882 88.999878 10.806583 0 0
-19.308002 146.310330 16.719076 0 0
-54.483803 316.093480 -4.586797 42 1
-30.106260 37.800175 -78.494789 60 1
14.944169 76.663048 65.216721 32 1
-30.002010 284.784180 -9.044895 12 1
-47.776691 318.216580 9.203977 42 1
-116.517270 209.973140 -19.231895 30 1
-13.129192 226.325000 52.248566 46 1
-94.838242 244.662640 39.254807 5 1
-14.216297 75.170410 -5.811285 0 0
26.367785 178.400500 35.811199 16 1
2.335351 91.873878 35.545029 36 1
-17.359835 196.535900 16.353815 57 1
-31.981014 170.392360 -34.033401 0 0
-85.687767 92.798790 -55.758507 61 1
2.413677 79.238159 45.187931 33 1
-75.728020 76.271629 39.732815 13 1
3.693767 201.711980 22.795155 48 1
13.240950 163.313390 -36.817944 4 1
4.492268 211.349440 49.309814 57 1
-23.763622 186.001920 -44.563278 0 0
-72.112053 79.889595 58.738461 14 1
-51.919949 105.704560 -60.190269 25 1
-107.965550 286.459960 -25.884918 19 1
-38.468731 277.018980 -16.928686 12 1
-33.750763 78.670753 -23.685112 0 0
17.657188 206.344120 34.271004 47 1
-31.280525 121.733170 -59.802345 0 0
-55.775974 199.833110 4.117168 0 0
-22.063540 109.794450 -7.952811 0 0
-36.145260 85.241104 55.055405 15 1
-30.563723 314.987430 12.276615 42 1
-82.332123 69.423599 31.623623 13 1
-100.119020 110.966450 7.671336 59 1
-5.920553 124.559460 15.168599 0 0
-32.413555 124.108800 -38.551682 0 0
24.720890 210.669100 28.666206 47 1
-65.836143 259.803920 -3.651518 12 1
-45.613716 263.018680 5.008229 12 1
-32.737152 305.361360 -31.027929 1 1
-40.311768 319.664670 -8.997046 42 1
-24.074331 77.164345 8.941299 0 0
-58.007759 194.458540 -67.596413 26 1
-5.154236 235.930860 47.499077 46 1
-32.273247 182.608180 -14.205806 0 0
-18.850197 92.758804 -88.527351 3 1
-4.580735 280.221310 -36.100521 43 1
10.682301 184.043520 33.580917 16 1
-5.951691 43.044964 -1.057271 0 0
-20.315632 210.301180 48.615223 57 1
-43.814289 314.636810 -20.142118 42 1
-5.965402 189.397450 59.687954 55 1
40.504936 138.500720 10.910843 58 1
16.980463 147.164350 -68.945290 4 1
-79.711143 269.078190 -22.045702 0 0
3.279821 237.056080 48.914822 46 1
46.349224 207.406680 39.195034 47 1
1.272666 88.661797 12.600937 0 0
-55.428032 265.498020 -46.539780 1 1
-57.627068 284.321290 -26.344679 1 1
-64.323921 245.703200 27.375589 51 1
-53.860931 290.607820 -27.399448 1 1
-38.524311 97.838989 -87.679398 3 1
-40.832489 305.115880 -5.580633 1 1
-10.763989 155.260600 10.035111 0 0
-20.367786 82.935669 5.211263 0 0
-48.274990 90.702545 -82.870293 60 1
-100.859380 119.562930 -32.174805 56 1
-31.421356 229.649370 47.732891 52 1
-45.837036 244.212270 21.406614 51 1
-47.374790 92.643829 -66.420502 2 1
-59.701622 212.510760 -36.901592 0 0
-2.456121 161.647400 16.392405 0 0
-45.230522 309.118840 -3.431042 42 1
-18.132013 115.061920 -6.736246 0 0
-26.990042 236.833470 17.096893 57 1
-10.390324 155.762510 72.146523 38 1
-25.192848 220.434570 48.238583 57 1
-1.369786 243.202710 -2.964419 44 1
-137.777530 102.026130 -27.674183 45 1
-42.989220 282.709560 -11.057154 12 1
-12.840675 329.515530 -79.653030 7 1
-21.383183 202.458310 34.691925 57 1
16.154697 81.395760 56.114391 37 1
-75.757454 220.617430 -17.476263 27 1
-88.271225 89.119820 -60.090466 61 1
-42.104210 178.718140 -35.053200 0 0
-19.378708 170.975680 9.952091 0 0
-57.887173 265.578830 -54.086506 1 1
-67.924141 90.508308 72.362862 9 1
-24.360821 276.354680 -23.972540 0 0
29.574715 156.824690 7.261306 58 1
-37.900799 315.871950 -60.813072 7 1
-40.236347 295.245880 48.891357 6 1
10.988998 180.922160 42.731884 16 1
-37.424274 306.552830 -26.992357 1 1
-8.973421 13.894307 -1.294465 0 0
-26.173742 253.191150 -74.999084 20 1
-17.182421 160.666020 7.538647 0 0
-10.418756 191.505390 27.133638 16 1
1.337976 159.893190 -19.359499 23 1
-64.021698 84.842148 -25.594372 24 1
-65.967163 181.704450 68.299202 50 1
-53.117928 191.651250 37.769741 53 1
-44.088886 103.514290 63.023521 10 1
-69.009384 302.986760 17.239672 41 1
-98.446617 240.957960 48.816822 5 1
-35.477215 320.180050 -70.823013 7 1
-22.417206 233.691100 -22.817045 0 0
12.238954 305.530000 -20.789783 39 1
-55.607361 197.357480 -36.447689 0 0
-26.945581 58.185474 -14.028893 0 0
-56.227283 221.792950 47.905182 52 1
-39.441372 267.864500 -24.845020 0 0
2.605072 69.668015 58.381172 17 1
-10.462791 243.271470 18.327246 44 1
-76.341782 84.770203 57.013226 14 1
-71.890198 53.989033 66.883934 14 1
-40.215378 67.542023 -80.588081 60 1
-53.612946 274.358120 -35.049553 0 0
-8.186772 34.653690 -0.962352 0 0
-21.644049 221.246400 -10.144938 0 0
-118.001200 279.371060 -10.986111 19 1
-101.661680 232.830020 63.855728 5 1
-23.912312 130.985150 0.100219 0 0
-27.974323 195.746980 59.755230 55 1
-58.244938 177.187650 44.809277 53 1
-34.109112 244.039320 6.007423 0 0
-111.125440 199.295180 2.682985 29 1
-19.183104 327.783690 19.841867 6 1
23.419773 205.540180 1.146528 48 1
-18.879799 155.190930 16.714590 0 0
-25.292547 245.074130 -81.048347 20 1
-33.034927 201.491590 -21.418362 0 0
17.695877 84.721886 42.197662 37 1
0.507657 223.126910 38.659073 57 1
-43.653492 277.447420 -19.965286 12 1
-26.485830 245.607070 -14.512442 0 0
-35.572887 278.103970 -35.445118 0 0
-49.758411 198.170820 3.521913 0 0
-33.922253 145.323780 -14.371769 0 0
-8.105839 332.755680 -0.043213 39 1
-86.425438 273.713900 10.856638 40 1
-15.575565 150.391340 -26.610329 23 1
3.414197 187.582900 50.011265 16 1
-18.025408 327.378600 -0.400100 39 1
-36.865517 318.750060 -14.062427 42 1
-8.308059 28.106462 -2.175396 0 0
-100.710490 119.633800 -0.823900 59 1
27.227510 205.029170 39.144112 47 1
-13.189680 60.770748 17.088875 0 0
28.997091 165.089490 2.235404 58 1
-30.554804 301.495450 -26.204918 1 1
-10.695072 128.738460 20.110891 0 0
-46.098053 192.499310 63.779476 50 1
-53.328327 238.172530 -20.190845 0 0
-32.520386 168.242390 -7.146738 0 0
-85.933067 216.528530 -41.942688 28 1
-109.365510 119.644780 -31.296181 45 1
-5.660869 69.372635 43.807152 33 1
-9.747758 141.566060 24.981855 0 0
-29.746475 179.926470 37.840126 0 0
-42.107464 198.137190 27.919582 57 1
-20.598339 108.201620 -23.241228 0 0
6.161724 165.217470 -0.856982 58 1
-11.597085 201.915820 48.594563 55 1
-52.377399 213.864880 21.723236 57 1
7.987862 196.929530 41.031532 49 1
-28.835894 150.545960 -21.349361 0 0
-68.044777 71.907753 62.440907 14 1
-11.076603 333.204710 -8.290107 39 1
-52.805172 311.987180 -19.886154 42 1
-27.553373 306.951540 -20.955339 1 1
-75.258179 288.000890 -74.305489 8 1
-25.038404 331.976260 10.585204 6 1
-12.615450 51.892292 0.086523 0 0
-111.931500 202.807040 69.901993 5 1
-30.179356 226.254150 -86.946251 20 1
0.789624 310.614410 -3.643380 39 1
-40.357052 220.187480 51.147675 52 1
-103.545780 212.091770 -29.828083 30 1
-41.157925 300.619510 42.920368 6 1
-70.124687 100.631200 -50.478275 61 1
-32.817135 229.794980 -44.489216 21 1
-24.605761 317.483150 -20.263729 42 1
-17.335732 231.007050 21.062536 44 1
-55.264557 186.485890 39.785454 53 1
-56.174149 191.982710 67.153816 50 1
0.623864 239.054780 -7.741554 44 1
-115.816850 206.300780 62.788769 5 1
1.474122 197.002940 34.347584 49 1
-36.113865 223.004260 -20.601999 0 0
-8.383765 246.319020 -9.535138 44 1
-84.076752 284.720370 -20.115421 31 1
1.806765 53.416794 64.934959 17 1
-42.921314 234.437870 21.638044 57 1
-27.600080 189.743550 14.952065 57 1
-40.713776 94.190826 -60.561127 2 1
-16.642052 128.892520 -12.282030 0 0
15.682469 216.697770 54.787506 46 1
9.348756 140.770720 -21.529934 0 0
-58.365086 208.190890 9.132180 0 0
-62.629368 163.675510 78.436249 50 1
-27.340368 174.240520 -17.003330 0 0
-11.577156 175.939870 40.522919 0 0
-110.933550 211.116210 1.280846 29 1
-44.459965 167.615810 -43.692650 0 0
-0.885841 86.259483 27.290956 0 0
-42.219929 164.168440 -34.787945 0 0
-83.116211 282.703490 -69.043831 8 1
-15.606819 151.306440 -17.719139 23 1
-25.701168 187.098420 49.950333 55 1
-17.804211 106.770000 3.313264 0 0
-42.677975 322.645110 -74.807213 7 1
-50.507404 191.386930 52.691067 50 1
-57.549694 82.323982 46.240120 15 1
-10.185636 92.888458 12.106174 0 0
-110.614020 211.866810 71.173180 5 1
2.221421 77.498283 56.981190 33 1
26.991695 183.118270 25.854267 16 1
-104.358800 225.665500 11.659266 29 1
-4.506999 139.395030 15.259792 0 0
12.259603 190.560410 28.778076 16 1
-40.445621 218.826490 24.357170 57 1
-20.637539 67.730263 -4.914182 0 0
3.296177 82.241692 35.238495 36 1
-127.509810 258.392910 8.137239 19 1
-90.670815 121.757610 -26.180248 0 0
-32.606037 157.927980 -2.168234 0 0
-70.068161 86.799950 76.657555 9 1
-32.830231 137.122710 -35.565525 0 0
-26.686377 124.336640 1.767083 0 0
-32.320969 146.758070 -30.556271 0 0
-57.688061 238.734820 41.699001 51 1
-17.263742 72.443657 15.941962 0 0
-41.326950 54.659531 -78.888092 60 1
-49.474556 272.963840 -3.516808 12 1
-79.041328 91.059456 -65.256538 61 1
-21.775482 70.054283 52.950890 15 1
-58.011326 74.790550 68.541710 14 1
-137.158830 243.924900 -4.272005 19 1
-33.882973 107.634540 -0.928319 0 0
-29.179461 239.951860 -49.429176 21 1
-75.502747 287.431580 8.639301 40 1
-79.633148 240.994630 24.761820 29 1
-48.372795 227.709140 -22.469910 0 0
-12.056849 245.539150 0.842304 44 1
3.191089 239.324690 4.168700 44 1
-4.685339 84.768875 14.779239 0 0
-8.195235 87.181061 0.043316 0 0
0.602293 318.868350 -6.284072 39 1
-28.424183 187.895750 -16.772541 0 0
-54.861584 215.889630 -47.399002 34 1
-24.330669 293.973330 -22.439356 0 0
-24.786438 332.390050 -3.628318 39 1
-21.526966 143.804290 -36.056557 0 0
-34.394958 100.846120 -83.298615 3 1
3.297272 319.948120 -12.527040 39 1
-32.225552 289.237150 -12.254325 12 1
-59.806633 99.448982 -26.000479 24 1
-1.172491 220.161960 51.559704 46 1
-26.772743 242.576860 9.254561 0 0
-9.579819 52.169014 8.486104 0 0
14.941469 275.056030 -34.141365 43 1
-128.307750 276.269290 -11.567707 19 1
-88.517693 242.620120 40.197586 5 1
-58.321968 86.092751 65.644974 14 1
-5.285066 66.558815 -5.428724 0 0
-45.145329 225.981750 30.304972 57 1
-128.536250 270.568570 -4.928474 19 1
-1.852081 105.974650 -11.961522 0 0
-34.657814 284.373170 -34.153774 0 0
-8.055828 178.553670 60.056450 38 1
-51.347157 260.558170 5.202117 12 1
-31.769339 223.120350 -24.766443 0 0
-92.150040 288.447360 -29.755236 31 1
-41.784016 167.677000 39.410702 54 1
-3.988803 174.453510 49.253796 16 1
-20.850317 322.210390 -9.052569 42 1
-42.572758 249.507400 25.846111 51 1
-71.649223 83.039925 43.561172 13 1
1.735247 246.157850 -61.088337 22 1
-36.140900 146.044170 -2.582859 0 0
-31.811016 324.400670 -10.038653 39 1
-103.249960 219.313830 -31.179245 30 1
-46.040112 87.682686 59.200489 15 1
-108.690840 272.351140 -52.781235 31 1
-23.720976 331.031710 -15.299611 39 1
14.621948 244.271510 -67.474121 22 1
-42.735924 320.736660 7.784708 42 1
-56.591553 320.767300 -7.323029 42 1
2.665163 227.792770 54.733253 46 1
-12.043445 328.418670 -14.267964 39 1
-29.594103 99.686424 33.405071 0 0
8.499873 231.218220 -11.496903 44 1
-13.867457 142.992710 21.146826 0 0
30.242416 209.383540 30.552309 47 1
-14.085234 242.956820 -53.489948 22 1
-114.579180 231.731580 51.058502 5 1
53.948677 207.925510 38.940117 47 1
16.518093 162.731340 -25.942041 4 1
-95.528595 239.024140 3.859052 29 1
-58.086918 244.768100 20.485172 51 1
-62.735889 272.447540 -40.626713 1 1
-23.669697 280.544530 -10.228340 12 1
-38.103462 212.773330 -18.022938 0 0
11.903293 156.987530 -30.874802 4 1
-0.897005 75.248779 51.050217 33 1
-106.764490 228.481610 69.658882 5 1
-24.012913 261.220980 -9.267164 0 0
-34.807106 322.989930 29.358269 6 1
-106.155420 114.323840 -5.593802 59 1
-26.607023 322.890230 -64.316902 7 1
-45.964458 297.519470 -21.846483 1 1
-29.679276 279.533390 -28.123466 0 0
-28.581415 248.888120 -78.206497 20 1
-4.839953 280.856140 -30.359535 43 1
-23.637449 78.637054 -16.517759 0 0
-10.225586 63.321503 -4.755058 0 0
24.183424 153.817170 12.116139 58 1
-20.529570 95.282936 2.653564 0 0
-11.513929 103.266360 -13.238104 0 0
-22.694830 152.798750 7.972350 0 0
-109.770440 207.980880 5.981394 29 1
-40.825512 178.642940 -3.737289 0 0
49.996437 214.006870 38.775448 47 1
-45.605675 223.049300 50.434418 52 1
-108.544270 218.827260 70.293297 5 1
-31.134651 44.680092 -80.722008 60 1
-31.031662 251.885760 1.838354 0 0
-27.021860 197.319290 8.808510 57 1
-13.021585 145.296160 -34.277946 23 1
-48.550087 295.315490 -30.574560 1 1
-35.606522 319.643770 -2.103579 39 1
-29.142511 214.652920 -21.595785 0 0
6.441393 160.243360 -55.258335 4 1
14.146379 193.796450 39.201900 49 1
-6.386241 239.893780 43.356808 46 1
-19.162395 74.723022 -26.223621 0 0
-35.440556 140.647520 -24.786510 0 0
-30.518734 96.409149 -91.214218 3 1
-83.819557 220.932560 -29.174910 27 1
-13.451780 177.164400 46.820244 55 1
-9.937232 198.158740 52.960934 55 1
34.428150 157.418560 10.281098 58 1
-31.927353 156.619830 -36.479095 0 0
-57.621239 87.945656 39.327538 15 1
-70.247040 292.255190 21.710455 41 1
-17.239872 160.979260 66.630684 38 1
-37.456776 183.961560 42.785896 55 1
15.739359 243.823460 -59.916927 22 1
-102.637830 115.580550 -11.270323 59 1
-33.459770 267.140410 -12.519772 0 0
-8.376224 80.021278 16.374508 0 0
-27.818001 176.403990 -41.210129 0 0
-31.265213 191.613630 10.739521 57 1
0.399932 177.675140 54.840244 16 1
-28.106136 322.645140 27.197910 6 1
2.476623 85.705688 7.437593 0 0
-65.880432 188.078810 16.760962 57 1
-6.606598 164.937560 70.103943 38 1
-100.915610 223.872250 25.352684 29 1
-42.024178 271.955540 5.034460 12 1
-68.385895 90.860535 45.590355 14 1
-15.766217 168.901090 59.497471 38 1
-75.252396 79.369865 83.022011 9 1
-86.345657 53.333328 25.935911 13 1
-42.350632 229.624560 24.702665 57 1
-62.017849 196.521380 19.520594 57 1
-87.084274 275.247920 -19.485249 31 1
-26.193640 220.636990 16.151802 57 1
-71.283112 278.175080 25.322889 40 1
-112.929980 271.310880 -39.972263 31 1
-1.582359 194.937290 51.858349 16 1
9.586290 77.132217 62.932022 32 1
-28.910704 143.122820 -4.728746 0 0
-33.270901 149.578260 4.955233 0 0
-11.240973 128.068480 -2.019135 0 0
-31.803028 192.170880 50.469242 55 1
-0.767108 116.669900 -16.035040 0 0
-36.939667 129.249100 -22.079460 0 0
-43.345310 198.657200 20.861061 57 1
-2.974147 174.182540 67.938011 38 1
-16.204935 220.242580 20.571423 57 1
-47.591198 199.046110 32.934505 57 1
-40.116692 230.190050 45.475151 52 1
-20.090303 94.581940 -17.101681 0 0
-87.273293 232.769760 26.365114 29 1
-55.081322 99.530716 -39.562637 24 1
-30.437836 256.200010 -4.667522 0 0
-64.406708 309.195500 11.167069 41 1
-29.851521 237.278120 33.754650 52 1
-14.456531 60.713680 11.554193 0 0
-95.390259 127.612990 -42.004654 56 1
-42.757027 299.713440 -42.137276 1 1
-94.982193 228.743130 17.107790 29 1
-21.822475 137.193630 -21.339497 23 1
-61.513279 278.439120 -34.167461 1 1
27.975248 149.541780 12.918948 58 1
-6.730996 17.748343 2.716750 0 0
-57.704906 99.986725 73.270500 9 1
-19.937140 327.724640 -5.984166 39 1
-17.577696 45.306526 6.126966 0 0
10.055498 79.011742 57.298626 32 1
-61.230675 177.005630 37.570354 53 1
-40.667072 170.308880 -29.534822 0 0
-54.597069 84.686600 -80.983795 60 1
-36.801006 177.038190 -12.893321 0 0
-39.028973 180.767870 48.803593 55 1
-63.401310 99.523315 -40.979183 24 1
1.401411 284.309750 -17.059519 43 1
-91.005699 246.487840 45.455700 5 1
-95.013550 282.971340 -7.553056 31 1
-72.207695 254.559970 -6.755209 12 1
12.666509 271.294070 -39.509377 43 1
-7.366709 21.894466 -2.466633 0 0
-40.507240 190.919830 45.419548 55 1
-26.685259 171.670380 53.482128 54 1
-94.204971 238.977550 37.974224 5 1
14.230248 233.277710 -1.688771 44 1
-96.711136 280.816620 -35.450607 31 1
9.054386 152.029650 -24.313229 58 1
-122.272280 277.633940 -4.235371 19 1
-29.187595 182.605830 43.808769 55 1
-42.391399 310.036900 -28.175093 1 1
-74.697334 98.678833 -53.276306 61 1
-24.201832 149.582430 -9.803678 23 1
-97.568047 125.447980 -35.883709 56 1
3.150892 212.169680 43.898445 57 1
-46.526154 229.709010 16.416714 57 1
-33.476887 163.115720 55.021191 54 1
-38.326015 194.458540 -41.763100 0 0
-27.625622 325.221220 -69.382248 7 1
-118.144580 262.741610 -58.721291 31 1
-4.007894 4.381060 0.751369 0 0
-82.600037 266.428530 18.794722 40 1
1.666099 216.292770 58.103733 46 1
-23.556566 245.752900 -49.681767 21 1
2.655426 184.499190 26.857719 16 1
-24.474037 135.982270 -42.422722 0 0
8.300105 190.381870 48.281563 49 1
-23.700563 213.868380 15.461899 57 1
24.364773 168.150630 -7.682085 58 1
-68.619797 289.681150 12.054806 40 1
-28.112188 94.588692 1.495698 0 0
-6.273114 177.695600 39.943462 16 1
-14.666619 90.860840 2.073760 0 0
-44.118450 103.829020 -80.413902 3 1
-53.525337 315.150910 -65.926834 8 1
-49.743092 219.151500 49.799427 52 1
-8.485058 321.912080 -0.266085 39 1
-28.065960 241.090100 -31.207880 0 0
-35.986305 273.084050 -25.712845 0 0
-24.001959 182.387970 8.048049 0 0
-31.850292 295.024810 -12.226476 0 0
-71.058350 271.631960 27.428516 40 1
-49.963215 267.804810 -0.262211 12 1
-7.809006 103.072710 7.430022 0 0
-28.930122 164.440730 -9.630668 0 0
-22.140034 194.919170 60.593678 55 1
-8.286402 57.796879 10.924544 0 0
-6.932849 221.768460 55.215130 46 1
-18.244474 207.250580 23.404062 57 1
-93.722870 243.922360 50.042645 5 1
-20.699707 189.219310 64.534462 55 1
-13.745580 241.820450 22.608061 44 1
-33.657639 278.913970 -24.036205 0 0
-54.855392 249.534190 20.471800 51 1
-35.178841 73.924423 24.707846 0 0
-122.338160 272.749910 6.000370 19 1
-9.719135 168.582000 32.347626 0 0
-6.731299 230.438920 32.650719 57 1
-70.823341 291.848910 -75.706268 8 1
-91.742378 288.642120 -36.124805 31 1
-108.383340 118.614650 -15.696403 59 1
11.104606 196.256010 29.754919 49 1
-67.200073 238.620500 30.577089 51 1
-67.474884 84.292412 52.977501 14 1
-47.998119 206.301560 52.712849 52 1
-60.820080 187.506590 66.635757 50 1
-18.410088 246.536120 -61.519047 21 1
-54.705444 186.307360 72.874939 50 1
10.488558 89.690857 40.341118 37 1
-30.426605 175.600390 -1.836062 0 0
-21.021690 61.737541 -7.273049 0 0
-17.648989 83.356720 -21.066463 0 0
2.627829 165.343640 81.384071 38 1
-25.288504 202.093510 52.770512 55 1
-36.478146 172.278820 47.431210 54 1
17.122492 83.436539 48.214031 37 1
4.125556 192.050060 25.799456 16 1
-50.398685 320.938140 -6.394588 42 1
-5.179068 51.309235 2.801883 0 0
-0.491419 322.973600 1.245957 39 1
-24.318092 119.716930 -2.310056 0 0
-10.995711 238.314330 26.789768 44 1
-35.355869 250.838010 -20.070866 0 0
-112.586450 227.405320 53.907452 5 1
-19.325027 152.246290 2.424918 0 0
-12.544470 152.465940 16.528904 0 0
-25.331018 76.108574 49.277241 15 1
-19.186588 178.870820 46.787617 55 1
-74.485374 275.908600 17.784792 40 1
6.152306 279.024440 -34.542358 43 1
18.125391 266.505160 -39.970810 43 1
-34.364616 165.624010 -36.974503 0 0
-38.794594 119.360440 2.888795 0 0
7.611759 227.298580 52.242401 46 1
-22.897438 154.202470 -19.583895 0 0
-21.912504 272.087860 -14.708103 0 0
-19.385738 184.057340 41.713886 55 1
-35.398731 299.675540 -11.160233 1 1
-52.898335 200.554380 18.621599 57 1
-104.505330 284.769380 -8.738155 19 1
-102.880040 282.235020 -37.009712 31 1
-16.868198 105.056910 -15.547241 0 0
-24.563810 247.643630 11.173608 44 1
-1.045645 78.780296 16.547636 0 0
-19.950838 143.314900 3.867237 0 0
-62.858231 83.584099 57.124516 14 1
-3.443314 76.314751 7.571670 0 0
7.496899 283.432460 -25.088308 43 1
16.339806 186.630680 34.864723 16 1
-40.464489 210.589420 -58.097054 34 1
-0.764993 50.433212 10.535730 0 0
-123.589740 108.522050 -27.706785 45 1
-66.399384 218.554400 21.243305 0 0
13.994901 202.217540 2.956958 48 1
7.517486 310.075160 -15.700648 39 1
-34.164112 87.018669 -57.233841 2 1
-40.985813 184.957810 59.229660 55 1
-37.673389 290.856720 -56.954872 0 0
4.781075 244.594240 -55.284199 22 1
-11.819187 328.941890 -85.300430 7 1
-103.131680 284.426120 -43.906975 31 1
18.273979 155.562880 -67.943787 4 1
-15.462239 236.589810 31.101500 57 1
-4.783215 223.674040 33.091148 57 1
-41.687435 298.990780 -27.237061 1 1
-48.099190 236.003300 41.391571 51 1
-36.308105 199.412780 32.106087 57 1
-8.906317 150.283540 -23.394161 23 1
-45.129238 58.559093 -83.581360 60 1
-49.490902 310.452270 -70.359512 8 1
-13.536793 250.132080 -64.918022 21 1
-64.852631 95.981384 66.770615 9 1
-82.140854 234.479610 28.903797 29 1
-114.728080 112.958570 -28.930414 45 1
-13.040973 182.448970 65.020813 55 1
-36.987068 324.143980 -8.211355 39 1
-51.077934 318.402800 -16.753706 42 1
-33.898624 254.241420 -15.984714 0 0
-46.613400 91.908585 -60.848484 2 1
-107.677140 118.058460 -24.913679 45 1
-7.525156 184.446010 25.022808 16 1
-10.702315 207.644390 38.818996 57 1
-43.413559 99.482147 -84.794785 3 1
-66.070946 90.103882 -26.112181 24 1
-84.438782 240.571870 21.661560 29 1
-50.794865 233.093090 31.550627 57 1
-48.693771 220.904940 -46.587585 34 1
-19.240124 245.817200 -80.095566 20 1
-57.928928 310.861360 4.465522 41 1
-124.070500 268.886870 -2.166764 19 1
3.801720 187.461640 56.272087 49 1
-54.276993 105.019580 -53.022232 25 1
-68.103096 45.842087 65.291237 14 1
-38.288265 193.090560 13.783879 57 1
-44.781837 314.227480 -12.131110 42 1
-61.585785 287.837220 -34.585781 1 1
-109.235740 113.252450 -20.221659 45 1
-29.496313 156.250140 -25.494226 0 0
-72.199249 224.000670 -28.512007 27 1
-0.543457 157.807070 -24.799366 23 1
-41.063511 220.249340 -23.675848 0 0
-26.667690 128.611130 -25.661932 0 0
-48.533863 183.855990 -3.910364 0 0
-38.797802 222.550660 -45.603756 21 1
31.953541 178.502690 23.280098 16 1
-31.985214 200.992420 8.481303 57 1
25.412281 79.777534 63.392315 32 1
-29.008295 132.097240 -21.824562 0 0
-73.130127 263.778440 22.403593 40 1
-45.866806 227.488530 47.046494 52 1
-29.686411 324.564060 32.798546 6 1
-27.085711 149.090350 -3.990137 0 0
-67.744141 288.726350 26.001202 41 1
-3.828478 246.963960 -53.644382 22 1
-46.421127 98.467995 -72.528175 2 1
-74.214798 261.047420 -21.389385 0 0
2.213541 125.244990 -20.863041 0 0
-59.000820 276.563900 -49.858593 1 1
12.487648 161.556230 -15.201766 58 1
-10.071748 185.373490 33.636536 16 1
-100.171990 277.464450 -32.286602 31 1
-63.010132 206.892960 -66.295303 26 1
-77.567795 268.892150 23.072559 40 1
-10.230124 149.814510 -16.131046 23 1
-100.233350 125.111610 -25.449135 56 1
-62.865791 203.867430 27.408175 57 1
-1.001592 61.434319 62.306740 17 1
-20.686121 116.306530 -22.471146 0 0
-64.023796 175.726060 73.833458 50 1
-41.208935 289.825100 -8.891031 12 1
-18.607944 137.700450 -35.380558 23 1
-21.865694 190.161710 47.082470 55 1
-27.161516 294.235500 -17.002039 0 0
-28.101118 226.495040 -16.618488 0 0
-38.038490 172.178330 -34.876949 0 0
3.751623 146.115010 -66.551758 4 1
12.212708 146.965560 -71.735794 4 1
-53.317879 197.104740 35.967228 57 1
33.254856 146.036850 13.123347 58 1
-18.968609 143.958940 -19.003300 23 1
-9.531548 112.232140 11.034319 0 0
-95.982330 122.891200 -45.895664 56 1
-37.920265 236.360020 17.619213 57 1
-14.137872 282.298610 -6.476855 43 1
-64.247154 267.313020 -44.596596 1 1
-39.720184 83.835968 -57.416454 2 1
-2.574211 143.967210 81.384132 38 1
-91.465904 238.157960 17.317547 29 1
-116.349300 283.527190 -20.696346 19 1
-29.027702 179.732930 48.481194 55 1
-85.272232 59.450737 35.248672 13 1
-66.182655 84.112572 42.090862 13 1
-44.945393 313.940460 -0.872276 42 1
-89.089630 277.765560 7.350293 40 1
-8.017215 200.024670 44.769600 55 1
-60.144894 210.649690 -60.034138 26 1
-50.662636 235.862340 24.723864 57 1
-17.875181 244.102080 -16.317055 0 0
-59.356007 97.285629 45.613575 15 1
-34.210342 244.173200 26.379589 51 1
2.891242 151.431950 13.743716 0 0
-13.449358 150.691790 -32.074234 23 1
-63.955151 301.412140 -64.250328 8 1
-51.408955 231.959380 15.874777 57 1
-29.619022 107.323140 2.773316 0 0
-43.025097 317.011990 -69.771744 7 1
-80.795715 278.509640 -71.600670 8 1
2.493635 327.881470 -7.488524 39 1
19.321814 165.919250 -51.020466 4 1
12.391610 86.291512 59.427673 32 1
-21.899372 238.619490 17.030342 44 1
-51.025303 184.439270 45.293571 53 1
39.004524 149.950560 7.963039 58 1
-65.313652 195.872830 23.773439 57 1
-36.007298 317.776790 30.018034 6 1
15.462846 89.788879 42.482754 37 1
-25.714512 179.674450 58.575966 54 1
-34.749798 79.611397 -50.028614 2 1
-34.421158 320.407750 -63.962360 7 1
-50.097118 108.961920 51.884739 11 1
-30.669586 168.192920 61.282032 54 1
-71.680328 223.485200 -19.508932 27 1
-16.064676 134.366440 0.741796 0 0
-2.467941 284.799530 -20.767881 43 1
-29.495449 232.436460 42.871166 52 1
-58.877922 311.642330 19.850746 41 1
35.086826 209.939150 38.005829 47 1
-74.184822 240.263960 24.690561 29 1
14.131567 157.589250 -62.458344 4 1
-23.983507 119.442060 -38.816196 0 0
-31.850639 220.499100 17.309912 57 1
-98.128967 115.303680 -64.342659 56 1
12.773891 207.359830 61.748459 46 1
-94.671303 244.464920 58.064579 5 1
-22.091999 181.590770 62.771194 55 1
36.995983 167.027560 27.310831 16 1
-24.680037 62.239769 -11.170983 0 0
-31.413591 180.119080 1.713493 0 0
-31.139000 191.628010 43.758171 55 1
-24.264679 171.534560 -24.208160 0 0
-77.226715 235.430730 25.571901 29 1
-28.084820 325.724370 22.454042 6 1
-16.267082 246.131010 4.321005 44 1
-3.376458 115.459270 9.440851 0 0
-45.123283 309.135410 -67.542336 8 1
-23.124371 78.248276 -11.079844 0 0
-34.451385 219.176970 43.986408 57 1
-31.535042 201.764950 45.995972 57 1
-19.090332 329.087340 25.038700 6 1
-13.304874 285.408230 -35.311020 43 1
-47.255444 216.377330 17.410807 57 1
-0.067242 176.596710 40.245850 16 1
-30.602333 233.113100 -87.687943 20 1
16.361786 139.019000 -75.040352 4 1
-4.020410 243.328190 17.001799 44 1
-15.313285 144.163930 -27.201027 23 1
-19.087593 311.478910 -21.436646 1 1
-59.096340 69.016914 68.666283 14 1
-121.954150 268.041750 9.709888 19 1
-18.896406 85.326492 -99.707825 3 1
-18.842812 278.192110 -13.069908 43 1
-1.737254 242.165800 2.304578 44 1
-128.903290 107.059940 -28.834396 45 1
-92.652962 229.694640 25.619009 29 1
-8.902657 153.877060 -32.709183 23 1
-31.810711 314.506530 17.524616 42 1
-63.905785 302.312350 -73.732590 8 1
-100.383450 239.080730 54.801289 5 1
29.697458 178.996430 31.676571 16 1
-15.019359 103.213750 9.155774 0 0
-116.560760 277.378720 8.722988 19 1
-35.335262 180.904740 -5.207424 0 0
22.030626 204.733890 37.957394 47 1
-29.961515 316.759060 35.904697 6 1
-7.443191 128.822400 12.249051 0 0
-3.035169 330.676880 -0.907654 39 1
-34.738537 299.750850 -20.775303 1 1
18.685841 165.336900 -33.221977 4 1
-48.208408 300.541020 -42.441208 1 1
-63.811512 77.767807 65.063080 14 1
-25.601295 151.452770 -30.482599 0 0
-2.272689 185.845500 22.488434 16 1
-32.178936 239.405400 -88.942482 20 1
-28.027939 326.610290 -5.494705 39 1
-6.176322 36.122349 3.747016 0 0
-28.354046 172.272800 29.959068 0 0
-40.265003 77.343147 31.859058 0 0
-68.883728 255.145170 -22.501835 0 0
-61.593925 206.764130 32.663570 57 1
-40.676109 291.951110 -34.711941 1 1
-57.335773 266.103330 -5.570598 12 1
-113.507080 211.310390 62.637894 5 1
-38.787174 98.105186 -64.034630 2 1
-25.104696 289.672330 -19.421503 0 0
-101.964710 225.120320 19.644026 29 1
-89.634613 232.864990 32.791912 29 1
-74.278107 236.291980 32.798176 29 1
-142.773510 86.320457 -21.189669 45 1
-6.222778 245.607420 -4.740509 44 1
-27.738171 280.572780 -6.474640 12 1
-28.337244 256.975070 -10.368881 0 0
-104.380970 279.865720 -53.029629 31 1
-20.628376 228.908020 48.396118 46 1
-70.635979 298.063320 15.991155 41 1
-30.932123 275.341130 6.746134 12 1
-25.067318 284.263760 -25.504499 0 0
-71.451302 255.105610 -12.085732 12 1
-19.768778 127.111720 -5.066369 0 0
-14.068496 151.942550 72.159103 38 1
-54.393787 208.215930 35.865700 57 1
-19.255800 260.068600 -18.949322 0 0
-51.322155 189.858090 67.254211 50 1
-29.462673 68.124847 -44.176296 2 1
-81.832771 272.056790 13.445455 40 1
-59.798805 104.588060 -45.515484 25 1
-116.079520 205.452800 -16.366224 30 1
11.001159 93.779060 34.500706 35 1
-60.739635 182.213620 66.524796 50 1
-60.135803 191.613460 25.767847 57 1
-27.175123 304.062290 -12.415875 1 1
-27.914482 187.970860 -11.380944 0 0
-42.027626 302.027070 -9.926994 1 1
10.810358 161.439150 -52.527023 4 1
-61.570419 240.629260 -22.609131 0 0
-77.937859 264.590090 -19.800220 0 0
-15.648977 329.287840 -10.114367 39 1
-31.153301 258.641510 -38.771729 0 0
-102.620570 279.850560 -46.916023 31 1
2.186918 169.398320 47.248661 16 1
-13.277517 173.858280 54.225082 55 1
-61.083466 259.841640 1.580625 12 1
-12.527293 228.573240 26.250362 57 1
-101.185070 232.309330 10.862287 29 1
-22.034863 332.151700 16.731497 6 1
-33.003273 187.009310 41.913933 55 1
-24.113752 165.921110 -26.815084 0 0
-86.265381 235.383120 17.444031 29 1
-10.510877 84.303101 -5.431201 0 0
-109.867650 208.666500 -21.104782 30 1
-114.853710 110.135480 -21.912395 45 1
-56.357750 199.712270 9.356480 57 1
-37.373291 89.582397 -61.269184 2 1
-55.124947 284.569610 -49.094128 1 1
-79.919327 75.732918 43.749481 13 1
-24.948774 185.919830 64.517998 55 1
-89.734383 199.826340 -46.165035 28 1
-38.432121 307.480350 41.154598 6 1
20.134735 182.685560 31.296804 16 1
-19.240177 265.404390 -21.281395 0 0
-21.096848 73.123497 -7.942130 0 0
-36.849148 280.403960 -7.223154 12 1
19.949610 210.072890 30.818985 47 1
5.120030 219.539080 43.325008 57 1
-59.450726 282.834750 -43.660416 1 1
2.323272 151.971910 81.355019 38 1
-38.469116 153.354290 53.864151 54 1
-30.424667 84.318199 -52.840038 2 1
-51.194050 294.925540 -38.101917 1 1
1.667616 178.681780 49.813850 16 1
-65.358070 216.621690 -16.967035 27 1
-67.326363 296.202970 -68.043762 8 1
-58.503212 312.328640 -10.088136 42 1
7.682465 80.826851 52.844585 37 1
-25.118118 238.373920 -22.339903 0 0
0.358713 44.066147 65.073906 17 1
-29.878216 91.359695 -3.700423 0 0
-17.770552 80.724609 1.213393 0 0
-24.709522 258.660250 -19.289927 0 0
-23.626104 145.090330 -12.512748 23 1
-50.977154 79.844383 -80.514847 60 1
19.920231 85.515358 61.261280 32 1
5.330751 182.534290 22.744883 0 0
-55.682819 215.432620 33.182213 57 1
-10.885592 238.496840 39.595463 46 1
-15.644087 132.524050 -4.789896 0 0
-57.825768 86.152122 55.934422 14 1
-14.825532 187.063900 67.262749 55 1
-50.573036 201.343700 8.104224 57 1
21.749647 196.942370 38.704975 47 1
-25.567348 259.420930 -3.753929 0 0
-98.559746 118.729440 -8.960841 59 1
-49.861889 110.161370 -22.203459 0 0
-39.410946 233.891070 40.950748 52 1
-22.104940 326.439030 2.814888 39 1
-2.097282 219.343660 34.981411 57 1
-14.025486 327.931850 10.972827 39 1
-20.380283 148.325760 -26.311697 23 1
-38.546371 158.639950 51.501389 54 1
5.747532 66.926613 -4.744805 0 0
-21.593355 130.949140 -27.336809 0 0
-1.793920 169.093600 50.632370 16 1
-71.048637 284.449250 21.064137 40 1
-10.287121 152.762680 26.794802 0 0
-26.797253 179.199710 -15.433636 0 0
-40.439697 290.757510 -40.460583 1 1
-14.602299 248.200930 -54.600502 21 1
-43.049789 200.808750 38.789520 57 1
-86.700516 284.724430 -15.427639 31 1
-2.304147 250.044650 -62.434494 22 1
-39.204777 314.685880 -16.368284 42 1
-36.733734 103.878770 2.269652 0 0
14.864315 195.284070 33.345078 49 1
-54.762211 276.835300 -46.209602 1 1
35.832947 163.619540 1.599181 58 1
-39.429272 145.031020 55.606304 54 1
-40.360626 175.170350 -9.023056 0 0
-53.471413 106.865200 58.832096 10 1
-44.036118 220.100680 -55.566750 34 1
-94.783470 218.765380 -33.579578 30 1
-66.769592 279.565060 22.712242 40 1
-13.741089 105.831680 -6.960184 0 0
-18.310198 72.154350 4.316640 0 0
-30.708693 240.461060 16.646044 57 1
-23.885780 158.610580 -23.726931 0 0
-77.403114 282.251680 -69.812668 8 1
8.640588 265.498570 -45.129120 43 1
-61.044094 188.704730 57.486530 50 1
-11.270766 244.462170 7.529382 44 1
-107.737000 283.324830 -17.940636 19 1
-46.318512 208.668230 12.699433 57 1
-10.114905 146.586090 20.845144 0 0
-53.726788 287.195620 -44.483650 1 1
-107.892730 218.825100 8.793194 29 1
-58.011276 116.478160 -22.865219 0 0
-8.918318 221.203230 28.135225 57 1
-39.210697 262.244020 -15.609683 0 0
-13.655952 256.452150 -21.254673 0 0
-37.054302 270.440670 5.376399 12 1
-109.820470 235.657030 50.034744 5 1
-72.681984 236.754780 39.473850 51 1
-78.960213 278.780150 9.001576 40 1
-56.009693 273.339450 -8.211840 12 1
4.562790 84.615211 44.168888 37 1
-80.964043 94.328766 -57.380531 61 1
-63.327217 96.422798 -31.686638 24 1
-36.220726 87.722992 49.736122 15 1
-20.618856 329.763430 8.999718 39 1
-46.700146 269.714940 4.800003 12 1
-60.678623 87.606773 48.501801 14 1
-79.569923 282.051730 1.463303 40 1
-101.020660 119.816760 -53.636826 56 1
-74.932343 292.761840 -67.174194 8 1
-58.886192 258.106870 -51.829678 1 1
-65.403580 239.759510 37.285202 51 1
-15.860961 187.127170 39.053604 55 1
-12.984013 282.380620 -30.659197 43 1
-29.681129 167.254560 -21.499010 0 0
14.502191 201.434190 26.193056 48 1
3.830323 271.630310 -46.893848 43 1
-9.610020 166.743330 66.238411 38 1
-106.507140 232.258580 65.940773 5 1
-75.279808 282.383670 -75.895828 8 1
-39.758991 215.363590 -22.557117 0 0
-2.879992 110.315900 9.784289 0 0
-43.230942 101.166290 67.639175 10 1
-50.259693 219.606740 -56.708088 34 1
3.001761 48.431458 66.954391 17 1
-32.807587 136.513660 -14.211604 0 0
-33.874439 223.786900 -47.250370 21 1
-65.019592 174.846010 31.739296 53 1
-26.023849 178.155730 44.576149 55 1
-99.122650 225.899640 11.979239 29 1
-29.562378 218.095020 46.100319 57 1
-16.188120 156.316910 10.208366 0 0
-17.717865 87.502617 6.427033 0 0
-50.619373 239.747190 19.603699 57 1
-91.655022 243.840470 5.827105 29 1
-30.207634 187.829010 47.522877 55 1
-13.600212 130.017170 2.147978 0 0
-25.955921 80.956253 44.878670 15 1
-4.941351 78.687538 -1.046508 0 0
-7.446755 157.269200 -22.903929 23 1
19.736446 253.578870 -47.024460 43 1
0.039647 156.861430 -35.123577 23 1
-37.391235 139.072740 -0.162596 0 0
37.703388 160.213590 5.831059 58 1
-52.221844 202.435300 53.747540 52 1
-36.584538 199.646790 -26.004671 0 0
-45.773087 145.998310 48.265816 54 1
-36.303646 154.822750 2.115507 0 0
-6.387831 73.280998 -6.251399 0 0
-50.192993 103.558850 51.600479 18 1
-8.743148 212.504350 50.399704 57 1
-12.748794 187.945420 62.196827 55 1
-83.973236 279.415560 -19.049337 31 1
10.830798 162.698910 -23.155830 58 1
-30.826849 192.403990 -17.481455 0 0
-22.819616 326.278590 29.597975 6 1
-9.593925 283.301120 -38.403301 43 1
-85.301361 212.021220 -44.459965 28 1
-50.454933 277.159090 -24.242764 12 1
-37.561657 168.939030 -6.337730 0 0
-103.344710 121.287030 -40.045502 56 1
-39.761986 267.984680 -36.805580 0 0
-25.385670 163.804660 -19.373564 0 0
-19.453949 192.316380 14.270706 57 1
-53.037720 315.495000 -12.763313 42 1
-16.337402 206.595580 17.063845 57 1
18.165184 80.652573 62.984467 32 1
8.665978 163.538830 -6.055323 58 1
39.451241 212.592380 36.491390 47 1
-12.758005 24.131134 1.726033 0 0
-26.153423 246.950680 -20.507317 0 0
-28.340050 195.416460 17.842001 57 1
-16.194748 76.117844 -10.842231 0 0
-35.547115 184.879620 49.136978 55 1
-79.324829 95.500313 -62.680599 61 1
-58.987022 199.883180 34.807095 57 1
-1.871835 326.527980 -3.712154 39 1
-16.036646 168.428680 4.567290 0 0
-96.210167 285.130710 -30.177546 31 1
-54.079655 231.345250 40.368717 51 1
-52.168430 92.690353 43.797501 15 1
-36.967819 93.924950 73.209320 10 1
-49.277451 195.688710 60.774757 50 1
-91.718224 232.564300 14.625152 29 1
13.804053 165.687850 -7.382186 58 1
-11.043246 237.847690 20.345327 44 1
-34.499218 153.521190 -30.481869 0 0
-52.070938 222.285370 35.865868 57 1
-26.395773 113.975470 2.642754 0 0
-108.609740 227.387480 59.265785 5 1
-5.665203 333.091060 -7.434452 39 1
7.292065 274.856230 -40.742687 43 1
-15.292636 154.309710 20.608906 0 0
-53.023922 95.509758 -64.861389 2 1
2.563437 202.002380 34.724968 49 1
29.860598 211.220380 35.327168 47 1
-1.808744 74.066658 14.044373 0 0
5.318573 312.372500 -5.742292 39 1
-43.349987 105.110490 -68.940804 2 1
2.801744 244.191380 18.399208 44 1
-3.793806 81.327942 4.900495 0 0
17.921076 205.527730 7.661408 48 1
-15.020921 100.159140 -6.899011 0 0
-35.805134 315.732600 11.242143 42 1
-105.415040 219.583710 14.092830 29 1
-14.940435 178.749160 61.466244 54 1
-116.650780 272.259370 -34.214260 31 1
-10.513246 93.534004 0.732337 0 0
-43.352234 213.692440 55.602253 52 1
7.584056 99.318474 26.711380 35 1
-23.587231 238.645110 -84.971245 20 1
-4.594031 244.271270 23.951353 44 1
-17.227695 105.300940 -20.714882 0 0
-54.681683 100.019020 49.142147 15 1
-31.823214 221.795460 -9.586310 0 0
-39.328823 207.455950 -62.015450 34 1
-31.918602 142.409100 -34.651463 0 0
-61.119606 92.234642 -22.586353 24 1
-21.213640 199.286880 18.495558 57 1
-82.689980 238.675890 32.216099 29 1
-33.659512 56.891956 -85.401131 60 1
-85.286339 48.636185 32.900173 13 1
-15.025749 216.850590 51.318565 57 1
-40.919777 312.523900 -68.325836 7 1
-3.355103 65.960243 3.270052 0 0
-38.617134 193.433120 55.056755 55 1
-131.872970 104.664770 -23.726372 45 1
0.293095 228.076320 40.559071 57 1
-15.843111 193.108340 42.686512 55 1
-112.655850 216.580400 1.693287 29 1
13.380554 162.576720 9.934639 58 1
-94.886261 240.592500 32.698360 5 1
-79.771217 226.033540 -28.219379 27 1
-45.733170 111.461940 -52.525932 25 1
-37.070591 164.946260 48.260094 54 1
-23.814671 233.393620 41.524712 52 1
3.802357 131.446900 -21.857096 0 0
-38.194439 320.353390 11.838817 42 1
-36.416271 228.512070 48.693298 52 1
-27.954765 81.752487 -16.483284 0 0
-60.600380 166.470830 33.121536 53 1
-18.536541 235.754870 19.540941 44 1
-44.364185 201.500670 14.160437 57 1
-27.568966 95.708694 -85.644852 3 1
-11.809593 329.406680 6.155550 39 1
-23.565742 195.731450 48.707726 55 1
18.978090 241.990230 -69.429642 22 1
3.730575 310.297090 -12.329555 39 1
-82.469864 66.434341 40.320370 13 1
-107.056850 215.426590 -23.317417 30 1
0.701278 153.503540 -59.644211 4 1
-44.726414 155.092220 48.840759 54 1
-22.590910 277.710540 1.837944 12 1
-58.045300 178.975230 73.229927 50 1
13.257799 163.239150 1.054192 58 1
13.013781 221.462710 -13.172970 44 1
-75.162933 247.090190 -13.768606 12 1
-122.599530 107.466000 -21.283859 45 1
-0.684461 84.532310 19.809381 0 0
-48.061661 61.223434 -80.095688 60 1
-53.088005 311.710270 9.985363 41 1
-54.804127 295.241730 -21.610710 1 1
4.620551 247.963060 -51.516582 22 1
-30.340103 190.672390 60.017090 55 1
5.364916 163.158580 -44.797855 4 1
-37.489845 185.690260 37.819683 55 1
-32.232555 171.959640 -13.155523 0 0
-21.113121 124.209180 -34.454384 0 0
10.599681 314.513240 -15.081600 39 1
-50.972549 316.315030 1.046639 42 1
-65.063164 61.988613 66.556267 14 1
-50.097622 290.690190 -44.753685 1 1
3.514176 242.781110 10.667725 44 1
-19.817707 82.672157 -9.808387 0 0
-27.087246 177.090040 -5.379981 0 0
-82.929893 287.636630 -3.614342 40 1
-38.555023 283.709080 -51.626507 0 0
-60.897125 205.187320 22.574547 57 1
-6.615099 206.619610 45.369232 57 1
-13.199585 138.445600 19.073116 0 0
10.191651 188.652600 35.564785 16 1
-18.625551 323.565670 -82.182365 7 1
-44.710697 295.951170 -34.899250 1 1
11.218327 244.888210 -63.787895 22 1
-45.618599 309.935550 -62.514683 8 1
-40.301872 279.509340 -30.370556 0 0
-43.129414 304.962590 -60.968212 0 0
-95.712708 278.944210 -18.499554 31 1
-19.612818 239.440090 31.154226 44 1
-41.341419 145.502370 5.333602 0 0
-21.048937 188.578490 8.457803 0 0
-83.917465 223.201220 -37.784630 28 1
7.588332 213.003330 62.779144 46 1
-32.165501 205.024660 -17.943125 0 0
-53.336124 217.053160 25.493450 57 1
19.924652 163.855900 5.675824 58 1
-79.707008 272.813140 -18.076822 0 0
-42.230312 299.744110 47.752033 6 1
-8.942273 88.749947 15.574160 0 0
-38.728691 260.438170 -23.583082 0 0
11.127891 278.057710 -32.843269 43 1
-17.620087 335.569060 0.349681 39 1
-28.017035 270.172820 -24.433781 0 0
-3.627341 240.975370 -13.214019 44 1
-49.047009 189.396100 46.164326 53 1
-62.208870 265.878020 -6.918806 12 1
-55.992107 101.419250 64.919937 9 1
4.596922 157.437290 -32.758568 23 1
8.438126 66.877663 1.587609 0 0
-115.085590 223.037840 54.038540 5 1
-31.072329 130.293210 -30.451544 0 0
-7.833876 174.110900 57.739761 38 1
32.666332 80.712601 62.121109 32 1
-50.767994 77.940742 39.812035 0 0
-15.082482 93.521461 11.177873 0 0
-33.487751 149.989520 -10.776205 0 0
-118.352120 276.117160 -1.337901 19 1
16.173344 159.836960 13.066434 58 1
-41.808876 314.821260 36.078869 6 1
-121.544820 257.756740 -59.646317 31 1
4.893394 86.872269 32.346413 36 1
-126.791710 266.626800 4.384660 19 1
-20.521460 324.674870 -13.395137 42 1
-11.562416 118.448270 16.671194 0 0
-72.596161 280.347780 13.805987 40 1
-1.783357 63.864319 11.991215 0 0
-42.266781 317.713840 -62.409473 7 1
-31.938400 161.227370 -21.805946 0 0
-6.172345 239.744720 35.054699 57 1
6.926289 239.319080 0.812301 44 1
-103.347400 107.765570 5.417948 59 1
-19.627735 94.598877 -11.147749 0 0
-62.489738 171.446820 76.705078 50 1
-44.456417 318.316310 13.263688 42 1
5.129091 57.728947 69.202957 17 1
17.158247 163.541520 -10.384768 58 1
-33.730995 207.324430 -22.080568 0 0
-21.451881 288.169920 -15.850201 0 0
-69.996239 266.520720 29.140369 40 1
-5.683711 63.792679 47.515133 33 1
-45.051464 284.521910 -6.897913 12 1
6.559886 248.267170 -64.076233 22 1
-25.764851 179.474610 52.566196 55 1
-20.494308 200.820180 52.312901 55 1
-1.360723 42.334419 69.415459 17 1
-86.589211 206.209670 -45.603626 28 1
0.163051 72.208298 -0.262852 0 0
-134.819930 257.993350 -2.994824 19 1
-112.599420 285.800170 -3.414826 19 1
-18.902506 67.282303 9.552272 0 0
-65.305908 274.703370 27.697220 40 1
5.880555 194.921740 45.116131 49 1
-15.632399 281.419770 -24.472126 43 1
-102.832970 277.992950 -39.688992 31 1
10.131986 90.364853 45.304672 37 1
-83.516754 246.260060 46.603134 5 1
-2.768362 193.702710 46.548992 16 1
-77.561493 68.338020 64.262154 14 1
-57.447674 276.190400 -32.393600 1 1
-104.987970 232.797840 56.348957 5 1
-2.650911 128.993070 -0.484115 0 0
-40.586128 107.911830 64.326019 10 1
-111.463450 195.724430 -6.172102 29 1
-48.364571 170.305650 -45.185207 0 0
-76.741905 285.967320 -0.942328 40 1
-36.065536 324.017330 22.269299 6 1
10.296884 183.831650 46.700996 16 1
-52.752880 192.778820 58.004436 50 1
-40.630363 273.960850 0.344278 12 1
-34.454155 285.327210 -6.473165 12 1
0.695577 154.035640 -27.786900 23 1
-32.076366 171.117140 52.624046 54 1
-47.623165 252.246030 26.879641 51 1
-31.371456 82.792580 54.593311 15 1
-2.136185 172.843280 54.590862 16 1
-67.338768 191.941390 20.565956 57 1
-24.026201 116.001380 -32.236706 0 0
-40.321480 283.889040 -17.498062 12 1
-25.763681 225.356670 47.927128 57 1
-28.968027 203.534910 -8.915288 0 0
-110.540630 274.471190 -48.633492 31 1
-25.126373 199.748110 32.887596 57 1
-7.019162 285.537630 -12.417575 43 1
-65.582497 94.587074 74.032829 9 1
-74.023460 294.164090 4.142592 40 1
-127.057140 100.801150 -15.532775 45 1
-10.791375 323.617580 -86.510719 7 1
-86.424400 58.941597 26.316999 13 1
-28.110622 198.919770 55.813480 55 1
-9.060431 170.784160 61.890709 38 1
-21.958689 81.922272 16.089893 0 0
-93.543480 207.254180 -42.968193 28 1
-48.935459 214.828840 -47.518658 34 1
24.332781 197.113100 57.299980 46 1
-110.003680 277.738560 -34.889111 31 1
-45.855526 301.971470 43.700359 6 1
-17.336365 213.305590 -53.379547 0 0
-12.853247 194.219740 59.150169 55 1
-34.154339 276.723140 -1.581624 12 1
-34.847645 237.646680 -20.919291 0 0
-28.917852 172.129870 -21.860462 0 0
-4.239623 66.954964 39.561501 33 1
-19.291153 117.183540 3.047431 0 0
3.462186 145.240800 82.254623 38 1
-30.655542 128.661070 -36.835049 0 0
-122.314360 263.543550 -51.155811 31 1
-52.877605 212.320720 52.933487 52 1
-94.162521 230.670840 31.341335 29 1
-57.384750 218.604580 -55.882019 26 1
-51.476460 87.292503 52.317497 15 1
37.594555 82.551315 61.450748 32 1
-4.682359 325.491460 -85.131584 7 1
-68.855347 194.927050 27.117283 57 1
-57.760559 309.432620 14.526330 41 1
0.243398 155.175580 -17.886187 23 1
-92.492607 281.263730 -12.480337 31 1
4.764000 146.951200 -71.302711 4 1
-14.227758 107.502700 -0.055889 0 0
-34.474155 124.896100 -24.019300 0 0
-3.850356 31.687428 -2.858974 0 0
-32.509876 181.325740 63.089287 54 1
-96.493965 286.308260 -41.863956 31 1
-62.209053 304.677280 17.806158 41 1
-41.054272 298.959690 -17.023363 1 1
-29.932135 167.773090 -38.965443 0 0
3.260107 47.967335 11.922032 0 0
-34.789761 97.865273 3.076314 0 0
-21.905848 126.295290 0.388849 0 0
-68.311302 84.520393 37.434826 13 1
-36.327229 51.573715 -80.930725 60 1
-8.341371 187.513200 29.111614 16 1
-42.873714 178.012570 -40.000523 0 0
0.975893 54.969044 9.238043 0 0
-15.417159 160.968870 12.179819 0 0
-54.879169 283.657200 -39.854942 1 1
-27.412172 239.279280 12.837308 57 1
-44.513287 318.499360 -5.237010 42 1
-29.562471 154.752320 -13.949015 0 0
-28.994617 208.456650 -6.559213 0 0
-22.508165 139.355160 -37.876640 0 0
-62.446682 303.849210 -57.774498 8 1
-5.202099 -0.080284 2.400647 0 0
