-31.164944 159.080800 -103.444260 18 1
-81.238655 151.301820 33.683994 5 1
-65.362823 75.719582 -35.869259 14 1
-8.934333 171.454570 105.569130 8 1
-9.566350 167.411880 111.763150 8 1
-12.946817 177.176130 -87.902390 18 1
-32.832691 155.354890 94.384254 8 1
-38.397602 167.514880 -42.759407 19 1
16.333864 192.442960 -59.480049 2 1
-18.390236 178.767790 89.210762 8 1
-8.642201 163.646240 107.445470 8 1
0.746278 155.868470 5.119922 0 0
-52.213684 167.071290 -10.022630 10 1
-81.373604 131.084580 97.869637 4 1
-66.916389 141.477390 65.572052 4 1
-0.632491 70.393501 8.487578 0 0
-37.650238 144.620710 0.387616 11 1
-25.703402 163.305360 4.523187 11 1
57.447685 87.520203 25.003946 13 1
-24.076056 130.590450 90.254440 7 1
-99.040909 71.485802 -19.020504 17 1
-82.072845 81.665390 -13.540291 17 1
-21.916956 177.741130 80.511299 8 1
4.301974 46.488964 -10.780186 15 1
-72.667343 86.136024 -10.628003 17 1
-67.836403 62.667480 8.959304 3 1
-5.323864 172.876910 -57.587730 2 1
-28.001350 137.268400 0.907482 11 1
-103.089100 134.859910 32.002583 5 1
-60.022240 79.365952 -0.224573 3 1
-32.128632 162.233870 7.685518 11 1
-17.929720 167.400910 63.404305 8 1
76.862526 88.682495 40.136684 1 1
3.281543 41.027424 -7.481295 15 1
-2.452182 172.879530 80.237373 8 1
-35.398495 128.471360 37.334549 0 0
-38.542305 128.322330 84.682053 7 1
-29.694256 170.631840 -47.302605 19 1
-6.197668 79.678345 6.361839 0 0
-2.501737 199.469760 57.808685 6 1
-71.409447 135.381970 54.159954 5 1
-32.674561 144.109180 4.694968 11 1
-12.385818 170.033220 -55.738953 2 1
-62.720665 156.249300 -8.410912 10 1
-13.996704 179.773420 85.624001 8 1
-50.711342 155.599350 54.364403 7 1
-78.251099 83.032234 -31.946815 17 1
-0.205598 164.710330 -66.290466 2 1
-87.147278 82.135841 -29.082893 17 1
-39.246090 140.781940 90.894531 7 1
-76.979050 131.993330 51.872261 5 1
-1.802514 164.736560 29.713310 0 0
-2.315383 51.952076 5.115714 0 0
-17.873859 195.642140 2.581011 9 1
-49.173744 84.003281 -34.612198 14 1
-10.125347 169.801930 -49.979858 2 1
-50.843517 139.537400 -57.488953 19 1
-36.328091 140.174090 50.475029 7 1
-44.456059 131.066360 80.259109 7 1
-25.183699 192.504170 -8.656659 9 1
-8.416312 143.254880 106.933610 8 1
-56.379044 151.616960 50.873608 7 1
-94.401184 150.949690 24.121635 5 1
87.771332 82.737930 23.884302 1 1
0.295254 130.040010 6.015819 0 0
8.820365 173.148530 -67.116196 2 1
-29.577728 161.660160 95.925766 8 1
-34.799202 154.299560 -62.987099 19 1
-22.010098 148.218120 108.446530 8 1
-91.445351 131.375260 65.075493 4 1
-3.787543 33.476040 28.863102 16 1
5.820923 193.277940 -49.308056 2 1
73.590591 86.891014 6.440635 12 1
17.396019 186.403140 69.624428 6 1
-75.388229 138.395140 75.299789 4 1
-101.355020 122.528280 69.519630 4 1
7.536624 180.421110 64.965401 8 1
-2.988771 167.832430 6.763989 0 0
-56.363224 76.122963 -43.650597 14 1
-86.934731 128.794720 89.855347 4 1
-21.651651 205.463990 -8.580658 9 1
-2.099748 85.678757 5.150490 0 0
-1.485542 142.773650 11.033013 0 0
-26.134167 181.602780 -5.092597 9 1
-39.643700 125.421880 77.837929 7 1
-29.472555 158.290450 -86.780075 18 1
-16.565998 175.653920 63.394520 8 1
-32.424664 169.364290 61.298321 8 1
-3.047252 109.420660 -4.094857 0 0
-46.815407 151.493260 -98.221245 18 1
-22.252268 143.675000 8.727386 11 1
-30.533512 193.507350 -14.051330 9 1
87.453812 78.785728 38.338348 1 1
-73.765091 133.438190 66.157364 4 1
-11.194184 168.298480 -0.797346 0 0
9.916821 208.466890 62.245598 6 1
-15.344995 40.583729 13.472894 16 1
-49.254761 135.005920 -61.654675 19 1
-46.489075 157.422010 -50.282894 19 1
-87.102623 77.654221 -16.623892 17 1
-8.115200 183.430390 64.304298 8 1
-70.066948 151.792760 61.994617 4 1
38.535477 82.955482 37.629108 13 1
-53.462700 154.920330 -46.737720 19 1
-64.543457 162.139370 35.490845 5 1
-1.269861 164.633190 70.692230 8 1
-10.163251 161.642620 116.119120 8 1
57.872562 87.497330 31.721649 13 1
-5.305035 141.057210 80.405060 8 1
-8.100673 167.151120 104.100330 8 1
-29.143579 138.950040 5.398469 11 1
-33.257290 162.212220 91.600578 8 1
-67.898323 70.786751 3.391434 3 1
-9.420452 175.438960 -53.559952 2 1
-6.857821 37.103580 18.654436 16 1
-40.928116 163.804400 80.340836 7 1
-5.014394 120.094710 -9.237368 0 0
-65.342766 137.782380 55.254017 5 1
10.860014 191.656280 -56.640400 2 1
11.742853 183.390440 74.133530 6 1
-36.188148 164.818850 84.523407 8 1
-0.432576 30.705656 -1.466247 0 0
-41.507748 154.670760 -51.461445 19 1
-65.155006 66.733047 13.402089 3 1
-83.681236 140.049960 37.591038 5 1
-16.492048 36.263870 18.497654 16 1
-83.249046 131.842540 49.157619 5 1
57.355927 97.312080 -5.758863 12 1
-27.139902 209.250550 -13.030604 9 1
-26.736807 173.725830 85.931068 8 1
-13.167746 161.774060 -52.401138 0 0
-53.784592 82.236618 -2.461495 3 1
-46.530025 81.920700 -41.333305 14 1
66.628281 92.408539 12.802911 12 1
13.598667 208.950270 66.389526 6 1
-2.916980 184.451250 -52.417221 2 1
-31.904799 143.996310 53.271530 7 1
69.504967 90.831528 10.453360 12 1
-52.112461 133.360120 62.408878 7 1
-7.663574 157.120420 103.473540 8 1
-32.524033 189.351560 -8.948121 9 1
-26.022892 164.339510 -52.316605 19 1
-52.488239 149.142960 -47.572441 19 1
-78.404434 135.683170 69.777130 4 1
-81.905205 143.980910 47.680988 5 1
-97.384766 144.491530 27.113239 5 1
-25.306511 168.304090 61.745995 8 1
-18.148943 176.211010 0.703003 0 0
-15.339798 166.281370 -70.789055 18 1
-39.334179 160.801420 60.667824 8 1
-7.298071 134.940350 104.038370 8 1
-68.216118 148.686890 49.336018 5 1
-37.879505 154.185180 -108.194380 18 1
-49.094395 79.995415 -18.409018 0 0
-37.659592 160.450960 -53.682384 19 1
-4.288395 148.545060 81.630127 8 1
-74.993446 154.866170 34.894249 5 1
-9.714804 154.487140 113.680450 8 1
-8.364043 149.969350 106.980680 8 1
-78.110954 146.414840 55.766232 4 1
-6.921495 138.238010 100.577040 8 1
-5.139728 36.454288 1.165572 0 0
-37.274429 142.518980 -66.407944 19 1
-43.388374 175.561780 -5.743752 10 1
21.881971 37.044762 -12.522548 15 1
-1.957834 15.937972 -0.797282 0 0
39.744720 82.462364 32.742157 13 1
-91.445755 129.675750 78.415993 4 1
-76.276367 85.665474 -26.756157 17 1
-21.415688 172.675890 7.256466 11 1
-31.066330 163.388790 -107.714180 18 1
70.200829 93.550758 22.718828 1 1
-54.943150 152.283740 -43.078545 19 1
-58.974308 150.089130 57.801228 4 1
-83.754761 141.494400 69.638977 4 1
-55.452530 79.610634 -34.815716 14 1
-28.885731 176.259690 2.341544 11 1
5.772392 169.621800 -59.061115 2 1
-10.178322 181.721300 78.947395 8 1
-7.572577 143.518130 103.049800 8 1
6.833858 176.567600 -56.350376 2 1
-24.102402 203.616440 -0.962913 9 1
-74.895020 141.546840 86.914787 4 1
44.343624 78.701363 37.190212 13 1
-28.713018 167.875080 -94.353584 18 1
30.535477 74.245880 8.745271 0 0
-25.783455 163.265010 -73.245705 18 1
-52.812527 146.016140 -50.717777 19 1
0.060290 188.989400 -47.923172 2 1
-17.192261 29.158667 22.437563 16 1
-34.949821 150.194990 3.913433 11 1
-29.603876 154.082290 -67.797371 19 1
-64.940910 80.722031 -6.635537 3 1
-18.154949 60.527515 1.065289 0 0
51.428356 92.578323 21.392738 13 1
-59.095524 141.831040 38.787460 5 1
-69.365372 157.041340 36.603081 5 1
-0.332432 194.381070 57.940178 6 1
-28.701311 197.312560 -4.479647 9 1
-62.347816 151.964360 45.913761 5 1
-14.581958 182.072010 68.816017 8 1
-0.256010 38.696857 20.369389 16 1
-1.673038 10.635673 -1.161265 0 0
21.472668 40.328342 -6.298376 15 1
-21.459492 172.210650 65.882515 8 1
-14.087514 145.839360 67.798691 8 1
-73.208046 83.017189 -15.517947 17 1
-12.114869 144.300140 -32.423302 0 0
-11.170375 38.535530 15.994719 16 1
-14.351675 138.937480 73.315048 8 1
23.529980 183.991130 -70.632317 2 1
-8.741391 92.956512 15.191726 0 0
-67.224083 149.018460 55.973347 4 1
-18.768688 142.511900 105.140400 8 1
3.790782 200.143360 60.043442 6 1
-67.425766 72.608437 -2.939931 3 1
-88.699059 80.039795 -32.640102 17 1
-88.633202 131.907560 88.032036 4 1
3.683588 176.180180 -61.537029 2 1
-28.652470 161.581540 -104.646610 18 1
-34.097515 152.658710 -3.888779 11 1
12.783179 174.468890 -69.456032 2 1
-24.569485 173.552630 1.414995 0 0
-38.694641 148.109890 88.775261 7 1
-10.097829 132.921080 -23.071518 0 0
15.689050 45.070202 -17.386547 15 1
14.768978 183.879170 67.994476 6 1
-8.258639 33.086529 25.101307 16 1
84.212433 82.149185 36.336643 1 1
49.216999 90.224861 23.266132 13 1
-63.617882 69.522339 -39.353939 14 1
14.587742 183.966510 -63.910191 2 1
-29.383440 180.095690 -3.617430 9 1
-16.557756 180.229970 74.685051 8 1
-27.242182 143.802580 9.279118 11 1
-89.878021 136.173170 69.311798 4 1
-4.341815 46.238159 6.342283 0 0
-85.837471 155.759380 24.818970 5 1
-92.714584 129.119950 84.845947 4 1
-28.574436 202.655460 -7.444026 9 1
72.546730 82.790726 -18.928211 12 1
-78.974182 142.733950 78.667778 4 1
-20.827583 145.844670 15.006635 11 1
-32.668968 183.121000 -9.027478 9 1
92.482201 77.499451 31.344109 1 1
-5.378049 95.355217 4.802522 0 0
-11.219127 180.838180 90.970085 8 1
73.517105 91.885071 18.400389 1 1
-15.682905 171.414920 -5.072604 0 0
-6.390655 38.325954 9.540622 16 1
-35.134109 170.756550 64.373306 8 1
-30.886700 150.646700 -70.136856 19 1
-5.319814 181.070980 -52.834846 2 1
-26.022745 170.600080 -93.071136 18 1
-30.365730 160.880370 -54.344788 19 1
-18.234262 176.031680 -85.052353 18 1
-77.018723 135.266780 94.886887 4 1
-22.632425 163.161210 -63.055416 19 1
-1.121975 179.222400 5.096228 0 0
-86.763870 140.795560 51.988850 5 1
-43.367836 148.429320 -102.174520 18 1
-50.157803 86.438560 -29.172026 14 1
-65.551346 69.215630 8.715966 3 1
67.670891 88.589714 -10.009459 12 1
-7.496710 177.423280 5.027941 0 0
-62.789829 78.237198 -34.455967 14 1
-21.674856 112.920200 26.869373 0 0
53.120522 84.263046 29.403692 13 1
-42.787739 153.889340 -86.593704 18 1
-51.071983 160.202790 56.443039 7 1
-12.519461 151.390590 121.553100 8 1
-1.458088 158.656390 25.172808 0 0
-94.026718 143.026630 26.513649 5 1
-92.689369 145.860200 30.044514 5 1
-51.038109 145.875150 -56.743553 19 1
-12.572486 134.300810 115.262310 8 1
-44.372669 160.744310 -44.108971 19 1
-18.642506 169.210450 -65.608307 18 1
-51.633686 83.411728 -31.914806 14 1
-32.856445 164.280440 -96.956100 18 1
-99.278854 131.568590 56.426842 4 1
-90.915962 138.088650 51.999016 4 1
-18.461411 165.644910 -62.108250 0 0
-29.840866 175.076930 58.953236 8 1
-2.419734 168.821990 28.787914 0 0
-0.878478 20.548227 0.225286 0 0
1.611495 36.905346 -4.548972 15 1
-87.279518 131.283770 81.833092 4 1
-19.871746 154.257720 110.811970 8 1
-36.449276 146.820560 53.035530 7 1
-40.798363 156.139620 -56.032433 19 1
-39.276726 164.608570 -7.366122 11 1
-13.332439 170.760270 -104.082440 18 1
-2.646013 166.939610 -64.459946 2 1
-26.100573 155.036090 13.021632 11 1
77.255127 90.179344 23.350807 1 1
-5.477979 191.974910 56.109844 6 1
-43.991871 136.488160 -65.378571 19 1
-19.618214 160.108930 16.193884 11 1
-19.316940 165.409820 -71.982758 18 1
68.493309 87.900215 -17.860493 12 1
-3.120427 164.563890 84.097824 8 1
48.131458 88.661797 28.930849 13 1
-64.938179 146.050860 77.428345 4 1
-32.724331 125.211590 34.804283 0 0
45.188675 84.759346 34.737976 13 1
9.167555 180.564740 72.439125 8 1
-12.964815 142.278990 -25.822239 0 0
-28.214548 166.881960 -101.829930 18 1
-75.604172 146.915310 73.945396 4 1
-40.435661 151.987930 -4.637373 11 1
-42.445095 157.134220 -99.498413 18 1
79.729477 89.847618 14.660156 1 1
10.015350 42.458126 6.243875 15 1
-3.681475 113.602240 2.710206 0 0
-1.473932 167.312680 77.665947 8 1
-11.344867 150.361100 -32.326065 0 0
58.252968 93.303169 10.793756 12 1
-18.090776 169.107990 -50.809467 0 0
-31.202061 153.328860 -61.795162 19 1
3.869390 40.480282 -2.273211 15 1
-90.892822 133.682160 76.201698 4 1
-5.683161 185.981580 -49.852661 2 1
-29.440247 162.761670 -111.239070 18 1
-24.813322 173.353990 68.217056 8 1
4.771321 37.345592 3.863086 15 1
-47.128460 132.167400 -67.818672 19 1
4.373779 62.614429 5.489960 0 0
-10.880274 157.681240 67.258286 8 1
-54.521530 139.771510 -58.918392 19 1
-27.016045 146.539180 4.650827 11 1
-45.787365 81.782387 -47.382492 14 1
-5.889629 41.982479 2.396905 0 0
-105.632950 116.545780 83.074730 4 1
65.398315 90.445328 -5.392941 12 1
-27.649757 174.468750 80.521118 8 1
-16.637434 174.863040 -98.060745 18 1
-46.754993 142.419430 52.552826 7 1
-6.020460 177.117400 46.025307 0 0
-28.791714 172.249100 64.851288 8 1
-2.773707 162.668170 26.846369 0 0
-52.218441 159.166610 -42.208652 19 1
-48.931450 159.677060 -45.580975 19 1
-56.784328 142.507390 43.763092 5 1
-2.709734 174.301680 -53.641422 2 1
-19.922369 177.857800 70.899063 8 1
-41.351437 140.259480 47.843464 7 1
-46.886372 136.925890 79.957764 7 1
-26.070379 164.194760 -104.822680 18 1
57.997143 86.125313 12.474711 0 0
-41.913002 158.048510 -90.535820 18 1
9.448757 204.770260 62.396729 6 1
45.606518 92.569473 24.464464 13 1
-14.941784 177.691010 98.662743 8 1
-5.522089 46.418602 -11.387170 15 1
-102.083600 128.816800 61.134811 4 1
-40.406467 161.576080 -50.753750 19 1
-3.598719 186.220430 59.294708 6 1
-47.233212 137.610290 41.642719 7 1
-19.478474 134.547780 75.023941 8 1
0.181332 49.968658 -14.673154 15 1
-17.092920 92.351006 8.401439 0 0
-41.615223 144.698170 48.257858 7 1
-57.779430 81.537766 -8.285118 3 1
14.941209 66.759415 5.964657 0 0
92.370140 82.493706 21.134340 1 1
-60.660904 86.802681 -22.283089 17 1
-9.511239 23.028870 25.995384 16 1
55.634651 84.727325 35.648727 13 1
-99.854073 137.773190 28.543264 5 1
-52.511505 59.670471 -54.385658 14 1
-34.051514 156.752110 5.383855 11 1
3.994619 183.007720 -52.099182 2 1
2.822288 169.790080 -65.412636 2 1
-29.945124 146.118410 55.944920 7 1
-53.659817 139.300670 52.154232 7 1
-2.525512 6.446123 2.293033 0 0
-50.066502 82.479675 4.271468 3 1
-13.058814 167.670350 -75.778984 18 1
-10.892687 136.008130 105.871640 8 1
-72.365334 62.013424 2.880266 3 1
-62.754166 148.889600 67.349289 4 1
0.796691 38.885185 8.456318 0 0
-50.152584 129.274350 66.228531 7 1
14.597559 180.112120 67.901474 6 1
-31.653854 171.196300 76.233795 8 1
-83.348946 134.388610 42.447437 5 1
-44.361179 138.114650 43.845505 7 1
-2.581665 141.447200 3.892271 0 0
73.235512 90.802948 31.208462 1 1
-21.640577 177.544040 1.458908 0 0
-2.643685 169.799510 35.167919 0 0
-1.255496 108.869630 0.533411 0 0
-13.260972 30.907824 20.546700 16 1
-37.698658 136.243350 43.933792 7 1
1.817001 137.469420 3.214594 0 0
-34.790825 145.778380 -71.353737 19 1
-41.239761 157.579620 -102.875550 18 1
-7.520834 170.419620 98.248680 8 1
62.554977 91.970490 -14.369572 12 1
-5.480043 32.598259 0.533653 0 0
-21.797693 163.735790 103.326990 8 1
-34.377262 132.600170 99.479645 7 1
-7.069631 153.412730 68.962631 8 1
-70.032524 136.390300 60.677078 4 1
-7.497580 175.781660 -96.014084 18 1
-6.672965 146.556920 99.295479 8 1
-57.413219 82.006874 -24.747169 14 1
-11.118866 171.574520 -99.093018 18 1
-42.924667 149.797260 -92.262741 18 1
-7.363994 180.211730 -48.948990 2 1
19.430868 45.219666 5.676397 15 1
-15.727054 144.497390 120.709720 8 1
-24.327744 150.149340 8.460534 11 1
-58.014599 65.208611 -46.352619 14 1
-36.878899 161.020940 -98.440506 18 1
-9.987611 136.504680 -22.749346 0 0
-57.398888 72.890457 -42.162552 14 1
-5.896821 68.923584 8.176619 0 0
12.454153 48.229061 -17.478786 15 1
-25.052134 176.686860 62.568771 8 1
-101.559200 130.815860 34.747261 5 1
-51.156143 145.114000 43.960022 7 1
-0.241856 0.865290 -0.605449 0 0
-10.064281 184.591290 56.767525 8 1
59.080036 88.931152 27.881990 13 1
-36.934242 144.305680 50.511311 7 1
-34.217724 140.024340 97.257759 7 1
-4.566860 181.835720 74.163406 8 1
-36.610176 160.915150 -86.961403 18 1
-1.996978 63.155071 2.828157 0 0
-6.447758 55.920216 3.018941 0 0
-9.118075 129.540210 102.663530 8 1
-46.636959 139.762620 -66.599968 19 1
-6.142232 168.586330 93.186584 8 1
-32.015083 151.568830 -1.047881 11 1
-58.541630 71.185394 -45.724270 14 1
-23.968361 146.876660 60.104698 8 1
-55.378490 132.961170 65.825607 7 1
-32.228222 67.735237 -5.926723 0 0
74.399406 85.785561 0.578869 12 1
-5.590193 178.879550 49.530548 0 0
-48.243271 166.449220 0.512136 10 1
12.559733 190.316760 65.368187 6 1
-87.550781 135.331420 80.017006 4 1
-9.401926 174.471020 65.888443 8 1
-59.107750 81.249481 -31.780510 14 1
-4.732424 181.533660 55.386215 8 1
-102.855060 115.328590 88.810898 4 1
54.916355 89.021362 27.213112 13 1
-13.804098 181.058620 72.292053 8 1
-53.524216 157.940340 -3.103140 10 1
-29.697048 127.840740 87.920227 7 1
-18.377712 154.153690 -38.133808 0 0
-21.421795 158.030330 106.709820 8 1
-68.670433 62.653244 12.487616 3 1
1.151793 61.735222 4.212370 0 0
0.174295 147.808490 6.541092 0 0
-87.069046 139.570340 63.673248 4 1
-48.391987 85.771545 -40.390335 14 1
-20.412245 181.957210 56.880276 8 1
-86.302162 131.726580 46.895405 5 1
-54.521221 140.734620 66.124146 7 1
10.922503 192.940870 -52.078934 2 1
15.534129 202.234760 67.470314 6 1
-32.555004 196.262210 -15.269349 9 1
0.028496 178.134050 1.893116 0 0
12.613443 180.573960 -57.849663 2 1
59.654881 91.751801 17.022055 13 1
-1.359838 178.614530 -56.838776 2 1
-9.994663 179.112660 98.165779 8 1
93.283737 75.555542 34.539471 1 1
-20.227633 170.603160 11.728143 11 1
-10.677640 165.691740 -48.897598 0 0
-23.634996 165.661350 -98.533463 18 1
0.558074 188.817690 -52.125458 2 1
0.137599 144.452070 2.701271 0 0
-22.246563 138.429790 97.727097 8 1
-6.899036 133.951610 90.045700 8 1
-93.530540 129.230330 71.901291 4 1
-67.666435 87.169128 -28.776205 17 1
-29.376833 157.317180 -81.898430 18 1
-83.313225 81.666496 -32.891682 17 1
64.761436 88.988853 1.692858 12 1
-70.265503 149.128200 73.788681 4 1
-59.844494 136.540420 51.240433 5 1
10.226260 46.433743 -12.313766 15 1
-48.785416 154.811290 -44.516502 19 1
-84.025658 148.000790 34.863441 5 1
-44.373177 149.646730 78.996498 7 1
-2.757108 11.797731 2.646012 0 0
-14.081876 152.078320 -36.109795 0 0
-15.569489 161.704130 -48.733723 0 0
-60.139954 144.146180 -50.290501 19 1
-5.829726 164.023790 94.229492 8 1
-12.324319 128.582430 109.453040 8 1
-22.706059 162.100880 16.507507 11 1
5.791833 50.321594 -17.606449 15 1
-92.164841 134.658160 40.311485 5 1
-104.063020 123.553920 73.427765 4 1
-40.226341 135.619340 64.939400 7 1
0.952788 189.303450 57.660419 6 1
-8.117150 93.825218 10.601333 0 0
-56.426022 131.458560 -64.011307 19 1
9.427498 204.795170 65.967743 6 1
-55.103947 150.743380 62.484768 7 1
-19.279743 172.721190 -100.724510 18 1
-48.243404 172.747850 -2.289284 10 1
7.156664 60.385185 5.930971 0 0
-92.228218 80.565071 -32.413349 17 1
-62.110306 145.119810 66.875641 4 1
78.826004 87.606453 29.468994 1 1
6.283897 189.621830 67.254730 6 1
-4.930812 151.577870 87.965019 8 1
-37.152721 153.896390 -56.194427 19 1
-42.674164 162.890520 -47.059425 19 1
7.255698 186.282470 68.128586 6 1
-53.998798 157.211490 0.736086 10 1
-39.983341 147.293400 0.157573 11 1
-92.637314 136.405810 34.939049 5 1
1.005160 170.129620 -55.745533 2 1
-103.121650 119.840680 81.175034 4 1
-72.017883 152.653230 34.330383 5 1
-21.768633 167.048600 15.037637 11 1
-36.984043 176.241410 -4.323613 10 1
8.317955 182.568600 -60.709774 2 1
-80.512009 138.184080 41.026249 5 1
-73.508278 163.000180 27.854168 5 1
-2.550792 175.485980 39.440315 0 0
-7.531489 160.687350 102.165110 8 1
-34.174004 171.580340 4.034160 11 1
22.539577 192.370000 -60.248390 2 1
-50.210808 69.088554 -57.626968 14 1
-20.824163 166.597030 -90.511673 18 1
-20.447506 172.351550 60.450497 8 1
-26.759182 162.497760 12.431958 11 1
-95.590454 133.229280 50.152821 4 1
-35.783066 151.517060 -92.879852 18 1
17.697998 41.264668 -12.600921 15 1
-27.235590 168.238240 -80.781898 18 1
-48.806129 128.168520 72.978928 7 1
-48.290237 138.354740 -59.982727 19 1
-102.194930 122.918530 76.673904 4 1
-60.526344 146.562290 40.272465 5 1
-12.995401 171.000320 0.597591 0 0
-47.338108 134.680360 62.928680 7 1
-18.503849 108.170380 23.990467 0 0
-20.648649 174.903320 -89.265266 18 1
-90.805008 131.287090 70.560074 4 1
3.452095 206.098570 62.900837 6 1
-63.686150 149.707430 50.218906 5 1
19.196350 188.385770 71.900749 6 1
-35.775852 154.564880 -102.327060 18 1
-6.665423 161.540210 67.457245 8 1
10.993011 194.451660 70.020020 6 1
-30.891582 188.921980 -12.379931 9 1
-87.247757 136.684300 38.183578 5 1
-48.787491 138.315380 76.217216 7 1
-18.332146 135.105300 87.362259 8 1
-4.321357 145.674000 74.991409 8 1
-44.431614 167.927660 0.795755 11 1
59.806648 96.164124 -11.168989 12 1
-16.815891 42.316048 16.200506 16 1
18.793415 196.904170 71.358688 6 1
-42.123547 163.221940 3.097177 10 1
-16.006901 23.713133 23.269289 16 1
-69.421692 78.025406 -9.953202 3 1
-49.814526 136.904920 57.045650 7 1
-25.357901 154.196580 -66.239304 19 1
-38.162468 170.836010 -6.663590 11 1
-5.285274 186.480350 54.493813 8 1
-46.491631 154.334010 74.117249 7 1
-0.586163 25.369221 0.917173 0 0
-9.920531 176.228550 103.522960 8 1
-56.581993 85.840286 -14.662998 3 1
-16.762314 154.985860 64.953140 8 1
-92.838684 75.011131 -13.801655 17 1
-94.223282 133.058820 70.068687 4 1
-44.641884 156.662410 76.558044 7 1
-93.525986 136.529430 54.157837 4 1
-18.300316 160.230210 64.861023 8 1
16.750380 189.566570 -61.794540 2 1
-40.788284 137.807140 41.479370 7 1
-14.345521 136.792980 82.488319 8 1
8.010433 198.061360 67.333687 6 1
-18.387062 192.043700 -0.704603 9 1
-38.178890 180.270940 -0.431943 10 1
91.121277 82.549286 29.895529 1 1
-81.406342 130.069020 94.449532 4 1
70.842422 83.759171 -3.621567 12 1
-3.625166 98.489761 2.946418 0 0
11.981236 184.882970 65.725838 6 1
-17.850695 132.432460 81.364586 8 1
3.166556 37.244164 10.420541 0 0
-7.590248 167.655350 100.368770 8 1
-69.197556 70.378716 -0.184604 3 1
-15.110909 172.402600 -73.329620 18 1
-88.757622 141.498570 32.263756 5 1
-84.427490 145.685000 28.393381 5 1
-31.623005 154.935670 -64.899704 19 1
-5.738596 146.217380 92.039879 8 1
-57.449612 141.355820 61.378960 7 1
-49.861851 142.303100 -55.613609 19 1
-35.476475 156.652420 -59.383968 19 1
-3.592266 159.432250 84.507820 8 1
-9.490286 37.146713 4.519470 16 1
-65.219658 86.613762 -26.190437 17 1
55.866222 87.245155 14.987199 0 0
-23.390152 181.980380 60.204514 8 1
-27.753487 116.868900 30.479919 0 0
-5.757380 102.240560 4.932323 0 0
-19.230938 175.193340 -2.825279 0 0
-2.511487 80.392815 6.946313 0 0
17.321859 173.723740 -68.651657 2 1
-2.698727 176.457090 67.205421 8 1
-40.306965 157.337050 -49.584908 19 1
21.458878 188.091310 -65.898201 2 1
-91.040115 132.661290 52.455757 4 1
-28.905504 201.396130 -15.167732 9 1
-3.104654 194.548510 61.821602 6 1
-53.854084 142.978760 40.704510 5 1
-7.648012 139.520320 76.742271 8 1
-76.530067 136.288850 45.377300 5 1
-62.022491 140.862950 56.140221 7 1
-1.160882 160.454060 5.825284 0 0
-19.136452 33.965408 20.161816 16 1
-84.787506 151.913310 25.367336 5 1
-22.570612 178.362880 76.826294 8 1
-84.505455 138.962480 76.590195 4 1
-64.461563 159.403660 38.298962 5 1
-40.826382 150.197720 -103.746350 18 1
-53.505795 87.070549 -26.679966 3 1
72.238159 78.884392 -11.852075 12 1
-3.318514 154.833300 78.212967 8 1
-1.095777 181.859470 73.439575 8 1
-33.321983 129.130390 76.125191 7 1
1.279445 116.155170 2.111680 0 0
-48.691628 164.967580 62.009182 7 1
-68.882355 86.215981 -18.228481 17 1
8.283776 42.797600 -10.050636 15 1
-54.900291 73.198959 -48.722649 14 1
-70.223694 84.712875 -25.887650 17 1
-44.452839 160.966510 74.157028 7 1
-1.220260 103.736270 5.096713 0 0
-37.107506 163.240910 61.777248 8 1
83.762878 84.847099 38.450775 1 1
-24.628195 132.454180 97.505516 7 1
74.147018 76.190208 -9.252601 12 1
16.066504 193.414700 73.232826 6 1
-11.589432 177.220140 -51.456501 2 1
-4.631601 151.487550 71.178864 8 1
-38.929527 152.774280 56.413670 7 1
-19.112278 202.697590 1.067481 9 1
-21.412241 146.452130 10.660769 11 1
-77.069687 151.248830 31.556093 5 1
-8.467297 132.852330 -20.031214 0 0
54.364685 87.044624 31.054863 13 1
0.946693 151.016540 5.401430 0 0
-41.492912 149.335820 -57.457409 19 1
-4.166296 16.231060 1.836054 0 0
-7.835676 128.304440 -19.875288 0 0
-24.248045 151.559950 105.574990 8 1
-22.939455 150.955020 -37.355186 0 0
85.807823 85.186981 31.415127 1 1
-33.626514 161.619130 -3.889587 11 1
-14.013741 63.204884 4.274861 0 0
-23.205143 166.018590 -103.188740 18 1
-6.035867 170.061250 -52.975964 2 1
-24.843849 174.913770 -1.788280 0 0
44.059994 80.919922 11.341558 0 0
-56.337437 84.029831 -27.924995 14 1
-49.000393 76.124313 -50.353497 14 1
-11.437194 165.893590 -3.281117 0 0
-5.782403 195.893450 59.860886 6 1
-56.984905 76.110481 9.334735 3 1
-87.207893 138.322460 45.257515 5 1
-48.098904 147.916550 -52.885185 19 1
-10.734617 59.656136 2.010654 0 0
-35.931736 156.472060 59.582191 7 1
16.024658 190.459340 -54.614555 2 1
70.583656 85.117699 1.128674 12 1
-73.903473 71.255959 -2.770957 3 1
-6.348945 125.807110 -15.086049 0 0
-8.298880 28.200760 27.755661 16 1
-99.807800 143.254940 21.505968 5 1
-51.226009 148.658160 69.098335 7 1
-7.813498 61.771008 5.255009 0 0
-97.490608 123.416660 79.852371 4 1
-2.366818 111.474880 6.157549 0 0
-70.315269 67.051102 5.287668 3 1
-77.220642 86.303696 -32.088081 17 1
18.896729 202.826870 72.139252 6 1
-76.294426 84.892128 -22.774035 17 1
-15.707157 102.152090 21.148827 0 0
-80.946571 158.104490 26.891228 5 1
-4.006380 171.182600 5.009144 0 0
-40.120621 157.062880 -83.027824 18 1
-47.777195 68.122864 -59.882858 14 1
-22.341188 160.258070 9.910040 11 1
-37.792244 166.046860 75.433868 8 1
-5.018277 49.267765 1.949116 0 0
-7.220736 35.455734 12.334781 16 1
-70.386330 152.493470 40.318455 5 1
-9.027362 173.542140 -106.218110 18 1
-27.982731 148.226180 102.139430 8 1
-28.923779 164.541170 -79.337646 18 1
1.202846 68.421806 4.370906 0 0
-9.861741 141.078860 -26.808372 0 0
-28.842791 143.375920 59.996243 8 1
-66.205643 60.536407 14.109468 3 1
19.252394 179.629290 -70.807709 2 1
-30.068018 151.634800 -64.571777 19 1
-46.081764 148.309430 -58.834934 19 1
-35.183971 168.228070 73.205078 8 1
-61.864735 78.639900 -6.900980 3 1
-17.078903 39.695496 19.569324 16 1
-47.054104 87.079468 -33.350689 14 1
40.089855 80.656677 39.788239 13 1
-36.161766 136.200940 65.503868 7 1
48.394054 94.278946 18.383366 13 1
-54.081425 86.051224 -6.870210 3 1
-14.298532 140.950840 109.659510 8 1
-3.814568 32.045330 7.266957 0 0
15.384743 196.367860 -55.714497 2 1
-78.188599 156.598300 30.581724 5 1
-49.304722 174.208470 -6.412090 10 1
-4.476509 92.129051 4.174864 0 0
-85.764793 133.507580 68.255241 4 1
-20.423281 63.823498 0.050939 0 0
-9.197299 131.762210 95.730736 8 1
-46.075127 145.379000 -61.804806 19 1
-1.584293 145.678340 12.879130 0 0
-62.774731 75.644958 -1.879562 3 1
9.220822 194.527070 62.027660 6 1
5.795140 185.452270 61.800205 6 1
-12.577057 164.647750 65.320312 8 1
-1.604532 184.946580 -49.249237 2 1
-5.655284 115.020810 -7.030827 0 0
-50.579376 154.569950 66.449539 7 1
60.140213 91.576569 13.401665 13 1
-55.677067 150.035810 46.044613 7 1
38.345882 85.803734 34.192631 13 1
-43.014755 152.499500 80.687263 7 1
-74.014175 157.918120 32.640636 5 1
-61.683201 83.824715 -14.376932 3 1
-9.905737 139.714310 111.772150 8 1
-37.805893 134.877790 94.262520 7 1
40.659698 75.968193 10.330333 0 0
-55.001839 67.263771 -49.168385 14 1
-0.967609 6.257485 -0.735177 0 0
-101.840000 124.822500 62.939163 4 1
-40.450813 141.220230 57.729244 7 1
-41.062946 137.001310 -67.886681 19 1
-67.481361 84.734276 -23.150330 17 1
-20.001476 169.077330 102.527900 8 1
20.358063 176.302020 -66.655075 2 1
90.343277 85.913239 19.806419 1 1
-84.499222 131.868390 84.194046 4 1
-11.844198 98.239136 14.626601 0 0
16.849812 175.730680 -72.342865 2 1
-57.146484 164.037370 -10.840560 10 1
-29.316984 128.204250 80.630684 7 1
-47.636822 147.955700 74.168098 7 1
-65.979218 150.165540 62.978981 4 1
-24.265829 154.870450 8.815952 11 1
-65.361031 141.322160 61.663334 4 1
-72.729279 147.759400 52.186794 5 1
-81.775803 144.496370 44.330120 5 1
-3.110237 38.655846 15.206457 16 1
5.232800 186.822680 -56.277046 2 1
-22.973612 191.486050 -5.804623 9 1
-45.004456 152.983430 -50.216492 19 1
-19.544708 174.037730 -77.975334 18 1
-68.768501 78.961624 -5.058589 3 1
-29.841740 159.990450 9.632221 11 1
-45.229961 143.036300 80.170692 7 1
-21.691044 196.022840 6.259810 9 1
-46.240070 160.028140 58.143986 7 1
-60.536449 149.886540 54.803654 4 1
-38.897247 164.807880 -44.984413 19 1
-105.949750 122.430660 65.729607 4 1
-63.872169 163.566350 -11.175013 10 1
-97.719086 73.967926 -14.523211 17 1
-26.702402 137.330760 67.890930 8 1
-20.521790 156.666120 -40.093689 0 0
-96.121727 70.556557 -29.434214 17 1
-13.158994 180.510850 64.132492 8 1
-6.230556 180.282360 87.497658 8 1
-41.542534 147.834840 -2.974098 11 1
-1.436685 170.876740 68.300369 8 1
-59.701035 83.071442 -18.368061 3 1
1.529053 180.005770 -52.583523 2 1
-10.081511 185.210240 -46.848148 2 1
-110.471560 113.213970 76.742264 4 1
0.423830 34.159431 -2.767198 15 1
-21.606983 165.581990 8.733419 11 1
-2.904713 155.023590 20.046431 0 0
9.542591 180.846010 69.093529 6 1
-72.216293 146.638180 34.534554 5 1
-95.130287 133.371550 64.814865 4 1
-64.818581 73.595329 3.452378 3 1
-6.257748 156.887150 96.367508 8 1
13.916509 42.317795 7.394634 15 1
-13.443812 36.174179 17.049952 16 1
-86.571800 141.320140 43.686600 5 1
7.465611 39.878330 -1.655420 15 1
-54.114162 135.272280 -58.529285 19 1
-6.427095 53.106495 6.692745 0 0
6.051149 177.002760 65.491539 8 1
-43.218739 158.181230 -6.433417 11 1
-39.978619 156.861010 -109.891690 18 1
-13.599575 136.539020 75.716057 8 1
91.074341 80.650307 36.342484 1 1
5.955393 182.823670 72.809799 6 1
-68.644318 149.314940 45.971176 5 1
-45.627548 151.251830 53.170921 7 1
-23.327227 178.850680 -3.193302 0 0
50.812263 86.729317 31.630001 13 1
-11.012894 171.747590 -91.584457 18 1
-91.546043 148.566680 28.172796 5 1
-23.023487 155.317340 -68.880989 19 1
-59.588776 170.512330 -5.241861 10 1
-75.431435 137.976520 71.960144 4 1
-51.936520 139.789610 41.615791 7 1
-16.469572 168.533190 -61.160786 0 0
-20.226921 167.228390 -104.182030 18 1
3.286922 179.698240 70.065353 8 1
-5.990569 57.099659 8.260234 0 0
-70.763863 162.865130 29.994831 5 1
11.281887 172.087920 -62.839581 2 1
-14.620287 168.832490 -67.799690 18 1
-9.104050 59.092426 7.182932 0 0
-10.082860 144.633830 -27.914474 0 0
-29.362261 164.311600 -55.140446 19 1
-68.121819 146.592250 82.446648 4 1
-43.501293 160.217100 -50.127476 19 1
67.250572 92.542976 17.892960 1 1
11.675452 193.386600 64.210007 6 1
-94.316490 139.767010 30.535887 5 1
-76.360619 141.522350 39.616890 5 1
-21.258320 184.126370 -1.909441 9 1
-61.613876 139.517840 50.863674 5 1
-28.680046 141.495010 62.872448 7 1
-53.431145 75.525810 -45.591297 14 1
-104.836870 141.906770 22.009701 5 1
-25.864080 161.017940 -80.384636 18 1
-28.187212 178.948650 57.409794 8 1
-5.147594 173.378980 67.229286 8 1
-52.007504 147.804350 46.478767 7 1
-6.153637 150.135300 94.413841 8 1
-21.230507 109.217990 25.874735 0 0
-38.434006 131.930860 70.160522 7 1
-28.955338 149.025160 3.342700 11 1
-4.740474 25.802578 1.688904 0 0
-5.776089 179.552340 0.001215 0 0
-15.320869 62.381382 1.244591 0 0
-105.694120 136.443980 25.803658 5 1
-4.131986 151.745070 82.619926 8 1
-16.521679 168.541750 -90.991669 18 1
-6.721263 66.755661 5.732694 0 0
-48.000202 160.781630 67.095787 7 1
-37.439594 154.412190 -81.646828 18 1
12.662662 41.684998 -8.746777 15 1
52.778336 84.264931 11.756922 0 0
8.873060 174.713120 -58.257122 2 1
-7.326008 35.137577 6.733518 16 1
-41.090557 135.827320 89.202797 7 1
68.236107 85.018227 -20.322945 12 1
47.931614 81.184891 40.459431 13 1
-0.056841 184.136030 57.825565 6 1
-6.644573 163.232410 -61.784824 0 0
-10.192761 176.764770 -104.888960 18 1
-76.742508 148.094450 68.274406 4 1
-3.079828 43.583893 -8.630514 15 1
-23.502605 173.958970 -83.236038 18 1
-6.358986 166.174770 1.779713 0 0
-89.095795 130.486400 93.178055 4 1
-40.553982 149.492190 -63.031868 19 1
-86.343544 79.692986 -19.374006 17 1
-38.233562 157.306170 0.170342 11 1
-41.081585 82.336067 -51.019207 14 1
-14.616633 169.066220 109.867280 8 1
-27.481348 128.936750 84.256371 7 1
-62.622932 68.636421 -42.711365 14 1
2.988526 166.063600 -64.430496 2 1
-0.833056 158.905040 0.236935 0 0
-1.563667 89.188293 6.929976 0 0
2.640370 195.118840 65.213562 6 1
85.490471 79.232864 45.022141 1 1
39.371819 88.433144 29.347967 13 1
37.220440 74.409134 9.406613 0 0
-50.516788 168.551250 -1.413750 10 1
-71.359070 83.459236 -21.163864 17 1
-51.503288 73.092400 -51.318466 14 1
-9.155840 127.148440 -17.036339 0 0
96.144020 78.221527 30.673964 1 1
-28.527857 153.951340 99.732231 8 1
-66.356476 155.302460 36.702030 5 1
-2.743782 95.899750 6.783954 0 0
-9.509594 179.292010 -93.092422 18 1
73.891678 77.672096 -19.843227 12 1
-1.586128 204.900820 58.741222 6 1
-13.286167 137.078260 118.340030 8 1
-70.254570 72.960381 -7.840119 3 1
-50.688362 142.942550 71.346832 7 1
-6.500288 134.109450 100.875500 8 1
-2.436951 184.764920 62.301514 8 1
-44.470242 148.472320 -55.584846 19 1
71.919754 90.499901 25.536968 1 1
-55.324554 76.967995 -40.557407 14 1
-29.415680 157.185940 -63.811028 19 1
-43.422832 128.103940 72.770630 7 1
-2.516158 39.318062 -5.200175 15 1
-31.529333 164.774140 -84.945724 18 1
-45.223484 161.054520 2.751780 10 1
-43.535542 164.040820 61.291096 7 1
-36.258621 163.815080 5.000826 11 1
63.271309 89.778427 8.223213 12 1
-43.352230 142.879760 53.486294 7 1
-31.018778 177.154390 -3.943958 11 1
-19.148663 178.300750 62.211952 8 1
-24.903366 113.809810 26.233299 0 0
-16.444366 144.293870 114.168320 8 1
-0.318938 65.036255 8.771484 0 0
-26.635860 145.468120 103.852450 8 1
-33.348423 130.187390 97.437347 7 1
-90.846054 129.437030 82.114960 4 1
16.094908 43.664074 -3.892681 15 1
-84.998070 134.974380 87.559883 4 1
-6.137633 177.935670 -54.073776 2 1
-32.272930 166.520110 87.065796 8 1
70.926506 85.266464 -14.447229 12 1
-13.989165 164.525630 -47.972996 0 0
-52.173546 81.375648 -19.068394 0 0
-1.723840 202.672420 62.155724 6 1
-62.374046 142.335800 59.771202 4 1
5.027667 189.339650 -50.275196 2 1
-44.443344 141.317540 42.953384 7 1
-14.024420 177.774050 70.703323 8 1
-15.592566 148.324540 65.620514 8 1
-11.481364 148.310460 118.252820 8 1
-28.241171 163.649730 62.401371 8 1
-57.937481 141.750930 -50.943069 19 1
-73.082848 149.481320 42.418167 5 1
-24.215857 157.015110 15.020054 11 1
8.815604 168.953060 -68.057922 2 1
-15.356740 179.749680 78.471802 8 1
-4.362455 175.368000 71.862663 8 1
19.111773 38.128498 -17.141649 15 1
-46.578094 148.945920 -102.887600 18 1
-44.908974 86.864136 -36.705658 14 1
-16.187099 68.478745 1.549484 0 0
-0.094552 37.407494 5.593796 0 0
-63.068398 79.737419 -11.903472 3 1
15.684186 211.416240 65.656502 6 1
-51.804390 157.316070 -45.164059 19 1
-13.769110 162.828740 116.324060 8 1
4.942048 181.194630 -59.446968 2 1
-59.201019 76.568703 1.847446 3 1
-90.115059 153.639250 23.764034 5 1
9.880484 182.132490 -54.870331 2 1
12.606663 43.276634 0.889074 15 1
-13.310778 140.191680 93.628761 8 1
-24.779104 140.165740 66.414024 8 1
-7.107920 181.018310 53.141884 0 0
-48.902611 151.278660 -53.027222 19 1
-74.515343 65.711617 -2.877276 3 1
-92.034286 135.519290 64.069733 4 1
-65.622612 83.476509 -15.983759 17 1
-29.691120 145.730550 7.688035 11 1
-88.837578 76.145493 -12.773857 17 1
-1.848942 144.669370 7.451393 0 0
-83.335243 142.739610 59.799026 4 1
-9.897169 138.475720 79.662132 8 1
-104.384130 132.259720 33.698929 5 1
-34.552986 144.044370 95.344650 8 1
-30.359200 168.495180 -50.343040 19 1
-35.812813 178.512530 -1.917548 10 1
-48.524162 177.423220 -2.786706 10 1
19.692991 184.106340 -65.003082 2 1
-54.531864 79.451447 2.599886 3 1
-31.136814 148.669390 0.308370 11 1
-23.677982 130.822100 83.453560 7 1
-24.037729 140.421720 6.230355 11 1
17.927561 65.429153 6.878487 0 0
55.239120 89.466316 21.074909 13 1
-5.120679 37.718628 21.390520 16 1
40.326099 85.383461 31.328451 13 1
-36.705612 128.354370 89.155502 7 1
-95.933640 127.513720 67.491562 4 1
-105.949450 134.787860 28.883266 5 1
-36.889694 132.858150 37.114738 0 0
8.762569 39.892784 8.505184 15 1
-9.496191 174.019700 -85.669884 18 1
-50.718285 137.783080 73.262375 7 1
-33.392136 148.227750 -64.953934 19 1
-84.197327 141.552780 66.042473 4 1
-35.907566 128.016710 33.956749 0 0
-60.987263 158.671680 40.218380 5 1
-12.445683 142.853010 120.335370 8 1
-15.677284 154.109860 -41.159054 0 0
-45.872711 78.008621 -55.715389 14 1
-80.107162 135.175480 92.245979 4 1
-76.404716 134.644560 88.037636 4 1
-81.256523 152.983690 27.547544 5 1
1.067304 179.412290 62.871330 8 1
-38.058079 157.041700 -6.305422 11 1
76.204010 90.547447 29.281986 1 1
-35.822392 159.343670 -110.634570 18 1
-5.397221 111.397440 -2.831587 0 0
-23.102736 165.133970 -71.241409 18 1
26.400711 69.185905 7.878210 0 0
-3.810547 158.098800 69.760513 8 1
59.154282 95.625397 -0.366599 12 1
62.273018 89.631493 17.806704 13 1
-105.081730 118.717210 78.356033 4 1
71.106865 81.969353 -9.765724 12 1
-38.803471 151.277300 -57.627487 19 1
-16.657455 167.848790 -47.866585 0 0
-13.296769 170.688390 -50.738605 2 1
70.219307 87.061859 5.220405 12 1
-25.453674 169.854450 -50.633900 19 1
-53.608200 83.031395 -37.592060 14 1
44.582672 94.241440 21.557848 13 1
-3.971053 175.205630 64.153381 8 1
-89.992569 140.539540 37.952286 5 1
-16.686722 169.376800 106.044400 8 1
-13.309910 159.913570 -44.847515 0 0
-2.847099 172.026370 37.649933 0 0
-21.805075 177.557680 84.908485 8 1
-90.868279 128.111890 87.355957 4 1
-0.026054 166.240920 -59.335831 2 1
10.210109 40.662807 2.920518 15 1
-57.376217 150.165800 -43.926052 19 1
-13.514076 153.224960 66.436035 8 1
13.753969 193.003020 -57.545338 2 1
-38.034718 167.762700 61.670341 8 1
-27.797283 166.193530 95.227188 8 1
-41.161556 141.063000 -69.551994 19 1
-10.223597 35.723465 19.826960 16 1
2.067183 206.361920 59.456409 6 1
-85.759193 141.666810 33.834732 5 1
-52.722107 134.139980 59.291538 7 1
2.139974 139.566390 6.019689 0 0
-73.603119 87.161560 -30.512184 17 1
-46.384312 154.038510 -100.679570 18 1
-78.654984 148.112820 39.283474 5 1
-26.740746 196.925920 -11.715000 9 1
-15.672393 175.158480 -1.349555 0 0
-4.701342 61.297035 3.133540 0 0
-3.652413 160.431670 3.493194 0 0
58.923988 92.551239 6.572461 12 1
-62.658916 163.868180 -5.684723 10 1
-52.023575 132.058780 -63.180332 19 1
-5.053487 85.553322 10.884188 0 0
-12.849622 133.238020 122.437060 8 1
-29.548342 183.511750 -4.109458 9 1
-90.654716 77.108284 -27.752729 17 1
-99.733299 145.026370 24.716156 5 1
-18.046118 189.532100 5.316610 9 1
73.392868 80.595055 -3.402693 12 1
1.405726 147.449190 11.262375 0 0
-6.604486 184.412480 -47.078979 2 1
-17.982672 164.998250 -55.462879 0 0
-92.444603 143.504030 32.282364 5 1
0.463661 133.277630 6.465891 0 0
-41.664543 167.282520 -42.693874 19 1
-51.316158 142.579190 47.112740 7 1
91.320656 76.094231 37.251106 1 1
-69.380348 141.405170 71.227768 4 1
-101.344500 126.336520 58.104130 4 1
-1.588747 104.441650 1.613432 0 0
-29.327209 147.803790 -69.834251 19 1
-6.038142 176.492950 40.263771 0 0
-73.921036 159.785680 27.540339 5 1
0.425347 172.577150 4.387050 0 0
-100.315190 130.185520 64.220634 4 1
-3.649103 149.791280 76.303246 8 1
-53.963066 68.351318 -52.826080 14 1
-77.061150 131.679290 93.605240 4 1
-32.121326 154.353610 -87.391609 18 1
-10.333512 40.175476 6.789817 16 1
-10.982759 180.986770 3.609289 0 0
-94.887978 74.889458 -32.703461 17 1
11.196343 63.714012 7.807672 0 0
14.897946 183.965120 72.194336 6 1
75.778542 80.789452 0.673443 12 1
-18.348339 168.768200 -68.916962 18 1
-47.274677 143.549060 44.112446 7 1
-85.922241 136.631130 50.096786 5 1
83.832268 83.927383 42.371922 1 1
50.095768 89.825417 26.480551 13 1
-77.313080 147.435030 42.436108 5 1
-75.945595 137.754260 92.103500 4 1
95.761650 77.556076 33.903046 1 1
-1.738560 175.382800 -58.414356 2 1
-69.808815 59.540295 8.605666 3 1
-80.220833 137.956910 87.510254 4 1
-39.346352 166.762940 68.906059 8 1
-19.961493 162.850250 -61.238796 0 0
-78.925568 142.656560 36.226200 5 1
-84.925323 83.148758 -35.663128 17 1
-14.949095 164.955610 -56.929329 0 0
2.257554 76.719208 9.814891 0 0
-56.126007 166.455280 -2.036554 10 1
-22.568155 165.314870 -53.451397 19 1
-58.758511 138.188450 56.824730 7 1
-14.253890 43.070812 4.825353 16 1
-11.736748 94.800240 15.157244 0 0
-78.992172 146.742710 61.233200 4 1
-0.765302 197.282960 63.266861 6 1
-66.509567 77.639145 -11.949359 3 1
17.910694 206.416410 69.485130 6 1
-53.029667 84.936852 -24.288050 3 1
-83.774323 133.912250 77.730385 4 1
-30.459206 141.741210 100.594820 8 1
-31.475060 171.526670 69.407776 8 1
-38.403656 139.516240 45.274757 7 1
0.263468 126.673630 5.752708 0 0
-85.982841 79.930855 -27.017729 17 1
-19.557009 151.099580 -38.573738 0 0
-28.063335 160.004300 -57.537861 19 1
-17.245514 174.222180 101.558260 8 1
-54.659611 151.870790 -48.766907 19 1
-52.629318 79.201111 -39.265347 14 1
-40.111732 149.803210 86.071198 7 1
-87.643044 153.284940 26.023935 5 1
-52.419495 151.786420 51.210251 7 1
8.229922 43.044460 -5.148683 15 1
-55.686863 141.418440 -56.253010 19 1
-93.951653 132.055150 73.414955 4 1
-0.119214 153.799090 15.755315 0 0
-20.303579 159.957670 -65.563782 19 1
-33.117897 147.873640 5.217122 11 1
86.833748 82.538246 39.752422 1 1
-12.337399 183.247010 62.623116 8 1
-22.914993 135.232670 96.165215 8 1
-67.477463 83.688431 -13.333432 3 1
-20.888332 166.196380 62.935894 8 1
-28.503418 170.039900 90.454834 8 1
-4.696989 177.713850 84.682938 8 1
-8.812907 138.234800 83.953957 8 1
78.895538 86.380554 41.162899 1 1
-32.279713 153.683290 59.209564 7 1
74.200584 74.236412 -15.466530 12 1
20.781160 182.663020 -69.587158 2 1
-70.253647 64.877174 8.598870 3 1
-34.202839 168.198010 -47.754444 19 1
-34.254009 157.438920 92.097946 8 1
-44.196507 157.394180 -87.705475 18 1
-67.242683 138.820140 59.500969 4 1
-24.741940 133.384640 73.043503 8 1
-78.383171 81.603889 -18.994648 17 1
-80.939598 82.277954 -30.329798 17 1
19.235380 179.151320 -65.245865 2 1
2.885967 166.942400 -61.134197 2 1
-37.526146 152.693760 -62.188488 19 1
-39.925709 159.325710 84.214912 7 1
3.479542 195.520290 59.415993 6 1
-17.727184 188.672700 1.124326 9 1
-85.333450 79.163750 -9.537283 17 1
-12.847129 172.411990 -53.621609 2 1
-90.925903 134.842360 37.169762 5 1
-40.264168 161.263430 -1.536562 11 1
-16.131430 175.585010 -78.835571 18 1
-0.079928 37.620514 14.648987 16 1
-55.857174 172.633360 -7.771749 10 1
-52.792870 156.740770 -40.176117 19 1
-43.470802 158.421040 -46.470341 19 1
-31.177059 169.382520 83.336945 8 1
-71.709282 64.693672 0.926587 3 1
-12.846757 174.095920 -76.462852 18 1
-3.500559 2.377482 1.428576 0 0
-45.123863 136.570020 60.980434 7 1
-30.752041 159.515110 -110.596160 18 1
14.130439 176.892760 -61.243034 2 1
-20.547659 194.899700 -4.015790 9 1
-12.548111 142.410030 71.999878 8 1
-6.367276 186.202260 -0.120050 0 0
-79.683083 82.500656 -34.809769 17 1
40.307732 91.499542 25.133223 13 1
75.097374 90.240471 36.562714 1 1
-78.877602 132.617550 60.844456 4 1
-3.317560 169.107070 65.555771 8 1
-32.722416 125.212700 83.443764 7 1
-48.058975 80.297546 -15.371378 0 0
-31.449085 158.713640 -99.395218 18 1
-11.438581 139.317180 -30.713575 0 0
-24.501314 159.880250 -60.814957 19 1
12.004222 189.176610 70.774742 6 1
-15.332079 168.636640 -55.876137 0 0
-77.527313 158.557590 25.497694 5 1
-16.383469 157.734890 -43.423985 0 0
-30.105879 148.930270 57.485840 7 1
-92.614365 124.937730 95.302643 4 1
-99.808426 141.294620 24.162210 5 1
34.668758 76.356506 9.430882 0 0
-24.152824 150.783660 14.108306 11 1
-53.678108 176.369670 -4.410429 10 1
81.059586 85.479675 35.118656 1 1
-17.802563 45.707787 9.847691 16 1
-1.210740 138.551760 3.721733 0 0
-13.047267 145.189590 -29.007357 0 0
-44.461353 141.071930 46.961815 7 1
-28.262888 176.104020 -2.247915 0 0
-88.890884 132.065400 73.608986 4 1
-6.799829 174.744340 -55.439732 2 1
-1.648240 180.483540 -51.298256 2 1
-63.115303 142.833970 43.286991 5 1
-26.617275 160.721310 99.593765 8 1
-13.784925 175.215300 -103.787650 18 1
-8.258493 157.140060 106.767650 8 1
-45.152428 143.458440 -58.119629 19 1
-3.628263 46.018005 2.016005 0 0
-4.230936 166.130750 4.197006 0 0
-90.744759 139.354750 33.869007 5 1
-10.415411 182.473140 54.342075 0 0
38.924503 77.511467 40.093243 13 1
-11.620591 167.994510 114.509220 8 1
-50.771763 162.514450 61.513100 7 1
-86.065491 134.304470 40.757484 5 1
-22.291092 112.026870 23.852919 0 0
-33.058655 132.102130 71.257729 7 1
-0.195292 32.090096 1.563139 0 0
-33.221008 158.792970 -78.929367 18 1
-46.120800 150.210190 75.968765 7 1
58.052982 92.186157 20.064512 13 1
-96.599884 133.082640 60.104160 4 1
11.512958 177.588590 -58.534264 2 1
-35.090359 173.078660 59.625206 8 1
-63.038311 153.069120 39.740074 5 1
-55.484203 86.516205 -21.743225 3 1
0.299174 46.427444 -11.504805 15 1
-65.192917 81.352837 -9.759396 3 1
-46.530483 134.553990 -65.193329 19 1
-37.138832 147.750080 -62.306454 19 1
-70.772781 138.942430 47.406227 5 1
-98.604744 124.297040 71.540268 4 1
69.683479 94.580025 28.296623 1 1
-2.911482 176.377590 80.907066 8 1
65.214462 89.940483 -19.260391 12 1
74.963440 81.819710 -8.074740 12 1
2.075342 71.544373 9.729446 0 0
-20.320770 166.657240 -48.779453 0 0
-40.576241 158.535750 -96.966881 18 1
-73.172462 136.789550 90.494202 4 1
-13.011683 170.214830 -71.939285 18 1
-5.284852 106.531860 5.183561 0 0
3.264286 177.857090 66.822945 8 1
15.209564 44.353710 4.745523 15 1
-2.886806 130.663800 7.268673 0 0
-31.536026 141.100360 4.598679 11 1
-26.369646 129.449840 76.906738 7 1
-7.753853 164.443360 -64.594620 0 0
-11.606740 167.893160 -61.192005 0 0
-23.965595 162.690830 -56.637470 19 1
-44.943295 163.506330 -41.585152 19 1
-28.366365 154.262560 3.536819 11 1
-37.433914 155.331970 88.946426 8 1
-6.199282 117.275220 -10.467035 0 0
-81.047310 131.528810 88.657028 4 1
-30.521273 166.671650 -90.904655 18 1
-60.187523 154.649080 44.588226 5 1
9.245390 177.630540 -64.286087 2 1
-63.158512 146.152020 38.522972 5 1
3.623327 43.397732 -10.372224 15 1
-81.128098 135.771500 72.169762 4 1
-89.595078 132.618880 83.566895 4 1
-86.616402 134.481640 53.599571 4 1
-19.638714 201.720670 4.063253 9 1
-12.173449 150.343520 -37.978931 0 0
-22.740271 169.499080 -104.931400 18 1
-83.123383 135.296620 49.369759 5 1
-5.336853 85.347641 4.789295 0 0
-37.183784 151.978930 -83.685440 18 1
-27.221361 205.506440 -7.015994 9 1
-21.129400 166.894490 -96.314781 18 1
-39.939129 148.806920 -92.759880 18 1
-46.882084 152.297410 -105.185460 18 1
-3.475158 40.265190 1.232209 0 0
-60.674198 81.947632 -29.098997 14 1
-11.595600 140.685330 117.329900 8 1
-64.578392 155.756330 41.401711 5 1
-97.865944 130.118320 37.832111 5 1
-54.841202 144.626220 66.698395 7 1
-40.056217 134.800090 37.802898 0 0
-45.270767 139.620040 -60.598743 19 1
-41.562370 153.548800 -57.710529 19 1
-42.698471 146.880050 50.301781 7 1
-31.334541 139.896820 63.586254 7 1
-12.548405 138.269420 -21.997385 0 0
-1.615535 78.489861 9.373344 0 0
-75.470459 84.354774 -18.013453 17 1
-62.098896 64.691444 -43.189075 14 1
-2.212661 39.476261 26.224785 16 1
2.035586 64.374535 6.745139 0 0
-3.208063 101.075900 6.762291 0 0
-12.590121 170.448730 -95.506927 18 1
-87.791077 131.477100 41.702618 5 1
-5.443463 198.995150 59.069267 6 1
-0.096833 174.337660 1.799215 0 0
-44.716301 155.069200 -93.383888 18 1
-29.911646 127.606220 92.495224 7 1
-47.162964 158.780170 70.760368 7 1
-8.106124 37.763058 15.732200 16 1
0.620019 34.213581 5.864922 0 0
-63.213379 84.890198 -21.477980 17 1
-26.385969 156.816220 -62.540672 19 1
-3.539967 186.659500 3.943874 0 0
-89.060425 129.550700 96.366547 4 1
-9.413364 39.244839 10.388439 16 1
-43.482407 151.900830 -108.705550 18 1
-13.105354 138.352810 113.089550 8 1
-42.143806 81.653824 -47.265602 14 1
-53.955772 62.930054 -51.385071 14 1
-102.875760 118.219440 87.520409 4 1
-63.358196 74.763603 -38.555565 14 1
-38.006599 152.314000 -101.459530 18 1
-37.929306 176.515400 0.191612 10 1
-11.513247 138.672160 98.059395 8 1
-27.103804 197.679030 -1.776718 9 1
60.505898 92.304474 -5.352951 12 1
-6.321568 172.454010 91.884209 8 1
-7.832531 34.089943 18.348772 16 1
1.692874 203.156050 63.322224 6 1
63.082378 92.895767 -17.341564 12 1
-89.347092 138.521300 58.368797 4 1
-12.863285 128.583470 116.474520 8 1
-2.315035 137.037600 6.464381 0 0
-46.664925 130.628740 67.930740 7 1
-93.150230 73.778908 -27.021141 17 1
-51.145344 84.376022 -41.107876 14 1
-26.631830 139.084350 7.423063 11 1
-67.151314 137.526630 52.532135 5 1
64.971954 89.444244 -13.659062 12 1
-74.072723 134.166030 94.680458 4 1
-34.752754 72.609772 -8.885179 0 0
