-57.706360 306.126920 72.932854 4 1
-24.737478 161.058350 60.686901 33 1
-12.066961 144.031570 25.447899 9 1
-38.801205 118.103870 82.120773 17 1
31.891556 89.909035 52.507683 20 1
52.224949 178.146440 28.653736 32 1
57.646828 265.438290 85.807655 12 1
-25.482893 101.992090 9.276976 0 0
15.583605 174.846680 17.429459 31 1
-44.497955 162.463240 84.239250 24 1
56.882118 285.981570 17.228756 56 1
-6.399366 250.924120 87.227043 61 1
-121.789140 246.603420 -16.495073 1 1
1.612981 275.804930 63.698414 61 1
-67.783607 146.915210 3.728839 53 1
-154.103850 280.084010 -42.971283 63 1
9.272283 55.691315 25.032280 0 0
-63.866745 285.717530 76.637360 45 1
23.069786 175.604600 74.879539 25 1
6.392390 195.593490 50.905399 29 1
-48.870747 137.907490 -38.235718 54 1
-50.938942 258.019070 42.310715 0 0
34.496872 187.627520 -5.177276 59 1
-36.786606 143.411470 42.163948 9 1
-41.826839 281.889160 8.361435 0 0
-118.033880 135.656850 79.586479 60 1
-79.873581 210.505140 53.094238 38 1
-40.117992 206.249070 -13.510059 0 0
-26.727457 259.828770 93.628708 34 1
-121.905080 274.120570 -28.226439 63 1
-11.706580 68.613358 -0.597304 0 0
23.837648 156.687740 10.111603 30 1
37.995003 171.294110 2.055465 31 1
50.651787 173.853120 56.959270 32 1
30.126963 157.195180 -14.399792 31 1
-2.484900 206.265590 46.512512 29 1
-41.674431 130.569660 51.946892 9 1
-47.888618 310.283660 4.998944 0 0
-20.091942 126.538540 19.819981 0 0
-28.737076 311.351380 66.759735 5 1
-37.839943 164.355740 5.964137 0 0
-17.425730 311.797760 -3.575873 44 1
-31.417500 284.711700 34.028725 0 0
-50.104053 119.681010 73.118279 17 1
-57.185062 148.692980 79.762245 35 1
-12.564413 169.727020 97.616463 25 1
-100.907350 280.480930 95.359329 45 1
-125.981380 278.457640 87.064713 45 1
34.489498 266.994450 90.960770 12 1
-25.729710 318.602600 -15.145522 44 1
-87.251045 182.145980 24.930878 39 1
-73.972191 159.096530 -51.449787 52 1
-115.541920 295.271820 -49.070465 63 1
-36.050011 310.099980 44.261284 6 1
14.501784 212.220150 31.096161 29 1
35.729729 106.235700 23.313377 20 1
80.356941 170.415990 44.690575 47 1
-35.907013 201.076770 12.627558 0 0
53.582230 102.415600 -2.994030 21 1
-71.086121 167.074970 -10.811547 53 1
45.938663 134.596190 -21.191362 30 1
-5.690131 36.974594 10.189134 0 0
-77.977325 173.046280 53.569489 35 1
-8.336092 170.031110 82.942886 25 1
-5.270051 146.280360 -48.088345 13 1
-44.601830 278.137420 -45.109367 7 1
-67.905342 161.828870 58.592518 35 1
57.618973 112.974990 36.178177 19 1
-97.662750 225.793440 -15.701465 49 1
32.471802 159.215530 35.433781 32 1
-46.579872 252.968800 92.722885 34 1
45.192436 271.697750 83.361298 12 1
-78.857330 275.575780 120.635170 23 1
-39.811932 205.716540 -30.820559 57 1
-1.909281 126.448400 7.590255 0 0
22.816481 288.193730 56.745350 56 1
46.187702 162.951580 19.217220 32 1
45.446438 105.230950 13.046624 21 1
-63.800156 198.764880 12.875216 37 1
38.790749 173.240390 26.122831 32 1
-12.230989 190.064240 45.133293 29 1
44.389240 270.834990 29.660528 56 1
-47.731949 324.427580 -25.852713 44 1
-96.320541 176.315960 33.863052 36 1
-96.322235 152.735630 86.717155 60 1
-60.238102 261.492280 124.372150 23 1
-28.938269 121.000810 -19.597275 0 0
4.774054 289.935030 67.710983 61 1
-24.067337 209.875780 -26.930956 58 1
-52.934181 279.032010 108.170400 23 1
-75.555565 333.875460 -35.309017 2 1
-57.513214 219.272090 21.598532 40 1
-36.201279 326.633180 1.678495 44 1
-123.781500 137.599210 67.193748 60 1
-31.237690 264.616730 21.006903 0 0
-41.149590 236.509640 27.486334 0 0
-45.760643 238.276060 0.525115 10 1
-19.939545 275.923370 21.809534 0 0
-78.491180 218.402650 -1.032240 0 0
-111.086420 134.765370 -10.935893 50 1
-122.467740 185.770140 6.274312 49 1
-21.447578 153.513820 27.216045 9 1
-81.470528 191.119310 70.930954 38 1
36.757191 213.337230 20.875280 48 1
-128.932360 252.925050 1.435469 8 1
5.327333 60.375126 9.922996 0 0
-54.309082 191.417740 -39.912674 57 1
29.833130 279.167180 40.336769 56 1
-107.412850 294.837890 89.342094 45 1
-19.729832 189.870540 -59.183178 55 1
7.995660 157.784380 -12.616160 31 1
-9.683342 96.631798 42.781033 0 0
-44.207432 151.438310 69.923904 33 1
-25.923101 149.720920 46.586166 9 1
-45.030163 117.686290 -14.535440 0 0
-35.614872 175.836090 111.481000 22 1
-33.492992 112.948660 101.481580 16 1
14.023173 146.172780 110.782300 25 1
69.620125 95.144829 49.714722 19 1
-16.192751 147.836270 -78.918861 51 1
1.340107 118.314490 38.667931 0 0
-94.170685 268.561800 -4.395473 8 1
-36.703510 100.337100 -13.646022 0 0
-71.630287 272.535980 -23.281406 7 1
-2.955013 291.527130 46.900436 62 1
-16.147778 172.323240 121.242130 22 1
8.858346 271.111050 76.485512 61 1
-59.905174 144.478790 26.810261 0 0
18.410446 140.097850 -52.716820 13 1
-93.582359 170.457380 48.235115 36 1
54.791935 159.711270 68.501793 32 1
31.159616 70.075745 53.518345 26 1
-17.911524 95.901978 0.224639 0 0
-124.294160 252.832700 -34.985493 1 1
-78.885948 202.815280 12.822828 39 1
-117.046840 157.906540 24.207428 36 1
-74.785339 171.249190 -30.500635 52 1
-31.039236 145.410460 130.347260 22 1
-49.541809 308.600920 45.353886 6 1
-6.505370 13.431928 -2.916749 0 0
56.603020 276.120090 26.418962 56 1
18.426432 175.995010 57.987942 32 1
-54.286377 168.976470 61.659241 35 1
-29.155628 112.679240 2.689711 0 0
-77.123749 307.849460 16.550392 3 1
-150.168380 289.049900 -55.218204 63 1
25.918709 201.545000 14.390038 59 1
41.773323 151.130520 -9.646376 30 1
28.158897 162.569490 102.990100 25 1
0.072882 113.486090 86.826714 18 1
-89.182617 277.746280 82.290184 45 1
14.356966 147.631390 6.594775 30 1
-107.759020 272.312320 84.243950 45 1
36.670471 271.202450 50.540672 56 1
3.012803 183.289230 44.733833 32 1
-15.204764 145.052080 53.006821 9 1
-71.749397 284.821810 55.249844 6 1
-26.325468 271.581390 88.702965 34 1
-22.732510 318.739750 8.943952 44 1
-64.957024 307.565800 50.064854 6 1
6.618004 202.234130 31.657915 29 1
5.347445 141.878540 -42.622303 13 1
27.601685 177.851240 47.971981 32 1
70.812752 105.114050 38.990429 19 1
-39.040081 282.509670 -27.938429 7 1
62.087921 186.695540 50.851566 48 1
6.237516 159.859390 41.021282 32 1
-51.592190 222.837650 34.065571 40 1
56.679108 192.148590 40.212147 48 1
35.610512 155.641940 113.059000 25 1
-41.855915 310.687010 -33.015984 44 1
-43.878319 195.679550 51.667816 40 1
21.557053 284.295500 80.944283 12 1
13.174925 141.241990 -65.962280 13 1
-73.671646 279.264160 -33.800964 7 1
-17.402332 299.117550 -25.845434 44 1
-11.814466 64.920212 13.269119 0 0
-60.266094 264.761840 90.647057 34 1
-10.125299 60.116413 34.242226 42 1
45.739521 283.310910 78.440063 12 1
-29.722071 239.529710 11.715799 0 0
-11.708835 58.538853 -9.145712 0 0
-81.121620 161.540700 -41.254841 52 1
63.032139 263.006770 21.202116 56 1
48.391769 251.570450 99.950050 12 1
5.348700 282.132570 45.733711 62 1
-68.948112 267.431030 99.556305 34 1
-15.102665 106.915660 16.058954 0 0
-39.837494 316.719910 58.124580 5 1
-50.814545 329.468140 -1.717286 44 1
-31.362823 171.395810 89.893036 24 1
-82.247726 168.541290 64.353691 35 1
6.021428 173.368760 93.342041 25 1
4.267090 135.052920 38.559803 0 0
-11.207267 173.038640 49.498425 33 1
80.984604 163.106640 34.185112 47 1
-69.846054 249.472050 -14.243789 0 0
-38.650108 146.440770 29.057823 9 1
-119.944090 267.712590 85.176460 45 1
-132.893510 284.252870 -42.902115 63 1
-83.292603 264.200320 127.214690 23 1
-96.892029 163.582810 -28.361683 50 1
-32.489117 191.263660 5.926727 0 0
-8.044362 34.033661 -1.966384 0 0
-65.812386 153.794750 72.656876 35 1
42.439751 207.738750 33.785202 48 1
54.471973 282.688840 67.926048 12 1
-20.921072 136.410420 12.200768 0 0
-58.677677 327.086490 12.796709 3 1
-27.332319 142.865360 34.426891 9 1
-37.395702 142.715360 -85.998276 51 1
-39.217625 105.094310 108.869200 16 1
-25.219555 300.992920 61.349735 5 1
60.330605 170.139910 50.519726 32 1
-82.442757 258.381990 -10.871195 0 0
-65.138214 276.899140 84.932861 34 1
-27.884375 147.195280 -2.034855 0 0
-1.057909 148.158230 28.534184 9 1
-67.982826 236.025530 -13.802719 10 1
-5.547404 149.486500 -27.503933 31 1
-87.662170 219.369510 49.290806 38 1
34.236267 172.206050 14.804027 32 1
35.116100 286.142580 61.102646 12 1
42.758186 289.522060 37.230698 56 1
-111.949780 283.650880 84.821991 45 1
-127.612040 235.815260 -1.029761 8 1
-147.905290 274.748720 -34.054588 63 1
-103.201180 258.219760 -30.988857 1 1
-15.265586 84.121208 -11.893021 0 0
-10.135114 288.399290 79.112473 61 1
-35.727875 201.401600 -41.335728 57 1
-79.456299 216.381560 26.697081 39 1
19.511740 143.071120 27.009319 30 1
-28.688549 124.433910 79.133873 17 1
40.437523 167.453630 62.310760 32 1
27.697990 99.798248 -35.783707 14 1
-93.578392 150.261370 -41.781357 52 1
7.270383 181.682720 56.080997 32 1
-116.369080 202.701540 -4.058113 49 1
-42.717113 160.467580 96.023064 24 1
-25.360683 209.726290 -1.121909 0 0
-113.574080 146.680470 -31.313568 50 1
16.580124 173.292470 3.663466 31 1
-99.171158 249.585980 -23.171688 1 1
-14.092028 114.997030 86.637138 18 1
-68.732620 226.572510 38.686493 40 1
-38.792606 255.557430 22.735567 0 0
-28.854584 310.448940 -6.643450 44 1
-62.927505 215.780610 60.666534 38 1
-40.652607 137.957340 -10.981026 0 0
-66.585999 283.168980 105.365020 23 1
-40.154541 303.670990 68.752953 5 1
-6.479879 268.804930 80.551414 61 1
-43.948433 176.874850 14.756930 0 0
-47.289429 147.641400 37.089672 9 1
-43.891266 273.078670 78.058418 34 1
31.259481 104.617650 40.657673 20 1
-107.607210 156.142210 -18.575453 50 1
-60.902016 205.627430 -11.409009 0 0
30.062088 160.127440 55.977180 32 1
-101.910960 213.902860 27.630985 49 1
-54.379498 221.661470 -14.420373 0 0
6.271240 150.669480 -21.810263 31 1
34.577988 259.039000 99.607666 12 1
-16.693222 180.668870 99.446190 25 1
-94.805450 220.601530 6.225946 49 1
-56.130676 288.154080 -28.603409 7 1
-107.888100 159.298540 39.330238 36 1
12.277057 64.910263 60.404617 28 1
-96.582268 235.954510 -9.958704 1 1
39.347847 80.577110 52.333027 20 1
-124.105570 261.747770 -20.885643 1 1
-29.624928 258.990450 10.848264 0 0
-2.960567 52.881268 16.156326 0 0
-33.910000 166.721880 100.524040 24 1
-34.007008 161.471880 67.912285 33 1
-43.562630 160.600360 -15.887887 0 0
12.665903 281.892520 54.833576 61 1
-6.355016 149.009630 46.030571 9 1
-17.051172 114.154680 58.593918 0 0
-88.317192 157.520520 64.774429 35 1
-65.818665 335.793790 -14.720625 2 1
-34.261063 313.210750 16.971182 43 1
-44.779552 128.860210 -58.654003 54 1
-33.511093 139.233660 -52.193302 54 1
-70.624138 320.741670 22.649216 3 1
5.787596 161.104020 -1.725262 30 1
-37.710781 261.386930 98.308960 34 1
-60.758091 289.215850 89.073708 34 1
-7.982682 45.252712 2.349499 0 0
-86.305145 301.134370 21.248695 3 1
-57.921833 318.596070 56.307724 4 1
52.157867 162.039180 44.707970 32 1
-51.353199 237.251920 14.560582 10 1
2.238720 106.437190 35.673798 0 0
48.972492 267.996890 39.878952 56 1
-94.458015 192.431400 60.239861 38 1
-125.224750 122.789290 84.587227 60 1
59.000111 96.345406 54.982788 19 1
-53.962975 162.964520 93.868927 24 1
-130.950940 247.662540 -9.031511 8 1
11.609285 155.344830 104.045870 25 1
-91.381866 260.804720 -29.921465 1 1
-53.170944 310.307500 82.666138 4 1
42.534798 182.334900 48.551880 32 1
-36.580715 244.284320 19.692171 0 0
-92.107918 293.399810 87.578148 45 1
6.063434 102.798150 -51.327740 15 1
-6.742527 75.318390 29.203562 0 0
-29.270100 182.269390 82.787323 24 1
-23.868090 145.768550 -40.862720 54 1
-105.206580 157.165370 71.731895 60 1
34.801311 75.693611 39.672287 26 1
-44.618706 275.153200 94.059753 34 1
-87.640625 253.882030 -20.050734 1 1
21.510468 168.276960 24.781525 32 1
-39.162258 209.923230 40.684029 40 1
-60.131096 235.009200 -5.538355 10 1
-70.271454 345.237950 -49.882065 2 1
19.181166 196.442500 -12.377016 59 1
65.015411 157.888750 17.582153 32 1
-89.118149 202.102490 29.046171 39 1
-41.121223 289.951970 85.279556 34 1
39.055000 153.567440 19.340578 32 1
-5.199670 143.985350 -59.267262 13 1
-25.245369 119.430500 106.120960 16 1
-60.092087 210.893200 49.933662 40 1
30.849121 138.292740 30.202824 30 1
-47.832882 243.029530 -9.626236 10 1
-54.441597 186.712070 1.210700 0 0
-11.365219 278.243130 84.634689 61 1
-5.460939 141.108350 36.641796 9 1
-106.104510 263.216370 -10.835721 8 1
38.740578 199.353670 41.762699 48 1
-88.278732 160.151030 45.775749 36 1
-58.521553 298.297300 51.309948 6 1
-10.552513 296.086150 62.071777 5 1
69.362602 173.176150 44.143509 47 1
-105.537550 267.199010 94.534981 45 1
-27.333755 308.919920 53.519608 5 1
-75.600121 210.576490 35.636574 39 1
-38.108246 173.283230 -1.040221 0 0
-97.026505 278.485600 -31.777979 8 1
-44.058250 316.346950 -18.429096 44 1
-25.815037 201.342730 -35.868668 58 1
-69.885162 325.068300 -7.393841 3 1
-77.770401 318.303680 12.269100 3 1
-2.679881 159.644470 103.665050 25 1
-32.468357 174.194500 54.976543 33 1
30.220463 300.367030 38.509640 56 1
-119.419910 235.533040 -17.336617 1 1
-67.448051 284.281830 -23.171684 7 1
-104.325990 163.094740 20.911552 36 1
-64.433914 169.308000 66.476631 35 1
-55.785973 148.289490 16.427780 9 1
-27.543419 168.031680 3.449046 0 0
40.475689 299.007720 31.394522 56 1
-92.283432 224.387790 20.527723 49 1
18.554155 69.032372 45.749050 28 1
-81.790993 240.833530 141.256470 23 1
-106.958230 219.682210 -13.859446 49 1
-140.084900 291.744380 -50.762554 63 1
-71.545525 157.044270 0.771809 53 1
42.013004 140.126860 -12.286746 30 1
20.566854 271.749820 69.034790 61 1
-111.512650 143.520490 84.547386 60 1
-37.274967 223.771450 19.238949 0 0
24.581850 272.084780 92.394676 12 1
-4.813227 284.040590 68.366753 61 1
21.963711 185.034710 38.597481 32 1
11.225854 210.959340 -0.675707 59 1
-50.448162 201.776960 -11.996819 0 0
-116.246060 195.380140 4.521365 49 1
-32.762779 325.346370 -9.191199 44 1
14.484353 106.169910 -32.899929 15 1
39.021320 97.275970 48.157635 20 1
-20.908688 154.191500 75.486382 33 1
-102.032000 169.398800 41.099152 36 1
-54.275032 316.770110 72.936630 4 1
-30.407866 277.947450 25.287117 0 0
-72.864769 291.325960 80.052734 4 1
-49.243092 150.301440 -8.724514 0 0
-43.616928 143.241320 19.538052 9 1
-58.340668 214.171520 35.487144 40 1
-35.785057 281.723940 78.355858 34 1
-1.052856 94.831284 -41.888630 15 1
-21.988024 72.567711 -1.658456 0 0
79.257339 167.709440 55.331570 47 1
-23.628170 210.019610 10.538654 0 0
54.581223 165.393190 12.485852 32 1
-10.150514 149.306370 -89.301422 51 1
-50.164219 262.598630 86.045082 34 1
28.414860 125.306130 -58.982616 13 1
88.444244 159.109440 41.635422 47 1
5.553001 154.131030 7.259449 30 1
35.989475 280.360170 73.626358 12 1
-16.338947 58.751884 1.033601 0 0
-36.490826 123.635640 -11.161870 0 0
-40.023766 198.381300 -22.578585 0 0
51.633453 190.009030 50.751522 48 1
-67.424118 338.942840 -29.231596 2 1
-86.436340 140.603230 -54.018242 52 1
-7.294001 117.165080 94.896660 18 1
-22.621502 147.929340 -69.689491 51 1
-24.807739 127.961030 94.399818 18 1
-86.863686 164.209340 -11.859726 53 1
25.330582 98.145897 -46.484261 11 1
-2.418810 176.899090 61.730274 29 1
-90.156998 274.318790 96.507622 45 1
20.457817 168.163500 88.342247 25 1
-72.876244 164.454190 49.297894 36 1
-28.826702 162.824200 123.800050 22 1
-20.988913 293.240480 76.584724 5 1
-68.241280 247.313890 138.357850 23 1
1.424401 299.533690 63.901520 61 1
57.570362 93.136650 1.044645 21 1
-23.485514 62.921974 16.750856 41 1
-78.635765 161.150040 -30.626244 52 1
-103.575130 267.672270 -25.765654 8 1
-4.350540 196.074100 49.529495 29 1
-61.070774 232.583600 14.138576 10 1
-130.640750 250.286700 -21.460085 8 1
-44.412201 206.868820 49.794483 40 1
-16.472588 165.373000 54.955887 33 1
-1.020480 267.667850 33.360569 62 1
-94.599304 251.427440 -11.972435 1 1
50.772125 96.960228 43.505314 20 1
-123.004460 262.078120 2.135638 8 1
-8.127212 158.374540 72.634026 0 0
-75.832634 275.280670 110.325040 23 1
-46.710609 311.334560 64.391197 5 1
-71.852333 219.786530 46.411804 40 1
-40.288670 130.114400 14.014891 0 0
-13.546520 103.993450 -21.939220 0 0
-75.780212 337.082520 -45.618248 2 1
27.363424 146.530690 9.967823 30 1
-81.974464 201.854350 69.293953 38 1
-132.947540 271.647250 -23.494408 63 1
-25.227814 300.387120 11.461449 43 1
-25.652790 146.494090 9.319223 0 0
26.554810 179.035420 18.805119 32 1
-3.999871 261.496310 87.927513 61 1
-76.441841 155.904680 65.213425 35 1
52.193359 197.221470 23.506458 48 1
-19.141060 200.192440 -25.507523 58 1
7.289612 208.007000 40.655327 29 1
41.789951 111.856350 -10.157094 21 1
-12.469181 125.508020 87.199486 18 1
-119.985190 147.578230 68.113144 60 1
44.912533 100.064380 3.138526 21 1
-38.227673 110.842090 -19.102421 0 0
45.056137 157.540500 56.701321 32 1
45.783775 150.373780 69.200310 32 1
-110.173000 134.822800 91.246948 60 1
0.507489 90.060989 26.057390 0 0
51.630257 108.752820 43.999542 19 1
-5.519817 281.139560 48.049061 62 1
-40.207096 245.378600 96.606766 34 1
34.848644 164.750230 94.998611 25 1
-0.079797 172.138020 101.913860 25 1
-3.911595 204.244520 31.999706 29 1
-96.146828 277.016270 -10.412022 8 1
-54.419670 289.705780 80.125381 34 1
13.028111 109.042880 -45.162601 15 1
-16.399534 260.871150 96.759201 61 1
-99.733833 238.215520 -19.810577 1 1
-15.401986 117.588600 16.549490 0 0
-113.683140 254.890470 -3.549192 8 1
-5.741391 164.041890 49.145016 32 1
-61.519661 316.208560 4.283677 3 1
-55.226215 314.356380 38.617271 6 1
-77.971718 284.384400 101.425960 45 1
-39.335003 183.198990 -11.316733 0 0
-50.575752 125.142220 53.322033 9 1
-102.582650 160.395740 60.383144 60 1
40.249271 110.124490 32.167423 20 1
12.575007 259.431670 75.060127 61 1
-108.376700 275.415410 3.123664 8 1
1.647384 166.087520 83.210899 25 1
2.504163 284.551970 57.749672 61 1
25.616518 292.817470 46.892109 56 1
31.675346 149.604580 -6.945538 30 1
18.708656 159.335010 55.325275 32 1
-76.972298 231.555830 -6.874358 10 1
-35.191921 238.740300 2.739239 10 1
-19.949394 147.181950 -58.957146 13 1
-84.749435 192.529620 26.571415 39 1
21.237291 292.693330 37.385593 56 1
37.140457 118.452640 4.330707 21 1
23.799545 307.706600 34.872120 56 1
-143.301450 281.630950 -40.727539 63 1
-21.026949 152.282380 37.701698 9 1
-35.098572 316.124270 2.283974 44 1
-19.914400 116.508380 5.539472 0 0
11.622287 142.171130 -31.984549 13 1
-67.714012 221.411680 20.032909 39 1
-55.973927 249.123600 96.096062 34 1
-46.443455 214.274320 -11.681675 0 0
33.505180 181.798000 -13.708989 59 1
31.433153 279.796020 53.631924 56 1
13.093017 165.475130 62.690788 32 1
-65.155762 271.019620 57.177498 0 0
-64.674995 308.608060 65.581642 4 1
-104.118280 215.771850 7.119742 49 1
25.313015 135.060780 -46.184315 13 1
-19.373659 308.841980 9.228832 44 1
44.864830 243.170290 107.016520 12 1
-134.626370 255.731960 -34.314903 1 1
-100.914860 297.469240 81.762848 45 1
-37.338062 308.421450 -23.977236 44 1
-107.835820 211.603350 -4.058137 49 1
-104.837010 152.039840 80.946449 60 1
-8.670818 91.556953 1.871205 0 0
-14.784280 142.356840 -100.973790 51 1
28.580236 168.618530 5.246036 31 1
-49.487167 319.431090 0.216370 44 1
24.251171 215.093770 29.550730 48 1
-13.913607 135.470140 -41.427479 0 0
-67.504112 139.116000 84.165878 35 1
-9.243319 177.101640 105.540850 25 1
-47.744209 277.256070 -54.839001 7 1
2.686985 209.155320 24.767614 29 1
-49.773796 196.495740 -2.477329 0 0
-122.512950 259.111570 90.132370 45 1
-64.869034 270.042910 121.119720 23 1
-116.832730 264.861660 12.044584 8 1
-70.760422 322.774900 6.302053 3 1
-43.777203 172.826510 84.551208 24 1
18.399523 75.693855 53.597874 28 1
15.492822 164.317960 -2.392515 31 1
-12.007677 193.514880 -28.477919 58 1
-94.995155 159.919880 53.516396 60 1
-1.728135 176.342270 51.353504 29 1
-80.837357 288.663420 88.003357 45 1
23.554417 150.855910 18.959908 30 1
-67.855133 238.709000 0.106863 10 1
-17.796165 300.453640 68.688721 5 1
-27.594036 282.073210 -33.373802 44 1
-26.311367 295.530090 -29.603439 44 1
38.142166 188.940220 4.246325 59 1
-25.078163 208.891890 -47.192051 55 1
-111.663410 204.026750 14.482407 49 1
43.206894 162.823430 -0.590344 31 1
-52.526730 279.995450 -35.891838 7 1
21.142052 160.748890 -11.281938 31 1
-65.091629 283.786650 -37.227448 7 1
-87.700447 162.237290 -24.300886 50 1
-34.066685 130.752820 58.637920 9 1
22.658472 162.771590 33.210125 32 1
-55.379948 197.365230 18.502033 37 1
-130.575640 240.842610 -16.512941 8 1
38.280567 281.031190 33.117111 56 1
61.404324 116.838830 27.620531 19 1
-113.306750 157.124070 47.588257 36 1
-74.010704 277.218350 90.276749 45 1
-119.776010 245.366960 -26.476715 1 1
-28.511179 308.453550 23.921772 43 1
-30.272175 197.759280 -51.871964 55 1
-14.171492 161.167040 63.840542 33 1
-55.010696 280.375520 76.123550 34 1
-39.329739 145.802610 76.724915 33 1
14.190785 121.972720 33.094875 0 0
-81.577271 213.850110 43.459785 38 1
15.787757 204.119510 12.436796 59 1
41.465298 180.204650 -2.394398 59 1
-40.995197 122.576350 69.962593 17 1
-93.080254 201.709700 56.595173 38 1
-18.778126 51.312534 -8.951021 0 0
29.162037 87.308319 -52.567463 11 1
-24.886349 135.878300 2.973217 0 0
8.923510 194.276640 41.037579 29 1
-44.986271 325.113190 -9.024121 44 1
-76.021286 155.951750 77.202522 35 1
7.298093 278.878050 36.354225 62 1
-113.688800 137.596510 -26.842428 50 1
-23.908094 118.036650 -3.976042 0 0
28.252741 212.019840 39.526024 48 1
10.027282 163.207290 89.981194 25 1
-111.656730 144.731140 -10.115353 50 1
-52.779442 138.712950 -18.998234 0 0
25.944099 151.263750 1.267493 30 1
-62.220161 215.195740 -8.618838 0 0
5.778268 171.838270 34.209118 32 1
-56.019009 111.405360 74.643257 17 1
-40.311382 156.366850 62.099812 33 1
-84.201973 279.957550 113.104280 23 1
15.183305 201.808350 -0.471827 59 1
34.028786 165.509260 -6.026135 31 1
-64.292229 277.520320 -50.906185 7 1
-8.079351 121.321010 22.262609 0 0
-91.634628 301.373140 12.844729 3 1
39.654198 158.847760 28.122837 32 1
13.488428 213.729480 8.624434 59 1
26.204365 105.562650 32.129173 20 1
-114.195880 267.210170 -6.583158 8 1
-112.811260 245.876720 -11.139983 8 1
-14.227233 75.195656 -7.652155 0 0
6.357596 280.990170 71.726448 61 1
-9.827257 178.101970 88.853111 25 1
49.354485 278.465330 33.580765 56 1
-77.843346 215.840810 61.195076 38 1
24.501795 110.899480 44.267963 20 1
-2.169452 147.867420 -38.703171 13 1
-68.335533 255.628420 125.671680 23 1
-84.520302 207.578000 61.499329 38 1
-25.104441 149.439360 18.977949 9 1
-28.166937 297.426240 22.993984 0 0
46.211143 179.045640 36.831135 32 1
-36.135345 270.113890 93.797829 34 1
13.744035 174.361210 27.109324 32 1
18.629503 162.269040 106.697200 25 1
-124.778790 287.731960 -47.942223 63 1
-33.930313 311.165950 -15.062189 44 1
95.217033 149.306790 33.782299 47 1
-84.253853 254.672780 129.497070 23 1
51.313457 291.577790 23.732868 56 1
3.206331 167.287320 59.896545 32 1
60.541889 179.878860 33.609993 47 1
-72.764290 172.093780 61.845078 35 1
-40.419613 139.629140 -33.489376 54 1
-24.558678 138.776730 -98.987740 51 1
-52.236820 139.627840 22.977633 0 0
-137.910950 265.697200 -31.988501 1 1
-80.395004 151.918660 0.247206 53 1
-85.309547 278.452760 -18.699087 8 1
-40.535927 198.283710 -49.244461 57 1
-117.720220 157.557080 14.277756 36 1
15.752467 207.255520 22.440565 29 1
-111.127720 282.416600 -40.648411 63 1
-88.233528 170.910260 34.549648 36 1
-11.678457 149.312290 33.618755 9 1
-124.135150 270.648010 93.634476 45 1
-33.653580 151.071270 4.795927 0 0
28.690773 172.745210 60.423328 32 1
-119.477460 155.485150 56.563148 60 1
61.496536 246.746640 99.423477 12 1
-56.323059 336.089020 -12.826437 2 1
-97.407585 165.347440 27.606705 36 1
-73.594368 140.688170 8.733186 53 1
51.139553 95.191330 -15.873928 21 1
-46.472908 217.038100 39.861553 40 1
49.980316 165.768310 62.186653 32 1
-17.050516 315.061160 -12.850105 44 1
-90.522057 287.425350 80.179306 45 1
-34.603703 194.357530 53.943001 40 1
-41.802364 158.020550 123.677470 22 1
14.312772 171.726730 73.225693 25 1
78.013840 110.111900 34.991371 19 1
-36.230000 136.700670 -61.082191 54 1
-25.304867 174.417850 108.333580 22 1
-28.219774 189.055180 -63.955643 55 1
-100.670670 159.266310 -7.807880 50 1
-11.949925 195.187090 36.932308 29 1
6.487578 61.509552 32.165138 0 0
54.440022 258.773680 91.950661 12 1
-11.283206 76.003937 5.627923 0 0
56.245098 164.093720 30.987940 32 1
-151.486390 279.692170 -53.522682 63 1
-43.999626 307.025540 17.324192 0 0
-22.549587 315.974150 59.251259 5 1
14.088982 294.428620 47.116543 56 1
-33.544827 200.603760 3.355449 0 0
-99.488625 277.112240 83.980804 45 1
-0.428651 271.068300 73.526543 61 1
-41.908318 303.886380 48.922497 6 1
-59.504009 266.193300 100.037970 34 1
-40.276604 209.601670 -39.638092 57 1
26.550632 201.825240 0.534107 59 1
-99.223602 159.949750 43.811356 36 1
-86.714165 224.028780 2.055597 10 1
-19.433962 94.481041 9.502809 0 0
-40.873573 317.807590 48.742844 5 1
-6.011143 105.305000 13.839591 0 0
2.225950 162.240540 111.520300 25 1
-13.625310 122.123710 -29.485518 0 0
-37.046272 253.511840 92.898628 34 1
-86.488609 169.294910 55.396217 35 1
-38.001713 139.675050 50.787598 9 1
-33.063808 268.897890 81.978348 34 1
15.955441 161.886700 39.843861 32 1
-23.865387 139.224290 -7.539367 0 0
-1.032449 174.348310 87.107773 25 1
-35.935978 288.353240 4.778933 0 0
-105.156840 270.729100 -16.861183 8 1
-2.791129 62.455505 14.612498 0 0
25.096916 275.983430 83.806633 12 1
-78.493111 245.429720 133.697170 23 1
28.754469 190.825790 3.676470 59 1
-55.929707 272.655760 58.307255 0 0
-87.325813 235.713880 -11.747995 0 0
-34.339497 162.368440 116.162480 22 1
-121.322810 240.229370 -9.294581 8 1
-21.936638 307.033140 -12.095949 44 1
-37.817589 313.527590 68.021629 5 1
-61.041172 223.108730 34.056000 40 1
-127.765640 266.891660 -29.746944 1 1
-57.743824 123.186040 -54.954315 54 1
-45.275864 231.844020 20.205580 10 1
-127.132960 278.349330 -34.799026 63 1
47.133472 262.133270 31.922764 56 1
-64.076912 219.833980 52.042332 40 1
-52.359993 205.537250 -3.259269 0 0
29.719875 175.819920 -0.998136 31 1
-80.431709 169.828310 44.861473 36 1
-40.304111 155.536820 27.458290 9 1
-116.468890 265.249150 93.922539 45 1
-5.803085 152.111660 -72.094650 51 1
35.823952 272.449800 37.348087 56 1
-52.368122 132.978410 -55.021584 54 1
-36.503605 322.733120 -17.457464 44 1
-51.115070 256.386660 100.163170 34 1
-61.748524 320.782560 19.682114 3 1
-80.257980 209.459010 20.429861 39 1
21.098881 197.925550 7.231886 59 1
-63.051640 231.381480 23.987827 10 1
-16.299778 49.398041 1.109135 0 0
-118.874610 264.509120 -28.190754 1 1
-34.597431 125.809020 86.225975 17 1
-84.449577 310.832370 22.888878 3 1
-41.921219 118.235920 96.062531 16 1
-28.995531 142.373550 -90.143723 51 1
-31.165003 63.429497 11.483326 41 1
48.480198 113.856330 34.566032 19 1
-106.577200 268.862210 9.500858 8 1
-63.644127 275.141170 -40.411121 7 1
9.807392 98.097450 -32.396595 15 1
-56.219891 312.769170 64.672707 4 1
-28.688286 154.351260 128.156200 22 1
-12.235869 295.049870 3.273383 46 1
22.379354 131.352450 -54.179508 13 1
-128.215410 255.821350 -14.129941 8 1
19.986431 164.640530 5.723712 30 1
-115.770360 125.992200 -13.808573 50 1
-76.985336 280.242950 -25.066858 7 1
54.297401 267.614140 23.565599 56 1
-103.048390 245.308270 -14.838016 1 1
26.410429 64.371323 59.317730 27 1
-84.750153 153.059170 -42.017250 52 1
-28.602631 288.031130 77.314590 5 1
-32.778412 279.828060 6.519290 0 0
47.778301 193.043780 42.622002 48 1
-99.726074 276.598600 -1.896912 8 1
51.849705 105.364410 6.181664 21 1
-12.437977 148.124540 -53.650581 13 1
-21.477917 177.909210 47.577808 33 1
-16.774889 102.832640 6.232927 0 0
38.441891 201.250080 51.101265 48 1
-38.791756 208.247500 7.539835 0 0
-66.385315 293.192960 48.835976 6 1
-25.906025 105.448970 -2.028790 0 0
-82.038826 160.331440 71.056984 35 1
12.578264 167.646240 97.908836 25 1
-62.278847 158.359270 65.019211 35 1
8.365231 171.371490 12.800997 31 1
-0.129724 156.640950 -8.425697 31 1
-26.164921 167.524080 54.251167 33 1
14.677073 156.795070 13.910669 30 1
-85.156082 315.093810 7.533977 3 1
-24.100269 182.806370 93.114098 25 1
59.385384 166.942750 59.145874 32 1
-0.884256 71.491806 19.340403 0 0
62.129101 178.781770 46.216503 47 1
-57.153976 312.304290 49.226784 6 1
27.010969 191.776690 -8.455797 59 1
-45.731152 114.923220 87.197678 17 1
-90.530502 271.379120 -21.232882 8 1
-63.918217 162.784480 72.847473 35 1
-80.104584 148.201640 80.609688 35 1
-106.928280 265.265930 -35.821602 1 1
-28.716080 278.551390 83.323471 34 1
-95.467110 285.168210 89.737000 45 1
-34.547348 262.189150 29.437519 0 0
-84.639145 201.145030 21.087650 39 1
-73.644516 158.775510 -7.923918 53 1
-25.901169 164.631820 71.012962 33 1
42.847610 112.178890 18.325499 21 1
-104.449840 268.032170 -0.656732 8 1
-88.853760 194.714450 67.018898 38 1
-103.021800 172.465990 26.932529 36 1
-9.462370 200.773640 43.669182 29 1
-36.253716 277.039610 -48.508282 7 1
-41.709934 180.693630 4.439983 0 0
-102.374150 281.069490 -38.684601 63 1
-25.490118 315.158690 0.535427 44 1
21.559320 279.210820 57.046970 61 1
36.586548 300.471280 22.872402 56 1
6.687989 159.500370 97.676270 25 1
-42.184261 137.539670 -44.575768 54 1
-18.295149 134.973080 22.575987 9 1
-85.783539 203.620240 51.588108 38 1
-51.878494 216.081560 28.064245 40 1
-36.600483 266.795350 13.959322 0 0
42.770004 113.089970 8.940810 21 1
10.493260 275.435210 60.768063 61 1
53.536045 103.576290 16.708992 21 1
-3.919968 45.957603 10.438779 0 0
-19.508755 145.204800 30.426226 9 1
35.675365 178.000090 7.706313 32 1
-33.528057 144.996190 19.376215 9 1
-102.910030 307.983370 84.335388 45 1
23.559891 97.556923 -22.796171 14 1
-76.070137 220.918840 34.077694 39 1
-57.505398 301.847600 80.860252 4 1
-117.280560 276.309910 85.169907 45 1
12.036765 288.190190 61.227779 61 1
-115.130200 298.366270 86.063774 45 1
53.519245 172.650220 19.491449 32 1
-130.189820 251.781250 10.252674 8 1
-106.753810 211.511020 15.165649 49 1
29.270817 179.859850 37.989563 32 1
-38.874146 173.060880 8.426277 0 0
-76.706779 270.525510 83.851959 45 1
-77.766273 151.525220 -54.464096 52 1
-48.092159 104.653010 105.859280 16 1
-18.211336 275.184660 90.324509 61 1
-104.482150 170.881410 16.483910 36 1
-115.898000 254.521900 -32.382969 1 1
-85.587166 269.857450 119.207010 23 1
-112.259770 242.475400 -20.775436 1 1
-45.510429 181.200910 -47.503582 57 1
-65.462341 305.728330 77.361839 4 1
35.190315 292.508850 40.911873 56 1
-26.401789 144.687840 -53.033031 54 1
-54.116951 274.805790 -49.097855 7 1
12.048611 137.737440 -46.803341 13 1
21.701099 139.177020 34.751804 0 0
-73.823044 166.696400 -22.265612 0 0
-39.555359 317.335510 39.247032 6 1
-81.161751 334.844600 -28.453627 2 1
-78.960930 220.745320 51.695026 38 1
-9.140150 52.201908 -3.385530 0 0
-45.901848 195.363330 -39.542015 57 1
-36.628555 235.393910 19.888876 0 0
-7.974508 298.807560 14.647461 46 1
-38.959141 241.789810 10.189074 10 1
-43.862518 303.663540 40.258259 6 1
-117.031140 279.580320 -33.258598 63 1
-95.467224 270.167110 -29.102724 8 1
-119.789440 150.742000 28.664999 36 1
-98.465584 163.092960 67.754555 60 1
20.010031 205.851260 34.210274 29 1
42.967113 269.758670 91.706146 12 1
-95.028755 224.662280 -6.819891 49 1
26.470781 162.214200 93.696243 25 1
-53.625313 241.206630 -3.192405 10 1
-130.544880 244.511980 -0.767657 8 1
-8.976729 256.508850 93.581009 61 1
36.776592 149.651660 3.700642 30 1
-59.883610 192.805600 7.626142 37 1
-6.080115 183.678440 47.131802 29 1
-62.438091 303.651520 58.080040 6 1
-42.535877 254.170850 100.465790 34 1
-12.785509 144.224980 -43.918621 13 1
-37.043911 164.696580 90.465866 24 1
-10.717339 130.568830 80.213875 18 1
-65.171837 233.093110 6.331949 10 1
-68.846016 303.497500 38.054256 6 1
-73.161110 210.298170 25.847580 39 1
-50.974842 135.898790 -46.529991 54 1
41.398853 292.684810 25.373129 56 1
-12.928906 173.481920 58.469398 33 1
40.040863 206.597700 25.431637 48 1
-71.811607 299.690800 77.142982 4 1
5.178396 69.132050 10.078427 0 0
-32.977135 300.028350 65.321068 5 1
-19.924421 163.579270 120.107090 22 1
73.734482 102.304490 46.742470 19 1
-52.846176 273.506560 96.528664 34 1
-32.365726 292.610260 -35.198399 44 1
-27.965063 314.486360 -22.529902 44 1
12.913965 185.719540 40.447430 32 1
49.697327 203.580200 31.018742 48 1
-20.302355 168.444730 62.182343 33 1
32.200085 164.800510 63.486977 32 1
-41.571930 91.698235 112.540930 16 1
30.550566 270.900700 44.321018 56 1
45.425152 167.833210 12.023596 32 1
-43.165401 319.102540 -31.129704 44 1
-25.935888 196.030880 -59.234638 55 1
-41.366955 126.047980 59.552662 9 1
5.659281 68.117020 55.306736 28 1
-93.720840 269.086120 -13.089211 8 1
-62.734020 313.239350 72.802528 4 1
-31.959538 209.765350 -30.830173 58 1
45.234512 104.748280 -5.508685 21 1
-55.927338 257.473020 92.991669 34 1
-45.182278 113.996150 77.878418 17 1
-50.304005 131.489070 -64.829453 54 1
45.138950 104.317510 21.685453 21 1
-55.991951 287.000850 -19.559145 7 1
-10.095110 193.738050 -36.942284 58 1
2.225122 269.269130 81.770439 61 1
-17.814495 227.802670 12.874260 0 0
-91.226349 174.619690 27.048557 36 1
23.166346 106.428920 -32.103954 14 1
47.061745 201.570450 40.756756 48 1
58.752926 172.241350 29.415071 32 1
35.733395 146.069470 -13.824055 30 1
-55.289429 321.966310 6.364594 3 1
-38.885487 151.168690 38.392563 9 1
28.147358 253.738680 101.957150 12 1
-82.155907 285.324460 79.596443 45 1
54.914879 196.304860 32.076809 48 1
-63.370132 297.565730 41.836227 6 1
53.411289 101.462610 50.379314 19 1
-23.591951 147.280880 -84.599403 51 1
-41.718643 149.514920 122.152740 22 1
-70.617119 275.788330 117.169540 23 1
-100.482740 157.667340 -23.175465 50 1
-28.851877 119.829180 98.262009 16 1
-31.620993 167.251830 61.576881 33 1
-52.558411 214.433200 46.818935 40 1
-92.813187 183.885620 31.769766 39 1
-63.813168 202.710360 4.259346 0 0
-59.677711 156.729480 77.994751 35 1
35.569283 99.254166 18.300604 20 1
80.402725 161.777130 43.084518 47 1
-110.814160 158.338620 31.204607 36 1
-12.762282 51.942951 34.356197 42 1
37.454109 281.295650 47.226723 56 1
-77.547340 253.190000 -15.862735 0 0
-45.761131 169.205140 -2.452696 0 0
46.439236 155.028520 24.258410 32 1
11.493444 154.229690 -27.624454 31 1
-20.182556 122.416020 89.276237 18 1
-3.084631 290.058870 74.209946 61 1
-81.837540 237.045230 -2.460302 10 1
-27.853359 124.365700 -11.209099 0 0
-30.446976 307.185820 -28.911261 44 1
-45.819710 306.606750 56.962379 6 1
-78.430054 164.178470 -14.105487 53 1
-2.228554 63.185589 32.431908 42 1
-116.068790 287.011260 -45.938564 63 1
-23.355171 174.534030 116.688020 22 1
27.627754 280.222960 76.530342 12 1
-26.915285 156.400330 68.992332 33 1
-3.364325 292.685910 65.608612 61 1
27.193405 159.584120 2.828491 30 1
-13.230725 305.872250 -8.037601 44 1
-64.814980 151.887700 -20.116566 0 0
4.709270 143.433960 -64.540657 13 1
-118.368430 142.793300 74.961578 60 1
-42.143459 151.806630 18.957188 9 1
-17.322508 174.068440 105.411960 22 1
4.651473 126.493490 39.679668 0 0
68.733337 179.824230 31.221312 47 1
37.165009 288.622530 71.943260 12 1
11.351601 138.691510 -58.071861 13 1
8.751475 104.500060 30.583374 0 0
-29.653433 96.360001 -11.090587 0 0
-120.485750 253.699490 1.753206 8 1
-88.164314 212.001970 54.274212 38 1
2.810026 164.805160 47.853249 32 1
17.413385 182.345960 31.187244 32 1
44.912178 159.338420 65.283585 32 1
31.375593 159.726380 43.827744 32 1
-119.286220 237.131240 -0.167956 8 1
53.523346 273.075010 84.052994 12 1
-7.738966 162.767810 97.585014 25 1
-65.895554 322.584630 29.425304 3 1
-58.057617 275.071780 114.803380 23 1
-32.694981 170.463090 117.977460 22 1
-4.832993 209.589610 39.088936 29 1
-16.159359 286.316410 85.177689 61 1
-101.937780 161.807790 33.803371 36 1
39.635704 159.290270 -7.387243 31 1
-21.141035 123.802930 74.960854 0 0
-10.936353 65.541336 27.788313 42 1
-29.830778 156.512360 26.736805 9 1
-70.193092 211.686510 9.006861 39 1
-31.286243 234.162230 -5.220178 10 1
-70.060600 286.590090 -12.503759 7 1
-43.291126 235.837810 96.500832 34 1
-33.963730 307.746980 72.788033 5 1
-104.489910 284.989810 89.211212 45 1
36.139961 176.808150 48.867950 32 1
-30.071445 305.336210 16.244846 43 1
-10.472101 137.323940 31.039091 9 1
23.177877 280.278110 46.255360 56 1
-36.301437 138.811190 129.270200 22 1
8.344295 187.373600 49.978817 29 1
49.409000 264.665560 87.297684 12 1
-11.528646 289.675780 67.409538 5 1
41.008934 160.276030 40.011131 32 1
-31.909626 243.813050 100.720930 34 1
-27.181444 294.369750 67.960915 5 1
25.008043 94.220032 50.425705 20 1
29.569088 205.072600 7.717591 59 1
-1.443027 133.163940 49.633972 0 0
-26.214043 82.642487 -10.097866 0 0
-9.551111 280.576420 76.189491 61 1
54.995846 161.316040 19.784199 32 1
-21.104973 65.480461 2.692818 0 0
32.748783 204.994340 39.031723 48 1
-14.184822 87.995506 7.038226 0 0
-11.075071 50.032070 9.044035 0 0
5.327143 290.465150 46.873463 62 1
-2.071410 148.260330 -91.216606 51 1
-70.756973 227.547500 11.373453 10 1
-91.029381 144.957730 -48.515076 52 1
-50.656025 187.696550 -46.530827 57 1
2.494787 108.348960 92.938828 18 1
65.343742 109.779360 34.759544 19 1
42.320747 256.634670 97.292435 12 1
62.721767 271.455170 22.927921 56 1
-65.304459 218.814160 39.788807 40 1
48.874809 180.755890 21.482864 32 1
-14.590676 304.944850 0.222266 46 1
-13.916374 170.844360 89.076790 25 1
-89.535751 165.447310 67.684135 60 1
-77.034637 257.432280 125.340820 23 1
-42.013657 200.417100 44.913654 40 1
26.164604 97.896812 -54.768997 11 1
-120.089730 284.258670 88.113655 45 1
32.736271 175.562360 31.348454 32 1
45.632999 281.880740 70.237259 12 1
-6.883764 119.821920 8.401079 0 0
-28.764570 252.428160 97.307419 34 1
-65.475563 241.217070 -7.802481 10 1
17.920376 268.333560 96.185043 12 1
19.587751 169.823010 79.743683 25 1
42.496265 269.978940 44.701748 56 1
-23.467804 144.279190 52.548832 9 1
-49.009277 131.566240 48.173874 9 1
-21.128059 310.174160 -19.862906 44 1
-31.633266 160.905810 1.660216 0 0
-12.159044 240.372910 18.108925 0 0
-81.448273 263.910740 -18.720112 0 0
-44.950325 190.974110 58.415642 40 1
-30.877575 315.825070 59.765472 5 1
-60.717598 276.998600 106.158230 23 1
-111.579290 151.975130 -25.251490 50 1
24.719521 153.511170 -9.206436 30 1
-50.927650 320.954830 -19.001434 44 1
-81.286804 278.445430 94.251701 45 1
-122.157140 130.484380 84.874321 60 1
-43.710384 303.653500 2.309983 0 0
-91.109901 267.052950 127.956350 23 1
-135.879440 234.195910 -1.769751 8 1
38.676628 165.048310 16.445591 32 1
58.396286 277.854460 17.573286 56 1
-49.654884 182.422710 6.417127 0 0
49.912678 130.347410 -15.311845 30 1
-25.347494 303.789890 69.171928 5 1
-18.297010 65.832283 -5.076834 0 0
75.740143 168.228760 38.189564 47 1
-77.515488 316.415440 20.314623 3 1
-17.552193 319.704500 -5.986374 44 1
0.648323 102.263510 28.729317 0 0
-82.172684 158.075620 -48.668793 52 1
-46.601879 205.951140 -18.616676 0 0
-76.671722 269.155210 115.942680 23 1
-51.141552 249.792400 41.771599 0 0
-30.446117 207.094120 14.137970 0 0
12.240886 159.161240 111.323700 25 1
19.695343 104.244520 -45.829697 11 1
20.538870 173.663210 10.953641 31 1
-124.768120 239.052950 -22.520151 1 1
15.550534 154.774840 -13.919992 31 1
-68.014763 340.472930 -21.161089 2 1
8.579428 201.441790 45.444191 29 1
32.181145 297.996430 30.350502 56 1
-47.351925 205.829270 -34.258480 57 1
-30.054207 142.482090 46.883274 9 1
-47.640476 247.829300 99.331001 34 1
27.975542 169.064250 19.677048 32 1
-11.279530 111.179990 98.859947 18 1
-87.728317 270.626680 86.412903 45 1
44.127930 138.152570 -3.537289 30 1
-101.602000 146.185910 85.977173 60 1
2.269671 141.311490 -50.386227 13 1
-112.514340 136.849700 -18.762653 50 1
-46.211720 286.758120 -27.871408 7 1
7.721752 144.653840 2.830829 30 1
38.963848 144.787770 -5.296104 30 1
56.205559 253.874150 99.156860 12 1
-123.526500 260.566930 -38.949612 1 1
-53.235764 157.396190 87.132774 24 1
55.482090 177.329960 51.349331 32 1
-33.199772 201.144210 -32.317051 58 1
-1.279017 30.808201 7.146409 0 0
-21.511745 66.743820 30.568573 42 1
-30.954807 104.642020 -9.757259 0 0
16.723591 79.664948 14.339275 0 0
-64.841171 283.391110 94.102364 34 1
-95.614380 218.323380 24.903345 49 1
-53.405392 329.859800 7.200772 3 1
53.279819 283.719240 24.685940 56 1
-8.534946 21.317968 -2.461433 0 0
-53.698059 266.225710 125.474000 23 1
24.206572 209.632660 11.818921 59 1
-124.416790 133.956530 74.821358 60 1
-9.631310 68.470398 20.266876 0 0
-82.422379 205.403290 33.385223 39 1
-54.488476 204.817660 47.391579 40 1
-66.392380 323.108180 13.319963 3 1
-112.690480 163.530650 19.859928 36 1
-87.987534 277.106570 -10.986337 8 1
6.612105 171.117840 75.977570 25 1
-104.603330 264.629910 86.877769 45 1
31.149773 99.243317 47.317966 20 1
-23.085413 181.983350 104.679550 22 1
37.698448 201.144040 33.819054 48 1
13.797761 192.944150 47.395905 29 1
-61.714817 167.080920 58.498390 35 1
21.321367 200.854340 -5.720911 59 1
-31.951286 102.846090 111.706100 16 1
27.307901 286.348940 63.309048 12 1
80.599480 169.314870 28.867813 47 1
-81.010872 229.751880 1.286922 10 1
-17.848246 149.048190 46.290783 9 1
7.368544 272.140050 68.582794 61 1
-56.229431 259.518490 131.135280 23 1
-91.231262 214.576280 43.817814 38 1
62.796738 262.273990 91.220711 12 1
-79.851860 274.039730 -34.151363 7 1
22.563313 89.750435 17.225920 0 0
-115.150750 270.578400 5.396598 8 1
-35.132603 175.232620 96.357956 24 1
-26.975315 185.649870 4.040529 0 0
25.142529 285.877560 39.306870 56 1
-19.181587 144.202790 20.657368 9 1
-34.390789 200.847780 -58.100090 55 1
-106.420610 149.577240 -13.904543 50 1
-21.865017 175.499980 96.016640 25 1
39.629402 276.256320 79.553482 12 1
38.782734 88.573517 48.520256 20 1
-110.446920 264.207400 -28.638729 1 1
-29.579691 162.749150 9.239046 0 0
-64.802467 271.229580 92.538391 34 1
15.434561 266.685300 73.009773 61 1
35.762989 72.540756 47.168598 26 1
-132.880950 288.136510 -50.489689 63 1
-34.440266 302.359070 42.688087 0 0
-48.125404 323.594820 56.308304 5 1
-6.519399 117.999800 85.777580 18 1
25.939222 154.523510 34.480915 0 0
-34.145897 254.817050 16.201483 0 0
-18.370892 285.730260 72.001640 5 1
-73.791328 158.452240 -43.378822 52 1
-4.541752 250.581070 26.242281 0 0
36.306633 212.670360 29.152292 48 1
-3.451898 74.420204 -17.788439 0 0
-67.274376 225.734710 29.339941 39 1
-86.123520 278.855350 121.627330 23 1
-3.352422 145.135280 60.176090 0 0
-22.734514 108.351120 4.808923 0 0
-30.453438 320.288880 16.477459 43 1
61.061806 188.109590 34.847488 48 1
-93.061646 174.494460 40.959225 36 1
-50.782993 307.678560 37.494102 6 1
30.792551 153.485870 7.395645 30 1
-112.421700 151.183900 66.878166 60 1
-107.862940 290.437530 82.670204 45 1
-67.625320 264.164180 125.909740 23 1
-55.656773 302.788700 45.336910 6 1
3.437529 178.065540 38.684940 32 1
-86.093330 184.825150 68.827530 38 1
-75.973465 166.025280 -36.770283 52 1
73.404945 169.671430 50.245312 47 1
-69.294746 300.854400 49.890644 6 1
-44.468693 325.671170 1.757015 44 1
-50.535461 236.327960 6.664492 10 1
-73.622940 221.706380 25.486582 39 1
3.154951 189.520920 55.646183 29 1
-35.911785 122.891760 76.116936 17 1
-7.508457 166.170390 89.936523 25 1
-86.048058 163.229970 37.691528 36 1
-54.033409 142.420560 83.539604 35 1
89.874496 154.427150 48.137627 47 1
10.934186 152.011690 -0.570852 30 1
-14.463475 174.120150 113.310540 22 1
-52.313351 145.579620 28.918060 9 1
-100.607440 268.863560 -9.113237 8 1
-37.978676 275.094270 10.496293 0 0
8.491120 148.643860 12.210207 30 1
-43.835449 166.298950 -9.897793 0 0
-85.450813 177.824480 31.780758 39 1
46.616848 105.424810 32.920216 20 1
-23.218863 66.542053 -11.270185 0 0
29.449179 212.782550 23.932684 48 1
-127.821710 254.477290 -6.271571 8 1
-52.072601 260.850980 49.664474 0 0
-75.307983 148.578490 5.624194 53 1
-50.259327 283.526730 -43.743355 7 1
-29.761797 320.352630 -3.810058 44 1
38.900787 116.377900 -3.115840 21 1
-8.251259 7.468813 2.004054 0 0
-100.232100 256.814240 -13.408840 1 1
1.099936 86.951569 -24.302469 0 0
48.836800 277.139160 25.215837 56 1
-38.783340 229.437760 24.807291 0 0
-64.354744 144.957900 79.838455 35 1
0.350218 253.907180 84.343735 61 1
60.684460 271.558870 80.997635 12 1
-45.413193 156.560620 89.681557 24 1
-91.425842 307.369780 21.310822 3 1
-42.686829 299.079680 55.167027 5 1
54.232773 271.766360 33.310364 56 1
-30.390848 264.469940 88.378448 34 1
-68.284233 274.060460 -30.511185 7 1
-49.050655 212.013750 34.224995 40 1
-45.955299 136.652360 -60.449085 54 1
31.312868 82.042580 52.991024 20 1
-17.867565 70.318871 15.883064 41 1
-70.329201 313.848050 69.408745 4 1
49.650082 99.183197 -9.031882 21 1
-66.840729 164.907590 -25.838594 0 0
-39.568932 145.577380 13.176240 9 1
72.500977 178.271450 38.997021 47 1
-97.870605 270.938290 95.574760 45 1
-82.998451 308.206760 11.304449 3 1
-48.590378 316.125490 42.486397 6 1
19.553205 140.532640 -61.006813 13 1
15.423534 289.808110 54.241104 56 1
-9.920882 163.978450 77.875153 33 1
-36.721256 131.083220 -13.990212 0 0
-90.477585 266.706880 93.729416 45 1
-29.721228 269.875400 26.668072 0 0
15.299397 162.207310 48.120419 32 1
-32.771568 211.160280 -46.568588 55 1
28.917267 102.253750 22.483633 0 0
-36.107727 150.761520 127.543870 22 1
-29.178003 202.366010 -45.567627 55 1
-29.332720 196.913190 10.380689 0 0
46.801426 157.027130 47.893974 32 1
-125.938660 246.687260 5.234044 8 1
69.643082 179.697190 48.500740 47 1
-72.464180 149.169400 75.347412 35 1
-131.732090 250.178100 -29.592421 1 1
-116.376250 263.515720 -13.148291 8 1
-42.211086 156.515320 -9.345310 0 0
-43.846287 288.823640 4.855724 0 0
-28.672577 206.180480 5.893038 0 0
33.008781 151.551090 -18.990398 31 1
-72.620407 314.184080 8.061735 3 1
-25.084654 132.509700 25.564074 9 1
52.541622 97.642151 4.976822 21 1
19.717026 148.689190 12.170174 30 1
28.260105 184.072810 -8.311650 59 1
16.117296 172.403170 64.631699 32 1
-47.835361 198.458680 57.942139 40 1
-28.596256 141.776060 -46.139965 54 1
-44.473934 144.725080 43.743053 9 1
-65.102493 290.619170 82.561584 45 1
-69.042572 280.204770 78.495064 45 1
-33.283722 290.702390 38.636162 0 0
-23.605915 207.798540 -39.626923 58 1
5.198144 97.406548 -45.782776 15 1
-20.406551 196.880490 -32.429024 58 1
44.042595 177.225970 54.216923 32 1
2.142059 292.911070 59.440056 61 1
15.867603 212.932020 15.978728 59 1
-28.625357 130.582000 83.875687 17 1
13.098927 58.849884 55.624359 27 1
6.310235 264.220730 74.002235 61 1
-31.237724 144.911710 27.374763 9 1
-52.825214 199.075640 -38.768940 57 1
-80.607651 159.348790 47.016586 36 1
19.176588 65.948463 57.025024 27 1
-40.596352 205.465740 -46.348232 57 1
40.475204 149.267110 25.622015 32 1
29.059814 159.991700 110.236340 25 1
34.495533 112.583550 27.564451 20 1
-31.858362 151.436140 41.927639 9 1
-36.811817 175.759980 86.201202 24 1
-38.695782 201.412410 52.620384 40 1
-66.777046 151.528060 -2.605031 53 1
-103.031910 301.170260 88.659996 45 1
-93.721832 255.283170 -24.612215 1 1
-70.565376 170.402790 53.635227 35 1
-66.532021 154.101200 80.371262 35 1
-15.126727 178.963700 53.504902 33 1
-32.381584 313.670590 50.140446 5 1
39.581139 264.484770 96.346191 12 1
-9.651703 166.184310 104.227030 25 1
8.501144 157.681630 33.982925 32 1
-67.239281 253.896580 133.899540 23 1
31.962147 272.317260 85.994270 12 1
10.265047 285.169280 40.636463 62 1
-35.088570 278.360870 31.418167 0 0
-72.956772 242.524800 -13.064256 10 1
-93.427711 166.305100 -21.165630 50 1
-58.089012 210.645540 42.315727 40 1
-108.388180 279.883000 93.752655 45 1
-57.063007 283.171780 92.733894 34 1
-79.060638 158.280110 33.263836 36 1
-88.177094 159.287890 -39.144028 52 1
-9.044847 61.472713 0.458741 0 0
2.816750 169.416640 108.892290 25 1
-20.435999 112.130170 14.294452 0 0
-21.570921 307.574800 1.983871 44 1
78.128029 105.389090 41.259373 19 1
-38.880764 191.310940 -19.852253 0 0
60.742256 106.567730 39.976948 19 1
38.995300 274.910190 87.581734 12 1
11.139117 69.414589 43.880112 0 0
34.116528 164.472140 1.955032 31 1
-114.167540 290.685030 87.743744 45 1
20.249706 177.359590 23.642731 32 1
-11.395195 301.037870 -21.377964 44 1
30.506310 289.021480 55.729877 56 1
63.243526 152.293750 12.688166 32 1
12.548237 71.540932 56.216366 28 1
54.087673 115.905880 29.803604 19 1
-49.931641 220.262830 -8.048348 0 0
29.749840 264.622040 96.689240 12 1
3.967852 143.833050 -35.373249 13 1
-91.543404 229.349370 -12.355403 49 1
-65.895088 279.198270 111.900310 23 1
-55.830410 330.867950 -7.288133 44 1
5.037853 50.203800 21.688271 0 0
-23.964628 130.157070 7.997307 0 0
-92.183525 275.540310 -2.089190 8 1
