-39.749996 99.146561 24.588743 4 1
102.383980 220.156560 14.725946 35 1
-26.906487 166.017580 -88.685570 32 1
45.693848 197.086270 -19.218964 36 1
-34.902481 169.446230 -87.509476 32 1
-75.557159 189.126680 21.212221 17 1
-52.913670 221.293470 30.289772 18 1
-38.497448 198.524000 -55.600758 16 1
-22.213123 95.100975 16.485531 25 1
-7.369776 94.439095 -0.427630 0 0
-27.489313 230.023560 -14.785000 27 1
-50.030399 219.466740 2.054606 17 1
-79.258812 203.727740 -7.827570 17 1
64.698776 167.714310 29.825821 23 1
49.328178 147.658870 48.642391 23 1
-28.222019 225.506380 30.092577 18 1
-46.434296 205.568760 36.654068 18 1
-19.271753 230.685290 -7.762478 27 1
110.873400 198.123930 32.119892 35 1
-37.799789 150.516220 -60.243252 2 1
60.684330 225.415080 37.207996 6 1
-106.219780 220.226240 -22.627260 34 1
-21.973637 162.954450 -106.097240 32 1
46.733459 147.229170 12.784021 0 0
47.276985 209.760640 -4.940241 36 1
51.497635 229.608690 -5.938124 36 1
46.251286 234.250210 33.230667 6 1
68.538918 167.407620 6.581580 23 1
58.848564 69.000717 -34.228535 10 1
-6.051373 39.717247 -2.139668 0 0
-9.367290 80.183701 27.028202 24 1
-70.407150 96.591042 50.175663 33 1
88.149841 218.703140 32.699463 35 1
-0.274652 176.274730 5.432232 0 0
66.738899 199.019120 -10.426888 36 1
96.296677 163.380980 47.739182 1 1
-41.730942 232.681300 -28.664785 16 1
-6.299637 158.676740 -112.268180 32 1
12.705691 135.353120 -86.543633 37 1
50.639957 231.174790 25.272970 8 1
12.994774 63.312775 -63.152382 11 1
-43.545620 155.996920 -123.508320 32 1
-8.435572 150.165590 -129.642460 32 1
-12.014885 133.344190 -45.744678 0 0
0.765721 140.345750 -91.138611 37 1
-14.491590 165.326230 -96.013954 32 1
72.483963 233.390820 26.325209 35 1
52.195938 166.600970 25.729519 23 1
85.907623 157.891270 1.468219 12 1
49.870068 89.958855 -19.983547 10 1
105.993980 211.325100 27.843437 35 1
-6.385018 90.433083 -7.081889 0 0
-91.733490 225.134020 -28.271729 34 1
-96.960403 226.659320 -44.758533 34 1
27.086256 126.288220 5.616810 0 0
34.796219 74.105995 -53.029179 11 1
-29.995796 163.396440 -48.197128 2 1
-115.541820 218.635560 -24.972530 34 1
-12.497103 159.472180 -103.834540 32 1
-41.032299 100.314050 -2.699107 19 1
-35.291481 211.150540 -53.527702 16 1
-50.802685 216.418330 -50.069511 16 1
-17.183104 107.413220 -9.860252 0 0
-41.133823 197.003950 -13.967346 0 0
-11.600644 211.629650 14.451534 31 1
-131.079350 202.490880 -45.602524 34 1
82.326614 159.970340 18.035349 12 1
74.381927 151.314760 46.473534 23 1
67.635246 166.023190 -7.931567 12 1
-21.412638 88.829910 39.581741 22 1
-46.411102 96.127831 -0.314592 19 1
65.017128 230.905230 3.009539 36 1
107.426160 208.793030 15.193738 35 1
14.860445 199.057080 11.781073 0 0
47.817429 201.832400 49.342773 6 1
69.327843 161.089550 -0.551637 23 1
-66.834419 208.539410 -47.913292 16 1
66.202667 70.928253 -20.997496 10 1
-48.660343 228.745730 24.436314 18 1
-30.705086 234.042510 10.246426 27 1
-109.805760 219.690260 -45.624794 34 1
-94.392365 227.857560 -18.703552 34 1
81.475029 234.993150 20.332479 35 1
54.405521 85.310921 -22.007645 10 1
96.969131 211.438580 41.758156 35 1
-18.299505 166.124880 -91.795845 32 1
-30.616405 238.757280 2.504363 27 1
93.117287 144.899220 9.303633 12 1
-51.342735 220.846620 -31.210064 16 1
-44.067852 218.386870 33.996101 18 1
-75.720184 210.430420 -10.592514 17 1
-5.689101 136.019620 3.717112 0 0
-57.056038 228.103530 -22.999264 27 1
-41.289822 158.085530 -109.520970 32 1
-77.400360 175.115480 14.627420 17 1
10.539706 154.723510 -69.295700 37 1
106.509230 152.645430 34.219612 1 1
-32.623867 218.975710 -1.143658 27 1
45.357700 233.189730 17.182852 8 1
34.945126 229.438800 -12.346371 36 1
25.268909 141.072190 -78.720009 37 1
-34.220623 154.854490 -119.214200 32 1
-40.613144 211.164780 -9.035856 27 1
-45.352020 90.118462 54.737122 5 1
-44.562107 221.329320 -9.487719 27 1
-11.536820 159.957640 -74.700546 2 1
-69.094200 98.941071 45.324471 33 1
42.525951 82.859390 -36.332062 10 1
-22.675081 207.272610 -8.489009 27 1
77.269348 232.226820 38.725822 35 1
55.098866 143.703870 46.236160 23 1
71.539932 146.469160 51.128456 23 1
93.360123 222.032730 25.506214 35 1
-103.017300 220.608310 -27.794872 34 1
-41.454956 225.015470 6.419659 27 1
-13.563555 216.354420 -5.909965 31 1
-6.536225 143.371550 -94.886314 37 1
109.786710 150.913700 62.277695 1 1
36.258026 70.516190 -57.655457 11 1
-25.268255 91.372910 12.224439 25 1
87.007820 143.896060 -9.185425 12 1
61.619289 233.996870 12.558954 36 1
97.842072 222.019640 18.210140 35 1
-9.312366 98.112228 -13.347125 0 0
-44.730072 156.907960 -37.367062 2 1
22.547680 230.217160 42.082287 6 1
-20.918150 164.317230 -101.165160 32 1
-29.539534 87.654007 17.330702 26 1
-61.607819 231.812740 -7.354538 17 1
28.498728 216.483670 14.834774 0 0
-35.749805 209.851490 -2.176782 27 1
-69.770279 219.573430 0.449978 17 1
-44.516281 206.473540 -16.449381 27 1
-70.840073 169.601790 20.532478 17 1
62.886250 69.651413 -25.844217 10 1
-2.881591 60.867840 -6.782111 0 0
-22.879040 208.681810 13.267276 0 0
34.900867 221.563430 37.718525 6 1
-18.293535 84.207436 26.035006 24 1
-26.473177 153.100520 -118.602220 32 1
1.708711 37.911617 4.625938 3 1
119.414180 139.621090 48.776279 1 1
52.783978 237.167540 28.308464 6 1
-40.664394 159.652890 -43.008785 2 1
-32.316734 152.905550 -68.899300 2 1
-17.657576 150.782210 -129.453660 32 1
114.741950 202.062470 19.101034 35 1
-30.675457 150.668930 -129.877410 32 1
41.456047 153.252140 41.554321 23 1
-19.552725 160.230680 -112.325760 32 1
85.981918 149.023730 -0.231831 12 1
-11.892026 124.733060 -42.754139 0 0
-29.473417 172.912430 -7.961497 0 0
-30.575710 224.145750 -42.159954 16 1
42.824169 162.409560 36.113171 23 1
94.088181 219.124560 30.990658 35 1
-8.726644 86.218216 26.426714 24 1
-103.817160 223.154980 -50.482941 34 1
-1.222924 135.181230 -97.042816 37 1
4.677542 223.808120 -3.479715 30 1
-27.166618 224.469130 5.322162 27 1
-38.413986 204.033370 -52.280689 16 1
-54.617947 230.519330 -12.542206 27 1
-128.673780 204.996260 -38.666817 34 1
-29.994062 93.534698 37.200920 22 1
-76.022629 197.892270 21.265543 17 1
-4.551333 160.932110 -97.411964 32 1
9.172061 147.460480 -78.694992 37 1
-37.424137 192.643690 -13.146264 0 0
61.113823 212.488300 5.863534 36 1
-24.778351 212.061100 7.807533 0 0
33.062378 233.000550 -9.172733 36 1
-37.696289 211.649060 -19.615677 27 1
22.548048 214.324190 20.350513 7 1
91.404755 162.628270 33.553589 1 1
-119.010050 211.337570 -36.165077 34 1
-129.220920 204.215180 -54.599049 34 1
-5.321596 121.796460 2.616715 0 0
-53.102638 196.440370 -61.287235 16 1
71.174538 148.969600 41.407944 23 1
-8.770470 225.549260 5.962706 30 1
3.361892 106.979480 1.699447 0 0
2.192303 155.830170 -108.293460 32 1
-1.402978 75.151352 -37.816219 13 1
98.722443 224.279940 8.275487 35 1
-44.833614 225.974490 -0.251914 27 1
-30.300114 223.395980 13.658155 27 1
29.546457 82.019310 -51.629711 11 1
4.136768 223.899020 22.212866 30 1
-57.113342 200.699260 26.904806 17 1
39.906685 217.169720 -6.417713 36 1
60.322906 73.196121 -29.136036 10 1
-35.006470 153.151520 -56.667389 2 1
-33.560009 88.011719 57.420189 5 1
14.519681 143.169620 -79.747299 37 1
75.816261 167.390960 9.658062 12 1
56.185478 216.179120 44.694530 6 1
42.039375 207.416440 47.947914 6 1
5.677178 157.298750 -68.728783 37 1
-63.230915 212.041350 -4.973572 17 1
-117.891720 212.714920 -58.232590 34 1
101.632770 158.812410 28.127789 1 1
6.460502 132.674060 -95.394180 37 1
-30.367630 225.261170 -20.649412 27 1
93.970184 146.531680 -7.453309 12 1
24.250811 220.624150 48.586674 6 1
-26.544811 159.370070 -115.173650 32 1
-0.892087 228.182630 21.338856 30 1
8.539854 114.858180 4.512506 0 0
77.186958 165.851650 27.972799 23 1
102.183120 155.869540 59.853886 1 1
53.827942 219.357100 34.522438 6 1
-136.113460 199.821300 -48.454807 34 1
-49.712185 226.643620 -20.005604 27 1
-21.885143 94.320671 25.665985 25 1
35.484352 237.166530 32.518826 6 1
-66.014122 203.297490 4.134583 17 1
-17.728237 195.309170 6.469338 0 0
-9.846170 164.097060 5.526684 0 0
49.592602 76.917320 -64.640717 9 1
28.361885 138.896390 -71.056412 37 1
-51.243553 224.754850 -5.913076 27 1
-42.070118 160.551250 -102.510180 32 1
-65.726486 218.018230 -16.643198 17 1
-33.176895 105.562460 -12.473485 20 1
-19.143112 164.461940 -56.452400 2 1
-34.452782 183.348370 -64.232704 16 1
118.155810 141.602250 43.808414 1 1
61.115799 195.262970 -15.011466 36 1
-40.770405 149.415250 -130.334200 32 1
63.367573 71.698578 -61.668968 9 1
22.722692 121.945560 -85.546143 37 1
-53.991299 96.329765 23.493811 4 1
38.901157 77.068024 -51.926933 11 1
78.536835 149.409000 -24.939856 12 1
-10.509899 47.771763 17.061077 3 1
-13.840869 191.762850 9.289578 0 0
42.576298 238.160280 27.776173 6 1
-13.853371 203.485670 13.485865 0 0
52.160702 207.642440 41.989716 6 1
-35.326939 225.897370 8.146650 27 1
-5.842810 29.507809 0.135075 0 0
-23.296368 88.576500 28.196705 24 1
-2.045547 47.233742 -5.393419 0 0
108.970950 151.850970 38.931931 1 1
-9.303544 42.356773 10.008272 3 1
5.287446 43.075768 17.232517 3 1
7.808629 141.467730 -85.334244 37 1
-35.003185 162.434570 -38.870510 2 1
2.903752 244.417530 5.561697 29 1
-125.182010 208.920200 -46.983372 34 1
17.012100 152.712200 -73.471725 37 1
-43.427078 86.164642 57.727871 5 1
-101.241340 223.414370 -20.916733 34 1
17.573275 194.497820 11.250702 0 0
-74.662094 209.081100 -0.915159 17 1
-25.505266 220.224720 -17.659389 27 1
-26.710958 107.039470 -5.936020 21 1
65.626602 225.030330 11.728183 36 1
-6.713528 151.716420 2.828480 0 0
-49.286053 193.874830 -57.967159 16 1
-3.470140 70.062279 -46.127686 13 1
39.259422 85.542702 -44.544147 11 1
-40.788155 237.490260 9.280694 27 1
49.370094 234.082920 2.420160 36 1
96.582611 208.078890 38.065113 35 1
79.328690 156.599370 -13.284824 12 1
62.211582 144.858490 51.574154 23 1
108.099380 213.538150 13.753523 35 1
43.887920 88.375359 -35.935688 10 1
57.595764 68.489822 -72.621216 9 1
-51.912643 204.195540 -51.168800 16 1
-62.204449 213.268370 -38.580891 16 1
60.330597 206.931610 1.965467 36 1
29.958273 76.587090 -52.536407 11 1
-25.313662 79.934921 70.008064 5 1
50.308891 89.911758 -45.889099 9 1
-13.391287 90.376350 26.139427 24 1
0.837569 150.025120 -80.285378 37 1
55.098534 233.292390 2.752803 36 1
57.317471 233.782500 32.388954 6 1
0.957124 237.276580 9.667046 29 1
-63.019688 232.369600 17.504763 18 1
-18.354225 149.570540 -123.853850 32 1
22.760647 80.849747 -51.777893 11 1
-117.984850 214.142910 -49.266510 34 1
-64.557831 231.112290 9.231255 17 1
-81.514130 198.290450 -4.432263 17 1
88.644325 221.963820 23.563017 35 1
-45.381653 233.215480 -8.039897 27 1
54.431965 233.529860 22.993771 8 1
20.154884 215.406880 26.744434 7 1
-8.919228 156.575090 -79.609344 37 1
71.860977 167.492690 25.928022 23 1
-35.621674 102.066570 -18.474932 20 1
94.223183 226.395510 11.457204 35 1
32.389030 208.493070 52.574932 6 1
67.646446 166.857280 -3.032250 12 1
101.400350 208.349760 40.058441 35 1
24.413576 207.137410 15.223295 0 0
-40.659897 90.808075 59.861492 5 1
-49.202679 215.280330 -16.891399 27 1
-26.449499 228.016980 18.489655 18 1
-38.746899 215.446170 28.860847 18 1
64.928802 77.097130 -60.363022 9 1
60.994457 237.244520 25.042683 8 1
11.430668 191.435750 13.171926 0 0
-64.151947 232.308410 -1.156781 17 1
-7.600461 216.776550 2.641602 31 1
41.534534 192.034680 64.667641 6 1
39.519562 214.532550 -17.701523 36 1
47.632389 84.941452 -51.896660 9 1
-32.310394 162.101930 -100.096890 32 1
-135.593260 199.711990 -38.793781 34 1
-74.666801 204.503720 14.288176 17 1
90.608665 168.001300 42.021061 1 1
-0.940973 25.393690 0.202852 0 0
115.730700 144.851150 25.345860 1 1
77.523491 226.781800 35.096924 35 1
-31.621599 112.744060 -10.794694 21 1
63.268745 161.624010 11.946376 23 1
-126.019180 213.112010 -17.352306 34 1
-9.324478 88.782906 -11.362194 0 0
88.206223 221.404280 37.702267 35 1
33.561947 236.152280 26.426941 7 1
87.970955 145.951050 -15.787521 12 1
112.655840 147.622310 30.761038 1 1
-2.233433 232.328350 2.979949 29 1
12.286873 131.438740 -92.195686 37 1
-136.965610 201.753490 -34.335678 34 1
-34.135117 206.009400 -56.090271 16 1
-10.149862 142.272670 -54.443794 0 0
-34.247929 207.343750 2.691098 27 1
90.113167 137.451400 -20.144127 12 1
-17.728016 162.436400 -60.888218 2 1
-54.348972 96.886497 46.792744 33 1
-4.997396 12.748647 -0.784915 0 0
61.163097 148.191770 39.805771 23 1
51.610413 155.522200 28.220049 23 1
-87.579414 227.023970 -25.157372 34 1
59.276806 186.228910 -19.628143 36 1
20.461437 230.588150 35.355389 7 1
-26.269060 205.162730 12.664907 0 0
105.337860 218.529590 7.700279 35 1
49.212997 82.429214 -56.215221 9 1
-43.735802 189.729110 -63.909210 16 1
27.686935 217.203120 26.036386 7 1
-42.328819 108.527040 -6.672042 19 1
-81.204659 193.952390 3.916278 17 1
29.975754 209.679580 14.987212 0 0
-96.317131 226.898700 -37.037415 34 1
93.434151 137.337300 -5.584880 12 1
41.179947 224.929890 42.905464 6 1
112.438770 199.013660 27.495903 35 1
53.927433 158.399870 18.622921 23 1
46.148319 87.508965 -27.690929 10 1
-49.311752 139.144320 -54.266117 2 1
-59.292404 235.737140 16.608585 18 1
-6.051607 232.633580 9.828387 29 1
69.082909 210.704590 2.724078 36 1
19.450275 223.366410 44.240711 6 1
71.456421 224.901490 8.581757 36 1
7.708203 70.529472 -20.437984 15 1
25.144226 216.096130 51.888058 6 1
88.084549 230.598650 14.533851 35 1
-30.261650 75.456314 22.523258 0 0
-29.808329 217.754470 10.785086 27 1
63.442936 157.179210 20.436432 23 1
17.320768 118.561970 3.875273 0 0
42.564899 203.765720 -15.257227 36 1
-70.967194 207.228530 -9.198431 17 1
-10.635090 167.130830 -85.825165 32 1
-68.331978 223.173750 7.145703 17 1
-77.230515 189.083570 4.571325 17 1
-21.873037 109.084320 -4.911515 21 1
-4.168315 86.576935 -4.632337 0 0
-4.884686 57.658710 1.687487 0 0
39.608440 199.824140 59.775352 6 1
-33.760979 147.203930 -134.476380 32 1
98.497414 136.953870 -0.092778 12 1
-72.705421 92.504936 57.187969 33 1
100.917500 131.881900 -6.154265 12 1
-24.179638 91.981865 21.838646 25 1
93.966728 162.690960 24.548866 1 1
42.893623 241.018780 12.826479 8 1
-54.146244 222.841860 -15.171861 27 1
-119.785030 216.224720 -22.972092 34 1
75.235916 156.005370 -10.539374 12 1
-54.294346 218.570070 -34.558437 16 1
43.953690 88.068649 -45.385899 9 1
-29.581224 113.499290 -3.361395 19 1
-6.860978 167.970730 5.114245 0 0
58.564766 159.147770 43.196091 23 1
-3.586115 36.914463 -5.340441 0 0
-14.070751 76.570518 8.259630 0 0
-13.043561 158.468340 -115.894380 32 1
31.195293 83.577271 -37.080376 0 0
35.270679 88.409485 -43.253693 11 1
-92.511398 230.443530 -23.748266 34 1
15.302398 147.644350 -74.500786 37 1
71.197327 168.627380 12.581398 23 1
-4.468414 3.107216 -1.106976 0 0
57.184128 73.049606 -64.457642 9 1
-33.433933 231.139820 -32.634583 27 1
57.345921 235.233600 10.097343 36 1
67.159271 190.856570 -16.326317 36 1
-15.318439 223.171200 -0.604246 31 1
-5.859272 219.429170 -6.823360 30 1
35.970985 232.611600 -1.011727 36 1
67.883507 158.044110 41.852303 23 1
112.131260 147.716220 39.398186 1 1
-62.373920 99.867546 46.253410 33 1
-11.208994 153.668300 -115.881170 32 1
58.283421 81.261208 -57.629848 9 1
99.092209 159.175450 56.449921 1 1
44.764236 145.624130 48.322342 23 1
-64.458473 223.761110 -32.581184 16 1
-10.476516 143.440800 -0.966565 0 0
-7.659641 37.838642 3.923567 3 1
-6.598581 217.260350 -11.171241 30 1
83.739067 220.998400 51.459064 35 1
-120.008850 213.645020 -40.464951 34 1
-32.805668 140.355740 -141.035100 32 1
-26.674099 162.057080 -56.944756 2 1
-3.656241 44.584030 20.451891 3 1
67.705589 145.373890 44.561138 23 1
-37.453144 84.109756 60.377789 5 1
-82.047997 186.341190 2.160719 17 1
14.773536 122.444600 -90.380867 37 1
-42.273823 146.901380 -56.792652 2 1
-108.654750 225.303850 -12.155882 34 1
20.869324 138.546460 -78.494919 37 1
69.510086 150.690030 47.789101 23 1
49.533058 137.275530 49.483398 23 1
-21.848293 148.630970 -132.013000 32 1
-43.189499 100.626330 3.330477 19 1
-1.914199 170.111880 8.291274 0 0
-54.452415 220.641570 -23.523016 16 1
78.331322 154.003080 39.935760 23 1
-36.965431 148.144930 -67.614967 2 1
44.247879 219.132750 36.714073 6 1
39.805248 230.755940 1.629607 36 1
27.336718 221.259170 15.901866 0 0
30.265316 238.063710 -6.628891 36 1
-56.529160 211.964810 2.350970 17 1
109.277360 203.290620 36.861603 35 1
72.607605 235.292070 33.509895 35 1
-46.931770 211.588230 33.277847 18 1
-1.678607 16.426355 -2.705722 0 0
-36.999668 164.309420 -103.839550 32 1
-75.874962 92.859642 48.123749 33 1
16.837059 47.617771 14.253958 3 1
-70.947586 196.249480 5.840581 17 1
-57.060875 90.547249 18.851599 4 1
64.495728 206.034330 -0.397063 36 1
-30.270176 234.400850 -6.109452 27 1
27.573427 223.187900 33.280106 7 1
-65.538239 182.520260 21.812674 17 1
48.051937 215.935210 37.668213 6 1
-64.893539 229.632130 13.994675 17 1
-52.351490 219.014590 -46.056236 16 1
-72.675049 200.407490 -2.003857 17 1
-72.726395 215.224030 -7.915861 17 1
49.191925 221.975770 43.571171 6 1
-35.142517 212.020510 -13.037213 27 1
39.848518 213.950760 43.230881 6 1
17.666679 202.985180 12.376211 0 0
-102.172790 220.477110 -41.265545 34 1
-34.011391 148.453570 -74.575264 2 1
28.848730 122.725550 -81.928596 37 1
55.437290 207.400020 49.515182 6 1
52.882015 230.471710 17.011877 36 1
35.911423 80.012642 -47.199547 11 1
113.214020 146.344300 45.570965 1 1
-1.619699 53.288589 -4.988287 0 0
-65.951202 93.502953 62.408611 33 1
49.928036 223.277540 31.721746 6 1
-132.818360 204.011870 -41.070034 34 1
117.023430 141.364500 53.398537 1 1
79.064285 157.419510 31.004044 23 1
8.488884 39.257092 24.737728 3 1
67.965240 150.838060 37.356224 23 1
-56.447361 208.529330 26.410891 17 1
-18.302177 167.316060 -83.928535 32 1
95.098122 211.618870 34.846973 35 1
-1.728150 76.637199 -24.283119 14 1
-25.452831 89.639999 57.491837 5 1
120.439540 185.355560 32.786587 35 1
56.683327 78.181908 -23.268745 10 1
-24.085672 168.791260 -85.816391 32 1
-82.590927 185.431290 8.492707 17 1
-32.805916 222.249500 -27.382402 27 1
34.133163 204.239620 59.204571 6 1
-8.215522 215.461760 7.275589 31 1
56.685619 83.591454 -15.234904 10 1
-24.009516 87.321518 16.785864 25 1
56.908924 201.330400 -10.503366 36 1
-8.761389 162.638030 -102.812500 32 1
4.308387 60.424797 -14.389032 0 0
45.631989 226.981840 4.824144 36 1
-8.964037 101.271770 -18.198616 0 0
-52.637596 216.333110 22.696428 17 1
-39.650223 152.648470 -125.207510 32 1
101.280510 220.259660 9.889156 35 1
34.068287 225.794510 16.032921 0 0
-29.246664 82.420517 25.082586 0 0
-71.654930 213.424190 6.023114 17 1
-30.775419 77.004257 27.027590 0 0
17.018238 69.681816 -25.083046 0 0
-27.921171 154.691850 -75.417336 2 1
42.214634 80.801414 -68.922226 9 1
-71.013977 182.810380 14.928125 17 1
-95.106277 228.584900 -27.439486 34 1
61.386360 219.191380 38.539509 6 1
83.595772 154.398670 5.718964 12 1
5.630084 138.141660 -89.745453 37 1
59.841061 160.135730 15.063469 23 1
40.275688 237.611850 22.610525 7 1
84.353722 155.725170 -8.287149 12 1
72.471390 162.627300 -15.113225 12 1
-36.526867 156.521390 -115.035220 32 1
-64.255898 200.464940 11.640780 17 1
65.997643 161.846540 38.377026 23 1
-98.934448 222.009110 -30.582050 34 1
22.325109 220.510680 26.677517 7 1
34.361996 214.919880 -14.434662 36 1
79.511909 231.536040 34.209557 35 1
-36.503609 194.176120 -58.427032 16 1
72.129181 158.384230 24.170158 23 1
-30.898935 103.276920 -3.438212 21 1
-44.615356 74.739883 64.770332 5 1
114.849690 188.897900 39.259102 35 1
76.514000 162.482270 -7.009434 12 1
121.176010 139.471180 31.768669 1 1
-78.044624 207.530530 -14.738593 16 1
80.430344 150.262160 -12.874223 12 1
95.216606 151.666380 11.575070 12 1
12.497532 43.323746 17.801056 3 1
33.724716 230.145580 39.282589 6 1
73.237846 169.068470 3.479249 12 1
22.054312 75.468605 -29.266069 0 0
-58.202312 200.898640 -56.843132 16 1
26.743116 144.141390 -74.953018 37 1
-46.957359 78.452393 62.751518 5 1
67.824242 236.546600 26.794260 35 1
-9.711810 83.607407 -5.269160 0 0
-39.590603 213.609300 -45.280685 16 1
34.621788 213.949600 45.631004 6 1
89.620605 147.179470 6.688672 12 1
51.021503 162.631760 41.603481 23 1
-11.447772 63.743824 2.229437 0 0
-41.351192 178.402940 -66.310028 16 1
-9.305590 133.974590 0.358384 0 0
-3.559932 74.961510 -28.357090 13 1
-42.972332 220.227460 -45.115005 16 1
28.050220 79.477051 -32.547512 0 0
-52.825645 142.732360 -39.102917 2 1
47.239460 203.194240 -11.314558 36 1
40.761307 217.862180 48.527695 6 1
-45.492241 230.674710 -12.163129 27 1
26.598850 74.040100 -57.737270 11 1
45.285152 84.195457 -62.949104 9 1
49.818256 191.387990 -24.990271 36 1
-13.152133 154.861110 -124.466340 32 1
-24.466309 153.636080 -69.578674 2 1
-36.447151 71.638992 67.399391 5 1
-36.490025 106.974180 -1.712647 19 1
1.775874 237.013790 4.929481 29 1
-108.477640 218.500930 -27.164778 34 1
-32.780720 79.912811 64.861305 5 1
-74.667091 202.593370 -7.834719 17 1
125.262050 135.240310 46.055119 1 1
22.546711 87.253578 -47.530277 11 1
65.261787 163.485170 6.985058 23 1
-37.336388 222.892440 -35.863682 16 1
-125.756170 207.209060 -56.504086 34 1
-52.278191 138.264500 -44.868355 2 1
2.421219 224.872450 0.531760 30 1
-10.427176 94.803825 -9.505420 0 0
-8.530534 160.931640 -68.166901 0 0
88.163345 158.353910 10.634181 12 1
-114.181880 217.651520 -15.946702 34 1
-61.267643 224.601910 26.950268 18 1
92.975777 130.726640 -18.387196 12 1
68.512047 203.049060 -12.117044 36 1
78.739311 227.515230 46.584408 35 1
-12.135324 125.363840 -38.089733 0 0
-35.828697 201.233830 -58.379421 16 1
56.031166 207.167830 0.057459 36 1
-49.364178 90.841591 57.317905 5 1
-47.150959 145.868710 -44.722843 2 1
-101.601000 224.886140 -33.185898 34 1
-26.803091 229.429490 4.621747 27 1
-23.450037 92.057213 36.826637 22 1
-50.912098 223.728500 -38.046734 16 1
-39.615944 214.422150 0.396225 27 1
-54.545528 192.489580 -58.226116 16 1
-129.184110 205.744060 -48.575630 34 1
-90.226105 225.787630 -42.981861 34 1
49.780148 227.574920 -10.312180 36 1
-47.741081 96.651619 50.352886 5 1
67.678482 143.289200 52.876003 23 1
-69.742996 92.602951 53.485691 33 1
-21.901667 203.062230 5.848518 0 0
-79.503258 194.118990 -3.251680 17 1
-37.446636 113.859770 -8.898779 19 1
-10.952003 207.512420 5.870326 0 0
44.074413 151.106840 46.622444 23 1
-28.359428 218.140900 -48.339508 16 1
-26.715433 107.609860 1.991316 21 1
122.705440 138.152590 39.921688 1 1
50.710617 162.847890 21.784933 23 1
31.982817 68.633064 -56.822990 11 1
93.380280 216.470520 26.849489 35 1
-54.635860 236.735280 -5.076518 27 1
-42.234894 236.119430 18.381050 18 1
19.199986 70.881195 -60.836494 11 1
101.776410 208.129240 30.356485 35 1
-43.915154 219.318480 21.774647 18 1
84.886505 224.856690 37.364624 35 1
63.165684 167.720730 15.201031 23 1
66.304497 62.521832 -20.493954 10 1
-11.586084 149.132930 -88.596611 37 1
30.948759 221.578200 29.801119 7 1
-43.577713 105.085480 -2.688797 19 1
40.491806 226.232940 22.679434 0 0
92.536873 154.045880 5.963586 12 1
0.361631 223.638760 14.275201 30 1
83.946472 143.370220 -17.732344 12 1
-47.549000 135.978200 -61.402443 2 1
16.955244 152.404110 -68.483231 37 1
101.127620 156.918760 51.497162 1 1
-33.817310 163.850750 -95.702530 32 1
-35.596310 226.243300 -0.003515 27 1
-5.876258 52.928062 -1.574546 0 0
-4.077096 155.389140 -118.845620 32 1
43.576748 88.711372 -53.624619 9 1
-16.270658 75.924217 49.902489 22 1
-21.371445 155.747560 -122.756290 32 1
-9.465956 155.633270 -121.560100 32 1
-6.572738 220.276610 10.844771 31 1
-15.141872 85.827698 22.764854 24 1
70.103752 217.714920 -5.838899 36 1
-49.779789 235.610470 19.692633 18 1
-33.137177 215.343930 -45.188072 16 1
-5.644244 145.994220 -88.546104 37 1
-18.485132 198.750470 9.514833 0 0
-44.517395 158.452680 -115.319890 32 1
43.389297 233.565250 10.232317 36 1
-11.417663 135.176990 -54.643650 0 0
-122.425150 214.209530 -26.298470 34 1
58.350590 166.908860 18.690777 23 1
88.302032 163.335680 29.368048 12 1
-64.415207 196.850660 29.859726 17 1
-26.290428 215.326430 -13.850314 27 1
-136.461030 205.061680 -17.026051 34 1
-51.916241 95.965164 35.586109 4 1
-62.568924 208.727980 28.435524 17 1
-33.507908 236.749020 -0.793414 27 1
-74.059334 207.711700 8.213644 17 1
47.458382 214.546020 -17.050056 36 1
45.766705 83.320503 -32.957859 10 1
108.236780 211.426130 23.719849 35 1
-22.463089 158.238450 -61.658295 2 1
-57.042038 230.134370 22.419001 18 1
-54.888977 239.293640 8.870493 18 1
37.640236 211.106110 -13.720349 36 1
-36.988571 105.837430 3.309314 19 1
-57.225899 211.369870 -53.058952 16 1
-43.849712 96.904816 31.575783 4 1
-139.980610 197.750350 -31.667364 34 1
61.775997 232.080110 19.054930 36 1
-34.212273 93.885841 49.974350 5 1
17.665009 84.187256 -51.513809 11 1
-11.830769 148.609680 -60.460972 0 0
92.068687 215.773420 41.945068 35 1
133.274050 126.399680 54.181511 1 1
-55.559994 213.930970 -41.397472 16 1
-56.462406 89.911057 9.226096 4 1
-14.541365 199.984410 5.985451 0 0
-4.029620 110.344800 4.072628 0 0
-30.593929 181.285080 -7.038913 0 0
117.237510 194.118770 27.772308 35 1
-18.096672 220.877060 8.747977 31 1
49.405792 151.155200 36.102234 23 1
-4.349926 79.015282 -6.002887 0 0
-13.872228 209.678960 1.961322 31 1
-48.926918 212.887570 -12.915883 27 1
-0.385738 34.017288 -2.991950 0 0
53.570763 199.991330 53.972809 6 1
31.537659 62.381531 -59.334290 11 1
89.829895 143.355930 -1.590522 12 1
10.521896 155.987470 -73.898308 37 1
57.638466 151.741530 33.065010 23 1
-3.149981 239.360610 10.219187 29 1
96.657715 218.075550 20.282278 35 1
122.713910 188.999970 25.261549 35 1
77.420227 227.581100 40.065975 35 1
36.979092 223.621770 25.797050 0 0
-60.708595 192.201930 27.239689 17 1
-44.959099 93.746078 19.264139 4 1
-75.274170 182.359880 17.031057 17 1
-57.503223 94.809357 32.185722 4 1
53.199192 152.725400 31.527115 23 1
62.123550 136.028520 53.961422 23 1
13.690499 118.876590 6.688886 0 0
-64.347450 226.721240 -26.478367 27 1
93.582207 223.747630 16.407204 35 1
-45.673004 202.320430 -58.823967 16 1
-67.704262 176.635280 21.057966 17 1
85.077286 150.506480 -14.698013 12 1
86.514755 221.434810 43.138954 35 1
-43.816074 207.743420 39.759518 18 1
41.784508 236.125090 0.664668 36 1
43.088982 223.311770 -14.964706 36 1
-1.749952 227.056850 4.371906 30 1
-138.127590 196.956670 -45.311470 34 1
-68.136139 218.520600 -28.535469 16 1
-42.980801 228.026120 -16.457003 27 1
-27.020784 86.987190 64.529289 5 1
88.297249 159.237140 17.629772 12 1
-9.827598 165.140180 -96.151810 32 1
12.413778 67.549660 -61.486385 11 1
-3.486599 21.772997 1.416416 0 0
-89.207733 226.027150 -36.733761 34 1
40.894436 241.613140 8.496607 36 1
-32.775780 231.175870 -13.537297 27 1
-28.719143 205.861450 -52.340214 16 1
-46.663185 140.654800 -58.656883 2 1
-10.387811 212.916700 -3.142027 31 1
49.459194 208.143340 -19.140171 36 1
112.754010 204.523960 27.839231 35 1
3.965387 151.427630 -76.930565 37 1
-42.160381 153.366940 -46.004295 2 1
35.875874 225.622500 -5.276382 36 1
-35.186913 229.563140 25.784834 18 1
-114.618430 216.146180 -54.100677 34 1
99.745392 128.864500 -12.513954 12 1
-24.609900 97.117851 30.194298 22 1
15.809335 78.780647 -57.405216 11 1
47.971760 239.649320 17.750063 8 1
-11.720048 154.045670 -66.097862 0 0
-29.892384 167.827840 -94.411415 32 1
-70.123734 190.547580 26.290068 17 1
-2.307112 161.042240 -71.061783 37 1
-5.667832 103.809720 1.351136 0 0
-46.252930 96.934860 43.352783 5 1
85.269051 161.649200 24.763445 12 1
-35.399132 216.168520 -26.664371 27 1
-45.549725 221.606230 -33.905319 16 1
18.999748 62.609718 -62.954140 11 1
34.239677 225.388720 43.585903 6 1
61.360996 229.250730 -3.324955 36 1
-25.482319 230.254230 26.005468 18 1
122.410710 136.418380 50.026760 1 1
9.202274 158.469650 -66.031471 37 1
-56.684582 96.787224 56.310394 33 1
21.703302 221.097150 19.201155 7 1
-15.477050 80.992233 7.869704 0 0
-14.389133 163.244900 -77.373917 2 1
-66.135513 200.481480 -51.817921 16 1
34.533062 132.657040 6.824127 0 0
-24.496145 218.259340 -35.990322 27 1
58.675129 67.532913 -67.810692 9 1
56.730026 238.810580 19.121099 8 1
84.806831 229.682390 25.557873 35 1
-56.891571 225.257420 -31.843193 16 1
-28.720755 219.222600 4.117392 27 1
-20.141125 214.473790 -51.059429 16 1
-79.293579 190.256790 16.144583 17 1
-66.927750 218.904880 27.575935 17 1
-44.747154 215.957400 -42.349171 16 1
-23.419567 211.357030 -6.231364 27 1
-63.786896 93.495941 58.198608 33 1
-66.568222 227.656510 5.090164 17 1
56.024567 224.871020 9.912622 36 1
-126.838420 209.566180 -23.316864 34 1
44.806965 239.169130 9.145693 36 1
47.875397 231.198170 -3.706657 36 1
-24.100809 145.941710 -127.849400 32 1
52.705814 210.564440 1.421992 36 1
-83.043663 179.330750 8.586050 17 1
45.256470 161.656940 41.121277 23 1
-72.614471 88.058464 67.362648 33 1
15.819606 156.042110 -65.616737 37 1
14.583601 44.853539 10.674033 3 1
19.983339 118.052840 -88.569473 37 1
65.011719 223.939850 -9.851111 36 1
49.425888 166.467940 34.248093 23 1
-32.429531 78.958839 18.536797 26 1
115.011560 145.719310 62.110802 1 1
-37.219505 107.969810 -15.665901 20 1
-22.952667 81.048782 44.136700 22 1
-17.658554 160.781850 -69.448151 2 1
39.978580 147.451070 45.371864 23 1
-128.004970 207.350340 -29.894478 34 1
-142.080200 194.488510 -38.536972 34 1
43.035564 228.019910 -11.013987 36 1
74.630592 237.352800 25.893337 35 1
-41.461929 93.031471 39.610691 0 0
-25.519670 158.043060 -67.414459 2 1
80.317429 223.698960 38.045704 35 1
47.289707 91.187737 -23.484785 10 1
-0.201721 105.759980 -0.970126 0 0
32.664165 214.109100 53.077957 6 1
93.327713 140.287080 3.762449 12 1
-16.536587 151.701860 0.082869 0 0
-0.912996 222.873750 19.268980 30 1
-124.240830 209.224720 -32.230873 34 1
-28.050720 160.329350 -105.786410 32 1
-9.255594 215.413710 -6.864401 31 1
98.837372 139.563020 5.662156 12 1
-63.457733 218.611760 -39.074348 16 1
67.670563 157.577390 23.341782 23 1
20.725538 124.980380 7.343912 0 0
-62.665257 196.506100 20.141539 17 1
-28.448570 110.237570 -16.809198 20 1
-36.408321 236.827990 14.433169 18 1
-41.515896 232.458390 22.253834 18 1
12.954262 74.962990 -59.192364 11 1
-30.444824 106.930250 -0.621968 21 1
-1.955274 224.134840 -1.485491 30 1
100.894900 205.298100 44.774342 35 1
-24.690680 81.846405 23.049955 0 0
-24.606951 85.598236 40.123798 22 1
-17.862976 100.036100 -11.713558 0 0
28.454332 241.881900 31.944521 6 1
-50.599670 208.242020 14.622678 17 1
-49.867641 207.377820 39.289181 18 1
-35.948997 226.056180 -39.250813 16 1
-28.301529 83.855690 15.121452 26 1
-22.575628 164.304700 -91.938354 32 1
30.244478 226.059140 -11.067635 36 1
43.018330 202.987700 57.074604 6 1
-50.975418 212.864200 -52.815144 16 1
56.542526 140.076130 49.792103 23 1
-71.145309 218.971470 -14.244246 17 1
91.305550 138.984850 -15.984396 12 1
-52.871693 215.910810 34.501804 18 1
-20.239517 158.388930 -116.814210 32 1
-41.120491 91.250603 52.121117 5 1
-14.283539 223.566590 12.614582 31 1
38.449360 214.177430 51.935398 6 1
-30.773499 143.607670 -138.703550 32 1
-38.469547 147.349990 -133.585720 32 1
107.805990 215.006200 9.304494 35 1
-35.327976 103.429500 -22.860661 20 1
43.261543 231.570070 -5.255880 36 1
-31.208250 219.510150 -42.154350 16 1
24.502409 210.266780 53.011921 6 1
-37.363777 153.621370 -52.883099 2 1
-50.823444 187.422930 -61.805840 16 1
28.479811 70.182167 -59.131157 11 1
105.850480 152.661090 53.847286 1 1
-40.906963 94.392006 46.537697 5 1
-49.361500 194.096530 -62.439598 16 1
35.136494 205.619000 54.619362 6 1
-32.878147 75.797935 71.034767 5 1
10.085355 124.787100 -92.961266 37 1
-32.900673 236.780760 5.850314 27 1
-29.607445 94.548531 53.226898 5 1
-48.866417 87.087776 59.779884 5 1
74.738701 156.971220 -20.185970 12 1
30.882484 210.001110 56.576584 6 1
-42.700981 221.468060 13.669553 18 1
84.231201 236.675080 13.310035 35 1
-19.604483 156.643630 -4.619759 0 0
-62.379154 234.968230 6.688509 17 1
-52.487537 226.786970 25.617386 18 1
-42.890305 223.623000 -40.012012 16 1
-25.532400 217.630370 9.190710 0 0
-59.377842 216.649980 28.736439 17 1
-77.843925 178.454830 10.301793 17 1
-60.181789 214.205640 -46.486000 16 1
125.696660 134.366100 61.321774 1 1
130.026630 129.691530 60.322784 1 1
77.606247 157.016750 0.582109 12 1
101.888320 201.973650 38.729095 35 1
36.763165 87.438499 -35.459244 11 1
49.810692 193.522710 -21.082706 36 1
-27.098566 165.352430 -100.971700 32 1
-30.755131 146.115630 -130.648570 32 1
41.631287 228.184750 39.687794 6 1
-16.396383 214.636830 2.740576 31 1
-13.433864 146.357890 1.258114 0 0
-46.562756 96.329109 37.044361 4 1
-114.033520 214.382000 -35.106785 34 1
71.728630 163.342650 34.611305 23 1
-11.572720 67.623718 -27.816786 14 1
-22.349649 165.638920 -97.169907 32 1
62.842266 82.686371 -52.437405 9 1
-4.232594 73.302040 -6.355925 0 0
45.434280 226.613940 27.678658 8 1
-74.289429 214.511920 -17.733114 17 1
-32.578915 226.061160 29.436140 18 1
22.345671 148.688570 -68.570343 37 1
-12.294168 157.613590 -107.861660 32 1
-54.509460 204.495590 17.181610 17 1
12.264570 196.169850 13.925183 0 0
-47.330292 216.264970 -27.435087 16 1
68.038116 193.339860 -12.715633 36 1
22.204264 216.249600 48.574848 6 1
62.965706 220.753690 8.506593 36 1
-45.841503 161.930360 -104.382230 32 1
61.639133 71.236511 -21.793695 10 1
48.645596 231.811720 36.049831 6 1
89.961227 223.366650 28.816130 35 1
-40.536335 165.114720 -100.852240 32 1
126.067660 132.324970 54.734348 1 1
55.760727 205.501980 43.547760 6 1
-32.542107 210.673750 -49.477085 16 1
-21.641176 230.287770 -1.381879 27 1
-38.873611 235.672390 -2.743652 27 1
-73.094032 175.934310 15.496715 17 1
53.453617 75.987495 -33.426540 10 1
-64.365791 213.815200 -8.860352 17 1
-9.298885 58.650887 3.093456 0 0
96.223656 216.138240 34.174824 35 1
49.861877 150.304020 14.746171 0 0
22.596176 227.517430 22.140146 7 1
-43.923073 216.631840 -49.969055 16 1
82.845703 158.007480 -4.730090 12 1
78.912537 226.884400 29.733265 35 1
-34.209045 223.344310 11.619265 27 1
0.613129 179.070720 10.054284 0 0
-37.894344 192.587910 -62.297318 16 1
-68.458794 218.222170 -20.654490 16 1
27.063101 206.214650 58.760853 6 1
84.803169 226.155780 22.869047 35 1
-46.603241 219.501680 6.398398 17 1
-22.652636 75.004295 49.476364 22 1
101.704730 215.212750 27.031237 35 1
55.134838 194.057280 -16.163343 36 1
20.133101 90.294525 -49.736927 11 1
96.879295 213.803300 26.753365 35 1
-44.757599 225.315460 28.003746 18 1
-24.635355 204.296940 -5.477365 27 1
-66.216309 225.318570 14.779131 17 1
54.487247 132.112730 55.380047 23 1
-85.981010 228.748980 -38.670586 34 1
-46.212383 186.299390 -62.707382 16 1
-39.036774 183.333660 -64.225197 16 1
-24.051647 236.188810 -0.069292 27 1
-57.704056 206.237120 9.611235 17 1
-139.370990 198.439640 -40.624542 34 1
108.641010 200.036640 39.993057 35 1
1.078309 43.114079 25.001709 3 1
27.450155 212.368060 50.139187 6 1
-66.713593 182.864620 27.366688 17 1
52.321350 216.115480 -15.869946 36 1
22.136765 224.851650 40.739086 7 1
-6.597345 66.394287 -2.752662 0 0
-52.846497 216.699870 -38.245987 16 1
41.968224 87.950417 -41.482903 11 1
-37.967045 160.047550 -104.131460 32 1
-57.389481 85.587395 9.180521 4 1
97.034523 147.085630 4.465470 12 1
66.886238 168.976580 20.538883 23 1
-97.164268 230.772870 -16.978918 34 1
-102.508140 228.570080 -14.536153 34 1
59.555775 203.339420 -6.706381 36 1
50.452850 87.021698 -28.303457 10 1
49.998447 198.620820 -23.512733 36 1
-40.217873 141.729980 -63.130753 2 1
-35.849049 166.372880 -99.418938 32 1
83.077774 154.170790 -12.705671 12 1
-29.964737 80.322777 44.285770 22 1
56.897308 229.570400 30.878792 6 1
43.403641 139.368410 10.267165 0 0
87.810638 230.309660 18.888559 35 1
-69.508484 224.724700 -20.892942 17 1
16.418722 230.090960 41.887718 7 1
95.690651 163.162600 32.022781 1 1
-28.247379 75.313339 48.855083 22 1
57.050037 224.374360 39.534824 6 1
-1.808867 73.999985 -43.514530 13 1
39.790707 217.870300 39.643757 6 1
51.705704 82.101822 -59.783379 9 1
59.681690 154.711330 25.717268 23 1
-110.141110 215.840680 -49.908413 34 1
85.652428 226.841080 30.787014 35 1
-48.710453 214.797360 35.639652 18 1
-52.223331 92.578552 21.638016 4 1
-47.485775 221.584260 30.810846 18 1
-4.423448 55.800209 -8.528464 0 0
-8.095404 129.835660 -0.354819 0 0
38.454620 222.657870 -15.370420 36 1
-31.711300 213.674790 31.260612 18 1
-70.900932 214.806630 -36.205811 16 1
-27.852461 214.912980 -22.761740 27 1
-43.764366 135.141110 -63.708374 2 1
39.512604 156.175160 44.320560 23 1
-66.857986 228.182830 0.610399 17 1
57.293686 149.098400 38.028130 23 1
106.912370 206.815770 19.038248 35 1
14.261556 190.466660 10.011005 0 0
30.937471 211.859220 19.564861 0 0
-29.371172 211.213650 -9.599078 27 1
91.845306 137.192440 -10.304161 12 1
-126.658550 209.025860 -38.735077 34 1
0.624178 147.558590 -87.253311 37 1
15.835934 138.639080 -86.275124 37 1
-17.969412 69.243538 -24.205841 14 1
6.098060 186.647050 10.038595 0 0
3.344593 241.062040 8.523808 29 1
-111.761240 217.849060 -22.164085 34 1
52.994171 202.603290 45.995255 6 1
-51.641518 214.663470 29.782158 17 1
19.193542 142.745860 -76.330238 37 1
-97.411934 222.568680 -43.376259 34 1
-123.500480 210.640530 -43.249664 34 1
-7.827500 158.511120 -104.435620 32 1
-1.212575 1.718943 2.452390 0 0
2.352850 71.550774 -24.684877 15 1
-5.522453 101.378810 -3.765358 0 0
-14.973677 83.706657 12.906177 0 0
-118.516080 217.730240 -17.252218 34 1
-16.978552 80.731285 28.275053 24 1
-4.023591 153.192370 -122.851920 32 1
-5.395594 145.510210 3.018727 0 0
-32.122395 87.587463 62.577671 5 1
-15.774310 210.479510 14.268168 31 1
-78.346367 201.764680 -0.463974 17 1
-52.201473 129.986710 -53.821190 2 1
30.386982 231.130940 21.383623 7 1
57.872490 233.654210 6.059744 36 1
-102.790080 224.899630 -28.958809 34 1
-37.030216 158.776930 -109.169110 32 1
-1.631024 220.984760 4.200647 30 1
95.365547 207.279710 42.142242 35 1
-32.539753 219.424550 25.780191 18 1
-108.448360 220.303570 -18.585989 34 1
49.659775 72.055107 -72.888969 9 1
52.794010 145.021380 50.191582 23 1
-37.954403 79.082062 63.424419 5 1
-31.346552 152.180450 -73.052986 2 1
-12.893614 225.514740 4.585795 31 1
-34.508121 222.632100 -43.720825 16 1
37.939587 226.831440 17.736952 0 0
-22.399229 153.441770 -116.947240 32 1
-77.953651 96.004128 45.858089 33 1
-50.244717 97.453560 27.702328 4 1
-37.927357 140.903920 -75.498131 2 1
22.781525 126.297290 -86.401237 37 1
-24.058022 139.289000 -138.633900 32 1
30.161949 203.042720 60.763889 6 1
55.778912 213.259320 -15.732442 36 1
70.254181 168.525360 -10.290404 12 1
-9.525689 155.859660 -74.352036 37 1
8.962553 40.815392 1.572943 3 1
-7.076438 120.170640 -0.982374 0 0
63.743664 61.129616 -23.680124 10 1
82.346214 159.489900 -0.706733 12 1
-25.677683 167.070600 -45.074383 2 1
-104.599170 220.320140 -53.642254 34 1
-48.014576 99.929276 -4.130205 19 1
7.269776 43.112686 8.336055 3 1
-45.882492 95.155487 23.746349 4 1
-3.040213 219.811290 -3.579335 30 1
117.763250 142.830640 34.091427 1 1
-14.008849 162.210710 -106.803710 32 1
27.220802 130.595840 5.759758 0 0
-8.957917 151.124440 -83.389084 37 1
71.474419 169.833920 -2.144026 12 1
-36.620449 215.019500 36.834625 18 1
-64.659439 178.001530 26.423582 17 1
30.099775 136.506100 -74.311676 37 1
-49.882679 134.704610 -58.008957 2 1
74.324295 160.700210 18.216949 23 1
93.362938 210.505970 48.925701 35 1
103.994090 204.510380 32.895657 35 1
-76.749039 207.343700 -6.738420 17 1
-59.900021 221.412290 -13.792217 17 1
111.393730 207.073530 16.383780 35 1
8.208837 129.569930 -92.363319 37 1
51.412872 210.429670 49.856930 6 1
5.265605 37.979134 1.624984 3 1
20.360802 134.462570 -85.291855 37 1
79.954926 163.498760 6.131682 12 1
-63.380459 228.176030 -13.682255 17 1
-65.339493 225.769450 22.362782 18 1
40.650272 234.376940 6.339791 36 1
-49.787701 181.452350 -64.888657 16 1
128.961520 130.343870 49.729618 1 1
-87.299385 232.112340 -24.942911 34 1
107.869960 201.241390 32.373791 35 1
-117.948400 215.663270 -36.762627 34 1
109.190980 207.060900 31.183430 35 1
-73.525612 203.368090 23.124008 17 1
-30.110247 214.605210 -1.450636 27 1
-70.087929 203.747570 29.181625 17 1
59.917484 74.949409 -20.502750 10 1
58.785408 212.899670 39.425514 6 1
43.792282 239.028720 16.560835 8 1
50.982014 76.327461 -40.431255 10 1
-16.871256 188.359220 8.911621 0 0
-110.550550 220.472750 -32.103149 34 1
72.322617 218.123080 6.657749 36 1
-73.152946 185.041640 11.908503 17 1
-26.793873 208.667920 -2.279456 27 1
45.489292 200.435490 52.657513 6 1
-17.200768 216.848940 15.520762 31 1
103.022120 211.836170 20.706295 35 1
0.723136 110.048420 3.360699 0 0
-21.181355 195.419190 9.032509 0 0
-51.218285 211.153850 37.471775 18 1
-17.249855 157.016300 -110.682170 32 1
76.843819 147.639190 45.563629 23 1
-48.858665 209.246870 -54.987949 16 1
-2.156334 230.839250 9.474104 29 1
-2.454548 152.322190 -78.809166 37 1
60.495174 169.635940 28.998966 23 1
-6.341883 157.330260 -68.887383 37 1
91.658592 224.944760 22.117510 35 1
-4.568387 72.287697 -37.611870 13 1
-21.436737 158.704270 -108.806900 32 1
103.727600 198.704730 40.880447 35 1
-2.955954 116.280910 -0.892872 0 0
-36.847054 145.960490 -72.410576 2 1
6.967481 182.106170 13.214992 0 0
-53.472801 93.483330 27.325748 4 1
83.590034 223.936460 45.816662 35 1
24.140476 144.022580 -70.830666 37 1
-41.205765 216.158080 -5.487689 27 1
-25.087345 221.688770 28.572832 18 1
-118.116140 212.603730 -32.183731 34 1
-28.960222 153.155980 -126.865510 32 1
46.023693 197.711640 60.146580 6 1
-38.800377 158.482510 -118.290160 32 1
-0.585544 158.148160 -68.444031 37 1
-82.966568 193.241130 -0.824933 17 1
-112.560640 220.091320 -28.251863 34 1
60.761810 217.855210 -13.838711 36 1
-36.620777 224.185820 -27.178909 27 1
114.807760 196.395710 34.910088 35 1
-50.692150 237.280080 1.688157 27 1
44.560909 209.540300 -8.218380 36 1
46.493286 229.270810 8.387392 36 1
65.704971 212.976100 5.343444 36 1
-35.031281 213.833970 -23.048231 27 1
72.402161 158.455630 -14.283932 12 1
75.860924 168.080890 19.079405 12 1
-5.608825 158.360180 7.180390 0 0
-8.345441 91.524895 -3.367862 0 0
94.792496 151.555500 2.536637 12 1
84.761902 220.952210 34.997692 35 1
51.385521 86.014488 -53.761360 9 1
-25.483938 167.918880 -3.903001 0 0
-47.534271 224.527970 -8.731497 27 1
-80.740799 227.684250 -26.575817 34 1
-43.946690 216.238130 27.706135 18 1
-48.372074 211.201200 -46.089828 16 1
-31.619951 208.771190 -4.556205 27 1
-69.888939 209.501220 27.763414 17 1
-63.193462 214.814770 28.428967 17 1
11.927974 135.523320 -90.721191 37 1
-23.660995 107.546890 -1.326697 21 1
20.623680 145.080050 -73.023872 37 1
35.619659 240.162200 29.516521 6 1
60.740280 199.186650 -17.726255 36 1
-27.839670 89.482704 20.856256 26 1
110.749710 193.887760 37.816956 35 1
88.465034 151.620210 13.812330 12 1
82.126282 163.290970 14.079181 12 1
-5.265838 69.221321 -7.082223 0 0
45.723873 81.216431 -39.452572 10 1
49.797501 200.225860 56.780155 6 1
-14.128701 155.113800 -73.037430 2 1
50.592381 198.486660 -13.929612 36 1
42.788887 143.592910 10.812726 0 0
-15.871678 146.019350 -130.009280 32 1
72.003197 158.798720 -2.903961 12 1
-88.114983 226.433530 -30.378532 34 1
-14.381986 74.439369 3.093621 0 0
0.689371 59.304054 -12.261640 0 0
50.186584 235.386670 31.527954 6 1
59.169197 225.084430 33.270100 6 1
-27.515385 218.228670 -4.350387 27 1
92.287148 142.442660 -12.471840 12 1
-12.824347 179.051180 5.753415 0 0
60.051849 64.998734 -32.340935 10 1
28.485577 134.885220 -79.694656 37 1
-2.405838 34.601452 0.675981 0 0
-40.244514 138.469440 -67.915375 2 1
32.632027 83.969330 -41.036907 11 1
-81.907959 88.619789 47.841305 33 1
75.297165 154.025700 42.878613 23 1
51.589111 83.798607 -32.221550 10 1
-23.566666 224.439820 -14.210776 27 1
17.211649 126.603400 -90.498047 37 1
113.152260 148.344240 56.538727 1 1
-69.200615 202.932940 -0.717456 17 1
-8.300799 171.999530 5.071711 0 0
57.301308 164.437150 38.051456 23 1
78.084984 154.494160 -19.069427 12 1
-36.920670 91.241402 52.643242 5 1
-38.813416 223.251100 30.915226 18 1
-32.121273 110.625090 -18.894434 20 1
-39.620895 238.227040 5.239598 27 1
-15.731895 184.537190 7.288129 0 0
84.005676 224.382980 41.469494 35 1
-39.275230 225.086300 -22.945034 27 1
115.548590 193.457490 31.604956 35 1
36.281685 221.788330 16.640446 0 0
-43.473389 198.944400 -60.077316 16 1
-69.531181 205.367580 -47.258923 16 1
99.104462 218.173020 16.468292 35 1
-32.931759 112.706690 -0.570483 19 1
-30.788868 205.007860 7.937483 0 0
-95.806618 223.526490 -28.199760 34 1
56.123459 167.974670 32.586773 23 1
39.117077 210.133260 -18.779482 36 1
-118.993720 209.227660 -54.907139 34 1
-65.341156 208.681960 -3.230039 17 1
107.792620 194.522170 43.568134 35 1
-17.339678 85.154320 6.638656 0 0
-29.140257 90.434601 55.416481 5 1
3.106080 157.388790 -73.886505 37 1
-1.283385 159.597960 -105.413260 32 1
-8.416320 223.336460 -1.577614 30 1
-1.350451 7.902125 -2.339430 0 0
-24.413788 103.655690 1.949648 21 1
104.199660 207.661130 26.851339 35 1
-58.444489 95.521935 60.364136 33 1
10.803138 66.101364 -15.469501 0 0
-29.952755 99.785339 4.114606 21 1
-43.140362 211.177780 -24.260376 16 1
46.427971 223.079440 3.450207 36 1
-8.057253 220.974350 -12.470971 30 1
32.746025 218.280730 -12.510446 36 1
1.545725 231.259090 1.309427 29 1
86.595840 218.906620 48.879265 35 1
-4.275148 97.100815 0.528387 0 0
87.370529 151.130450 8.985626 12 1
47.682167 217.762310 47.146046 6 1
-50.338722 97.333939 2.836114 19 1
-33.088696 220.066380 35.221302 18 1
-86.364578 230.745830 -30.795408 34 1
63.281216 210.616060 -12.522852 36 1
86.076866 142.731450 -13.274272 12 1
-105.454540 219.068390 -44.968590 34 1
29.818495 230.471910 -9.965823 36 1
-71.538338 210.701350 16.204556 17 1
45.973900 212.191820 40.892311 6 1
-41.584831 200.975860 -53.973701 16 1
28.305847 208.608260 53.584053 6 1
-106.495550 222.248140 -33.738956 34 1
-10.105762 226.317170 14.841320 31 1
-61.751148 186.157880 28.623344 17 1
65.892418 228.276140 14.530780 36 1
65.665642 226.455140 -5.516165 36 1
64.629173 156.237750 43.754707 23 1
61.153324 206.637710 -14.530781 36 1
38.247898 233.531860 19.045322 7 1
4.934380 162.647030 -68.683563 37 1
-38.790070 146.522900 -59.519810 2 1
50.427879 229.041580 11.528887 36 1
51.148972 80.990860 -37.442554 10 1
45.275883 154.234420 35.055290 23 1
117.018190 198.633510 26.942862 35 1
-77.859985 198.901760 10.526525 17 1
45.601604 205.269760 47.581978 6 1
-1.590331 38.550163 7.563720 3 1
60.455025 141.445680 49.308193 23 1
119.134940 194.978490 21.499529 35 1
-5.092723 124.082910 -1.426328 0 0
48.202911 208.867680 42.532955 6 1
13.368214 131.468520 -87.907318 37 1
90.468246 153.590970 -3.096088 12 1
28.176723 224.491410 44.988750 6 1
78.389297 230.401440 24.105314 35 1
-23.497528 160.546190 -5.293509 0 0
66.196091 154.619770 29.443233 23 1
-13.127741 69.888397 3.238012 0 0
-20.016777 67.573578 17.035433 0 0
1.108898 143.344700 -88.101944 37 1
120.372960 141.524440 61.806019 1 1
-7.964166 56.553574 -5.116319 0 0
-114.303140 221.758090 -7.061543 34 1
83.389473 165.254650 25.633688 12 1
-75.235718 89.176300 62.236950 33 1
-52.611168 220.779570 -27.251781 16 1
-41.603275 96.721100 17.609192 4 1
-99.902939 225.058590 -51.905544 34 1
-29.587685 221.601150 0.685915 27 1
66.343163 230.928380 6.954565 36 1
-95.701988 227.359160 -32.716129 34 1
-68.349075 218.436840 17.953985 17 1
-31.112196 222.181820 23.023455 18 1
-24.924046 235.078350 -4.312550 27 1
42.227238 195.900090 60.002258 6 1
-93.826660 227.979680 -42.377899 34 1
-31.891685 159.701390 -55.108383 2 1
2.592388 67.074326 -14.999695 15 1
43.636578 80.542923 -64.833092 9 1
-35.557152 153.491170 -122.929580 32 1
1.770997 73.171280 -39.612080 13 1
26.227230 228.328090 42.491688 6 1
56.155586 201.966160 -19.329546 36 1
-31.269510 162.525340 -107.966350 32 1
-27.875713 86.725235 60.479206 5 1
-42.925728 222.619810 9.467362 27 1
51.888695 83.053513 -24.405565 10 1
-114.251300 217.266950 -40.330742 34 1
59.689770 77.682823 -26.137157 10 1
97.453949 216.903690 30.044827 35 1
68.646851 166.508210 30.151787 23 1
73.032448 232.013110 30.191427 35 1
-41.776657 226.593730 2.471090 27 1
45.865101 238.741460 25.329384 6 1
55.516674 74.106079 -38.749203 10 1
81.039627 148.125460 -16.520399 12 1
-6.358334 156.117550 3.580419 0 0
-68.016792 225.689420 -7.678404 17 1
-13.489976 174.832170 7.925926 0 0
36.537582 233.067900 -6.930577 36 1
-35.427319 79.236465 68.206314 5 1
-78.945587 185.160750 5.436043 17 1
52.409527 79.697655 -63.073021 9 1
55.309643 85.452393 -52.308865 9 1
