-4.063073 36.733437 1.781710 6 1
2.765579 10.781800 -17.331264 2 1
-7.996022 33.611023 14.180484 4 1
-10.465362 27.732952 19.846039 4 1
-2.463086 20.584394 -8.722003 2 1
-14.584723 29.408710 1.715362 6 1
-8.822352 38.277187 9.195676 4 1
-12.913550 13.123336 2.660762 6 1
-0.759027 22.328392 -3.983756 0 0
-4.992081 12.162371 -11.925633 2 1
1.518859 18.582300 11.558587 3 1
-15.891804 16.387186 0.409476 6 1
14.254004 5.184665 -2.309413 3 1
10.366665 17.066475 -3.434376 3 1
0.093889 26.486296 -0.792708 0 0
16.144188 7.756607 6.345363 3 1
-11.914631 23.894733 12.078528 4 1
3.484710 24.011595 7.798402 5 1
-18.402740 22.647413 11.619360 4 1
-13.536599 31.710527 14.329897 4 1
6.793081 17.991838 4.950346 3 1
6.663332 47.200470 -1.942989 7 1
4.645905 39.345585 -6.514302 1 1
-5.080842 25.352497 12.327079 5 1
6.353979 23.050581 -0.936408 3 1
-14.386959 35.084278 7.004502 4 1
-18.173866 17.537247 9.737394 4 1
16.297518 -1.204617 1.229413 3 1
-16.880926 16.132069 -9.348767 2 1
2.976932 32.050228 4.840347 5 1
1.319286 40.398251 -2.060182 7 1
9.458489 14.307671 2.704676 3 1
-8.062972 29.725311 16.411734 4 1
-16.444725 11.706241 -10.534410 2 1
19.017328 4.424473 5.521041 3 1
-6.788219 20.302197 -7.232993 2 1
-8.697295 25.075523 -4.254170 6 1
-0.766055 43.217903 -8.307384 8 1
-10.264474 31.786947 -0.223895 6 1
-1.516009 10.013841 -17.974283 2 1
12.409303 11.962962 5.218330 3 1
-12.944257 23.162848 -7.031050 2 1
-12.514657 17.501085 -2.136226 6 1
-1.509114 27.986164 10.890316 5 1
1.628327 12.657044 -11.647880 2 1
-9.153661 36.161114 1.541299 6 1
-3.231683 32.300098 -1.057202 6 1
-11.819136 37.705059 4.694545 4 1
-6.732649 25.825476 5.462113 5 1
-9.111877 14.001263 -11.929564 2 1
-15.977010 24.577564 8.283589 4 1
-14.147215 24.941439 0.472355 6 1
-5.699810 18.383724 0.449080 6 1
-0.495786 35.397900 -4.434111 0 0
12.767413 21.288658 -6.297958 3 1
0.199362 3.092736 -1.207800 0 0
1.131323 27.273121 6.406644 5 1
-10.847447 13.198056 -0.991678 6 1
6.180135 44.116665 -11.478809 1 1
-9.786272 20.571098 -0.027964 6 1
14.644906 9.189694 -1.640090 3 1
12.041215 11.831122 11.806802 3 1
-2.939967 27.619667 -3.863585 0 0
-11.438558 22.571932 17.024660 4 1
-6.531477 11.193900 -15.541611 2 1
-18.237314 28.943182 3.461858 5 1
-16.385872 17.900541 14.540756 4 1
-2.621892 24.489794 7.645943 5 1
-20.357010 24.417305 6.846854 4 1
12.689321 8.318644 3.701832 3 1
-12.855748 17.312119 3.043030 6 1
-3.243961 36.691528 5.621354 5 1
2.266241 42.774052 -5.033550 1 1
11.623748 14.596363 -0.667540 3 1
-12.982887 11.064130 -12.238729 2 1
-13.025556 29.384333 17.410227 4 1
16.103432 2.523023 0.078985 3 1
-14.430334 19.966909 19.776773 4 1
1.673000 21.055603 4.400169 3 1
-7.762722 14.048412 3.768121 6 1
-3.028149 32.380959 10.886523 5 1
5.572549 47.277149 -9.384938 1 1
-13.742229 25.665443 18.113398 4 1
7.963942 18.104048 12.056451 3 1
8.384730 19.986542 -1.997353 3 1
5.120735 40.222542 -2.023957 7 1
-10.857919 6.761371 -14.581637 2 1
-8.504457 29.833712 -2.949407 6 1
-2.376420 20.936110 12.135446 5 1
-16.038635 32.349064 3.538414 5 1
-16.756977 28.728024 11.800639 4 1
-3.119640 11.955514 0.711255 0 0
-19.064114 29.985701 7.587169 4 1
1.536419 32.666821 -0.895874 0 0
-9.241731 23.117929 -7.386910 2 1
-13.034264 19.500748 14.977116 4 1
-7.703449 23.566793 -0.970530 6 1
3.036561 21.921797 10.867587 5 1
-11.435912 23.771460 -1.745562 6 1
15.444189 8.910907 9.904522 3 1
9.853869 12.105418 8.789309 3 1
-6.827992 16.780310 12.706170 5 1
8.873032 13.115321 16.227528 3 1
-14.024028 14.387796 15.193550 4 1
3.073932 22.805508 0.756132 3 1
6.299673 19.510300 1.667510 3 1
-1.374043 21.003475 8.678572 5 1
-3.031648 15.146611 -12.237787 2 1
-8.284254 23.583130 12.557754 5 1
-7.631512 35.536240 11.204382 5 1
-2.346685 26.911388 1.757411 0 0
-2.537415 23.171387 -0.983275 0 0
-13.862358 17.794899 -8.406284 2 1
2.660582 36.692490 -5.312254 0 0
-7.148472 21.921497 -4.136827 6 1
16.350319 2.067285 3.640983 3 1
-1.339411 38.660618 -3.526139 8 1
-11.500837 22.963747 5.012698 5 1
-1.064631 34.609680 7.367470 5 1
-1.556932 34.313541 1.966905 0 0
-17.634314 20.839720 8.759108 4 1
-6.710198 37.077232 6.721522 5 1
-0.883305 16.867752 9.768660 3 1
7.515363 17.056421 8.615296 3 1
-11.230429 34.082096 15.265225 4 1
11.597327 20.283411 -3.235979 3 1
-1.228535 8.513218 0.724232 0 0
-2.587467 17.775064 -0.851174 0 0
2.549290 15.975669 -11.452835 2 1
-3.876815 21.820988 -5.311518 0 0
12.837081 13.892218 -7.708484 3 1
15.330997 3.196177 -4.849550 3 1
-8.815808 16.211567 -9.349207 2 1
-0.519977 14.042476 0.046849 0 0
-16.470339 24.209757 14.019765 4 1
-3.539158 17.398947 -9.178679 2 1
3.044833 20.136383 7.385717 3 1
-11.450813 36.383213 8.053892 4 1
-12.599235 22.636919 9.040876 5 1
14.579897 11.245025 -6.604154 3 1
-15.395166 19.379875 3.900212 5 1
12.224209 8.620905 12.726218 3 1
-5.630826 21.459265 12.770363 5 1
-6.383329 37.329136 -0.515092 6 1
-6.488339 25.775286 2.151453 6 1
5.173440 41.195477 -9.276661 1 1
-6.666558 27.518661 14.394767 5 1
-7.940642 8.117729 -15.266942 2 1
13.403005 7.032122 0.493341 3 1
0.201495 19.742750 -2.054049 0 0
-5.443730 24.945938 -3.727103 6 1
-3.409555 10.924692 -14.456163 2 1
6.448812 20.931629 6.236372 3 1
-1.992701 18.826761 2.127180 0 0
1.357302 26.135681 9.397576 5 1
-17.068445 33.259930 6.858976 4 1
-9.939109 36.250076 13.269721 4 1
-12.920412 15.270022 0.279132 6 1
0.235215 19.153831 -9.898007 2 1
-15.434025 22.482403 3.361482 5 1
-1.837798 41.390244 -5.963645 8 1
-5.055402 32.554916 -3.602304 6 1
-16.885351 20.985806 13.808079 4 1
-7.307353 19.728773 -1.877484 6 1
2.775178 11.308928 -14.230710 2 1
-6.435187 23.959614 7.978849 5 1
0.688056 29.553814 -0.671756 0 0
1.110594 29.605307 4.343049 5 1
9.659631 16.997072 4.271605 3 1
-6.876447 16.919088 2.974941 6 1
3.731863 46.470535 -1.093384 7 1
-0.378566 45.593163 -6.227935 8 1
-14.204178 32.726280 11.480527 4 1
2.545750 30.227459 7.481208 5 1
-8.262676 18.916370 -4.901450 6 1
5.970812 21.919361 11.804611 3 1
-7.545831 16.602652 -1.301564 6 1
-12.523700 20.536139 -1.656458 6 1
-15.743694 16.989220 11.511210 4 1
-5.482075 32.722740 12.687814 5 1
-6.375334 27.114010 -5.677725 6 1
-16.029764 35.265446 4.428713 4 1
-10.904972 24.817574 19.062868 4 1
13.353795 11.997172 -1.725761 3 1
-0.251916 35.058022 -1.406603 0 0
-2.806634 2.831316 -0.841980 0 0
-6.619011 14.220055 -10.240149 2 1
16.034458 4.914143 5.337529 3 1
-7.961253 22.136753 9.933971 5 1
12.274271 15.613543 -5.263817 3 1
-18.845991 26.597540 5.437426 4 1
-1.391593 12.667463 -11.896474 2 1
2.685616 41.346310 -7.625176 1 1
-11.423700 16.648951 -10.759317 2 1
3.095814 46.155098 -7.892075 1 1
-15.879691 18.804260 6.777977 5 1
-13.243876 20.730057 -8.711822 2 1
-17.889841 25.791174 11.967245 4 1
-3.223050 19.070311 9.923793 5 1
9.306405 16.447618 -0.697874 3 1
-7.766023 18.939762 -9.708717 2 1
7.394336 17.854469 14.959787 3 1
2.359191 39.547508 -4.670322 0 0
0.722529 22.982967 8.155229 5 1
13.898576 9.631705 6.356246 3 1
0.293353 10.803246 -15.763522 2 1
0.202608 21.718056 -8.229645 2 1
-4.401275 34.913147 -0.511934 6 1
-11.183158 21.526976 2.500190 6 1
6.520777 44.270477 -1.788605 7 1
17.428762 7.285967 11.269385 3 1
-15.491532 19.176653 17.024895 4 1
9.730597 13.155544 5.357951 3 1
9.478480 11.609387 13.126971 3 1
8.236010 21.457504 0.565899 3 1
-5.267158 8.727137 -14.370789 2 1
-10.506435 21.516844 11.283321 5 1
-13.090669 9.180975 -14.408395 2 1
-11.634094 21.853083 14.082264 4 1
-10.941785 20.857449 -6.908135 2 1
3.423341 18.061230 -9.658542 2 1
-18.294893 19.754698 11.651985 4 1
1.342437 33.349125 -3.655531 0 0
-15.275654 22.010986 9.840851 4 1
4.798751 14.250057 -11.464185 2 1
-19.821777 24.089371 9.606823 4 1
-12.627504 31.456177 1.298272 6 1
-5.413191 37.878757 4.194075 5 1
-9.517851 38.263805 6.306374 4 1
-3.532638 30.251974 -2.971969 6 1
9.624206 15.610957 9.865179 3 1
0.619593 28.846375 9.237225 5 1
0.856327 33.168106 3.369033 5 1
-10.013661 15.557878 4.519614 6 1
12.075098 13.189525 2.542717 3 1
-4.207208 10.394324 -17.097584 2 1
-13.804537 16.948126 13.984787 4 1
-11.226798 30.413778 20.068825 4 1
-16.398981 22.886114 5.952104 5 1
-9.236349 24.647934 5.077115 5 1
20.251175 2.009846 6.189895 3 1
10.327061 9.942417 10.670367 3 1
-5.551004 18.968426 11.462052 5 1
11.509645 18.490076 -5.546427 3 1
15.394296 7.303304 3.699650 3 1
15.185969 6.014009 -4.794333 3 1
7.651026 17.154606 2.355600 3 1
1.325503 33.316227 6.679584 5 1
0.259115 22.731312 -1.426656 0 0
0.338466 21.095127 11.581532 5 1
-2.859501 23.741322 11.836189 5 1
-21.085241 30.304150 5.216368 4 1
-2.395792 20.578037 -2.557246 0 0
-7.063815 13.058203 -13.530092 2 1
14.790607 10.879389 -3.813299 3 1
-14.393328 18.619846 -0.377759 6 1
-9.940793 25.710960 13.087405 4 1
20.776670 4.893409 7.589315 3 1
-9.080419 32.278324 16.332186 4 1
-1.428816 8.171552 -1.983842 0 0
-11.105589 18.692913 1.462303 6 1
-6.480580 31.265175 14.768827 4 1
15.548044 5.218504 0.314391 3 1
-8.975874 27.395151 17.490734 4 1
-1.595218 20.553446 -6.139771 2 1
-20.932552 27.178947 7.465183 4 1
-14.201015 23.038561 18.626364 4 1
-13.218439 27.482252 0.390191 6 1
10.785227 18.648947 -1.241679 3 1
-10.822721 18.278002 -4.093966 6 1
7.631301 20.329369 3.868704 3 1
-15.515443 26.848598 2.006673 6 1
-5.171877 19.638346 -9.283594 2 1
-10.984832 12.353477 -10.912924 2 1
17.759899 5.991259 7.579763 3 1
-12.986238 20.413044 17.549055 4 1
4.059378 44.616096 -9.879659 1 1
-0.292774 5.668113 -0.418969 0 0
1.853881 43.000240 -1.643085 7 1
-12.144998 25.971180 21.133760 4 1
3.651600 26.670208 8.031284 5 1
8.467983 15.397661 14.820594 3 1
1.605262 17.880705 8.962871 3 1
0.108295 14.853430 -12.222820 2 1
5.239896 22.690876 9.310834 3 1
-1.068801 24.784897 -2.515903 0 0
1.110767 37.605457 -3.280241 0 0
-13.278002 8.454253 -11.671616 2 1
-0.200088 18.347561 0.175484 0 0
3.147676 38.656345 -1.145118 7 1
13.875492 9.424575 1.530413 3 1
-0.440588 28.003395 -2.898305 0 0
-6.510783 17.299870 -3.636019 6 1
-15.125900 29.707577 13.646473 4 1
12.293431 11.726818 7.863584 3 1
-12.995428 20.435278 4.159074 5 1
-10.968617 15.405810 -2.524877 6 1
-0.906964 41.250309 -3.252210 8 1
-14.481599 15.174266 3.341884 6 1
-3.755797 27.611950 12.313505 5 1
-10.787355 14.201153 1.517546 6 1
-15.420374 13.921977 -9.587474 2 1
-1.101645 28.555735 3.355887 5 1
3.419381 22.542465 5.637940 3 1
-10.495278 33.947639 1.265227 6 1
-2.424436 26.734505 -1.453694 0 0
-6.958537 37.417862 2.122808 6 1
2.029610 43.851871 -7.378064 1 1
-1.980885 36.459766 3.352015 5 1
-3.985036 13.403877 -13.959474 2 1
-15.123500 24.663586 16.174925 4 1
-13.856206 34.254478 9.428600 4 1
-10.209846 36.714207 10.697595 4 1
-0.996993 18.753777 12.070536 5 1
-0.953560 32.733017 -2.327304 0 0
-9.126001 27.341438 -3.061571 6 1
-1.210869 0.919550 -1.538761 0 0
-4.922843 26.845350 3.876069 5 1
8.650342 22.600143 -2.148655 3 1
-16.086138 17.140505 2.848795 5 1
16.951618 4.472409 3.005941 3 1
-1.710587 30.245417 -1.157306 0 0
-4.411020 25.895401 6.514356 5 1
3.218558 41.131878 -0.529348 7 1
-9.447696 37.361847 3.859244 5 1
-0.132272 25.219521 7.316797 5 1
-14.379140 16.135807 -10.257040 2 1
11.151367 14.668468 -3.183122 3 1
-5.531443 14.816586 -12.504687 2 1
8.783565 17.865334 6.514326 3 1
-4.713862 21.712629 -7.695066 2 1
18.833920 2.422839 3.953282 3 1
-2.514983 30.110836 11.904860 5 1
15.444197 2.819169 -2.340940 3 1
11.569665 10.544659 3.299789 3 1
-8.291914 32.130581 -1.932577 6 1
-12.470519 31.710054 16.611691 4 1
2.080091 20.773691 1.842036 3 1
-13.594656 35.840305 4.144606 4 1
-4.307781 15.173674 -10.040435 2 1
13.393635 10.453266 10.222463 3 1
-0.920185 13.214729 -2.270010 0 0
-2.152423 43.841557 -6.292573 8 1
-11.807402 29.568895 -0.101039 6 1
-18.092037 29.079847 9.731193 4 1
-1.454769 24.940496 0.388590 0 0
-18.137991 23.188396 8.019623 4 1
-12.850584 22.825460 0.061475 6 1
-9.567462 29.671932 18.380970 4 1
15.062910 0.319119 -0.363666 3 1
-12.457244 33.571812 13.120433 4 1
5.972104 46.582657 -11.717026 1 1
5.289543 21.645176 0.783450 3 1
11.368592 10.021698 6.352640 3 1
3.078117 19.670012 9.883732 3 1
-13.368293 21.990768 11.487272 4 1
-2.542634 15.351251 -0.463062 0 0
0.636935 20.738951 7.177588 3 1
-19.757254 19.403158 9.699690 4 1
-8.556256 18.454922 -0.065942 6 1
10.588780 15.980432 1.332805 3 1
-9.231353 11.973057 -13.851884 2 1
5.249767 19.978941 4.223815 3 1
-0.632062 45.545197 -9.023131 8 1
-0.442986 28.222820 1.015854 0 0
-2.722096 34.016785 9.119718 5 1
-7.184552 23.841141 -5.726596 6 1
-16.417803 19.244482 10.122674 4 1
-16.320665 18.069670 -8.005691 2 1
4.696560 30.872128 6.117544 5 1
7.780625 18.610004 -0.097058 3 1
-2.207979 20.067141 -0.172564 0 0
-8.931643 20.699705 -8.281770 2 1
-7.489336 25.909243 12.788483 5 1
17.021456 -0.838659 3.515125 3 1
-7.039967 36.341766 9.004006 5 1
0.079488 42.909153 -6.052780 8 1
-3.943702 26.659893 -5.838611 6 1
-9.125901 14.866422 -0.737585 6 1
-14.002979 12.039051 -10.289343 2 1
2.348813 38.991711 -7.127124 1 1
6.414265 18.733229 7.291847 3 1
-13.460306 17.535732 16.288454 4 1
-15.313361 9.717682 -11.252834 2 1
-17.958723 15.985220 11.550521 4 1
-11.219386 35.793118 3.318777 5 1
-2.538312 10.076718 -0.648615 0 0
-12.717107 27.679567 19.057093 4 1
10.863544 13.466982 10.548620 3 1
-8.508103 34.419994 0.014415 6 1
-8.407706 16.290291 -11.682571 2 1
-0.134732 19.490526 4.695704 3 1
6.309627 45.014481 -9.271333 1 1
-10.025878 23.619553 14.491044 4 1
-10.400978 14.512582 -9.772766 2 1
1.756428 21.175716 -0.462593 0 0
-15.751563 30.859642 11.657912 4 1
4.012823 42.346634 -2.390075 7 1
-15.955707 15.571742 14.565508 4 1
14.266895 8.010366 8.082103 3 1
-4.607544 17.220135 2.244718 0 0
-14.063030 24.415558 9.633373 4 1
-0.793682 11.734457 0.444217 0 0
14.303957 7.394397 -3.115773 3 1
-1.650743 18.703642 8.150293 5 1
-4.250679 19.380486 -1.234731 0 0
-16.876093 25.656683 6.370060 5 1
-11.249393 10.730302 -13.777648 2 1
0.892163 12.767401 -13.915843 2 1
6.159268 19.591307 11.933052 3 1
-1.072323 2.257332 0.619528 0 0
0.236660 40.634808 -5.201213 8 1
-10.046265 23.248905 -3.546880 6 1
13.978034 7.419460 5.550848 3 1
-22.189720 25.578133 5.999347 4 1
-5.625770 34.254177 10.939882 5 1
10.692029 20.916548 -5.313458 3 1
-5.335325 20.018898 -5.435796 0 0
-19.778538 21.778625 9.825711 4 1
-1.687706 25.596973 11.008488 5 1
-1.678123 17.949972 -10.535946 2 1
-7.269999 9.821016 -13.837319 2 1
10.827376 15.005711 4.521089 3 1
2.248729 23.843529 9.739639 5 1
2.768464 28.755604 5.724154 5 1
-12.426718 25.696886 -0.849857 6 1
-11.980968 15.176570 3.217270 6 1
-7.582452 12.393138 -11.351441 2 1
-6.917393 31.261589 -3.930538 6 1
17.243198 7.689273 9.019063 3 1
-8.926681 21.757914 -5.559403 6 1
-18.030518 31.265142 3.869368 4 1
-1.826388 15.643507 11.540017 5 1
-1.979190 11.492961 -16.302467 2 1
15.491614 1.058354 1.789178 3 1
-6.073933 17.563511 -9.053115 2 1
-10.094634 8.892036 -14.763572 2 1
8.407325 15.754066 5.761618 3 1
3.548195 12.956383 -12.876090 2 1
12.728835 9.209541 -0.426777 3 1
-3.251597 38.351761 3.703151 5 1
-0.517466 31.989414 -0.233171 0 0
-15.557151 24.421223 2.205057 6 1
14.329471 8.922965 11.870076 3 1
-7.381753 20.162390 10.889041 5 1
4.146624 42.332363 -6.221955 1 1
10.612551 13.247297 0.826705 3 1
-0.967205 37.390308 -5.380055 0 0
-1.396185 16.590408 1.024354 0 0
-3.096737 22.526237 8.630037 5 1
-0.985467 30.345718 10.261842 5 1
-10.297809 25.459774 -2.708786 6 1
3.018343 22.397005 3.205870 3 1
7.748335 18.899389 9.974496 3 1
-16.357271 30.227371 2.814147 5 1
-14.924516 22.247931 -7.836481 2 1
-14.926991 18.838165 1.777335 6 1
12.350499 10.704589 13.750144 3 1
-17.601456 33.684685 4.510725 4 1
-14.037012 27.492968 16.794268 4 1
-16.221470 20.713657 5.498373 5 1
-6.986092 22.501455 -7.482652 2 1
-1.810528 14.344124 -10.507481 2 1
-7.208749 28.576685 -4.234772 6 1
-17.462053 17.915285 12.606441 4 1
-1.747382 4.368760 0.666210 0 0
-4.865465 15.769217 12.637405 5 1
15.019528 6.926823 -1.080116 3 1
13.344684 19.185457 -6.577703 3 1
11.354324 13.561368 6.845500 3 1
-18.015163 26.728937 3.387107 5 1
-10.060714 29.702351 -1.415926 6 1
1.386205 17.193773 -9.703605 2 1
-1.118168 26.974251 6.354506 5 1
-4.476955 26.407871 1.571373 6 1
-8.422922 21.595303 -1.660730 6 1
-13.912762 29.818443 15.460441 4 1
-1.621974 4.467350 -1.672407 0 0
-12.779896 36.460312 6.206524 4 1
-9.455118 13.265987 4.899092 6 1
6.915995 21.803127 2.295285 3 1
-3.153668 35.503162 7.591079 5 1
12.958869 10.072279 -2.690215 3 1
14.313259 3.559013 -0.587365 3 1
-9.256523 22.579586 0.613993 6 1
-10.203203 24.354610 17.061808 4 1
-21.573797 22.794401 7.610839 4 1
-14.376140 17.560423 4.615633 5 1
7.996725 16.119814 11.212668 3 1
-15.617012 33.412125 8.445844 4 1
10.408979 12.291232 14.972622 3 1
-5.910289 18.091606 -1.675751 6 1
3.625615 42.667229 -9.069757 1 1
-14.090535 32.280560 2.643750 5 1
9.783504 19.128384 -3.511086 3 1
-15.208951 22.635803 7.791780 5 1
-16.635273 27.002508 13.203476 4 1
-13.115781 20.573027 13.131573 4 1
-11.580653 23.042833 7.143314 5 1
4.919970 22.438244 7.218587 3 1
10.393485 9.692846 13.230975 3 1
4.057398 10.372104 -15.641558 2 1
-5.789647 20.565022 -3.212943 6 1
-7.757856 24.465384 1.025099 6 1
-10.447197 22.756130 9.545666 5 1
-2.928604 20.081678 -4.560244 0 0
-3.766997 19.366302 12.533174 5 1
1.887411 34.414497 4.934727 5 1
-1.179602 36.055832 5.831572 5 1
3.306001 44.545448 -1.955076 7 1
-11.481823 14.082877 5.125860 6 1
12.102957 8.570138 14.841114 3 1
-2.109246 13.705530 1.394084 0 0
-1.836240 29.410324 -3.982943 0 0
-6.100102 23.502811 12.565062 5 1
-3.790002 16.851271 -11.204503 2 1
1.326550 14.517096 -10.539673 2 1
-4.303360 12.305558 -15.767562 2 1
-6.517596 9.246027 -16.330910 2 1
2.276201 35.405334 -3.699853 0 0
14.759070 3.108011 1.580182 3 1
-2.178945 45.730865 -7.294801 8 1
-13.065503 21.606197 19.654678 4 1
-4.031078 26.137445 -2.661282 6 1
8.822919 18.693783 3.338097 3 1
1.944892 25.443729 7.407671 5 1
-4.001276 29.165411 -4.810519 6 1
9.686998 20.110973 -0.228021 3 1
-5.380592 11.169740 -13.797341 2 1
-3.628106 18.472086 0.821780 0 0
-6.889850 23.678743 -2.911876 6 1
-11.807529 17.383369 -8.842328 2 1
-2.789324 33.787865 0.366666 6 1
-14.182482 22.834703 1.667798 6 1
-13.982022 18.547771 18.319811 4 1
-17.712160 31.585150 7.915092 4 1
-7.936810 25.247437 3.565568 5 1
11.493532 12.942558 -1.924760 3 1
-9.661433 17.774176 -10.430603 2 1
-7.942655 24.709810 6.733009 5 1
10.478456 12.346318 3.545423 3 1
-0.470067 41.325703 -7.509472 8 1
-6.816208 18.837292 13.087812 5 1
-20.114977 28.494102 4.260872 4 1
-14.782002 19.456604 -9.212958 2 1
15.157572 6.802710 1.568341 3 1
-1.096911 18.160610 -2.266710 0 0
12.519992 12.877890 0.152116 3 1
0.750513 16.755636 11.017708 3 1
-14.473495 34.020664 3.782970 5 1
2.385821 28.272087 8.364145 5 1
-2.920344 17.052298 10.276039 5 1
4.409029 20.775885 5.958745 3 1
5.907737 43.060932 -9.741935 1 1
17.463459 0.846216 2.429610 3 1
-5.873868 22.102743 -5.810622 0 0
-1.372239 18.853033 -8.664142 2 1
2.456934 22.197445 7.410767 3 1
13.322853 10.130099 4.405864 3 1
1.115095 38.472404 -1.408716 7 1
-2.211883 13.141311 -0.677146 0 0
13.460289 8.424451 10.064442 3 1
8.984618 13.515401 14.191372 3 1
11.211307 16.374701 -1.720505 3 1
-0.304640 28.465614 5.244425 5 1
-1.481008 39.420559 -5.407161 8 1
3.544982 37.604057 -2.832085 7 1
-8.583462 15.801683 3.104635 6 1
-3.317305 13.287948 -11.482549 2 1
17.290588 3.389011 4.853620 3 1
13.539844 6.694296 2.779039 3 1
5.628184 45.819092 -0.827584 7 1
3.209811 40.005333 -2.656207 7 1
-15.672359 17.239536 16.311846 4 1
15.470586 8.988457 -3.554140 3 1
1.610705 34.425701 -1.956870 0 0
-3.646606 8.659942 -17.955717 2 1
-14.784779 21.100950 18.134661 4 1
-4.837450 36.347755 6.822886 5 1
4.061404 21.097509 8.829985 3 1
10.095055 21.169353 -2.235314 3 1
-1.261819 15.210818 -2.034677 0 0
13.684145 10.921001 0.008733 3 1
-11.114726 10.490675 -11.783388 2 1
-6.969216 34.170689 12.514072 5 1
-1.490373 14.174293 -13.223556 2 1
8.453023 16.490080 13.139769 3 1
5.058304 25.275810 7.735134 5 1
-12.360752 19.103951 -7.949124 2 1
-3.873431 31.548231 12.521777 5 1
-20.528946 28.984138 6.667437 4 1
9.497253 14.131210 8.528363 3 1
10.113960 11.801635 6.833735 3 1
13.746970 10.109494 8.292295 3 1
10.517893 13.210974 12.560588 3 1
1.736313 19.596514 5.973444 3 1
1.899264 11.975631 -15.887552 2 1
-4.753704 33.547123 -1.912030 6 1
-2.806104 21.745512 -7.154455 2 1
-11.079385 16.752712 2.292853 6 1
12.920379 12.312090 -6.499309 3 1
-0.302310 19.834175 2.302920 0 0
8.490498 20.167395 2.040280 3 1
1.024263 31.036495 -1.931701 0 0
-7.570897 21.718628 13.026490 5 1
16.951843 2.874479 1.846985 3 1
-20.642052 25.502028 8.470239 4 1
-9.442905 11.617941 -11.899273 2 1
5.055122 45.889465 -8.026815 1 1
-1.552455 32.392025 9.543990 5 1
-7.946485 27.097324 15.831118 4 1
3.989327 39.986309 -8.256349 1 1
-1.923933 11.924651 -13.642160 2 1
-19.765905 22.030565 7.874992 4 1
-11.406741 21.912491 -2.505224 6 1
0.966775 37.680428 -5.567424 0 0
-13.771527 18.692167 13.081596 4 1
5.922223 42.404305 -1.916661 7 1
-11.917743 23.049883 18.867891 4 1
0.493375 39.508732 -3.602065 0 0
4.782619 20.818653 2.513991 3 1
-11.043723 22.899090 -6.647289 2 1
12.068663 12.040748 9.780937 3 1
2.975341 44.447731 -5.774947 1 1
-14.133056 16.685001 -0.432679 6 1
1.073233 31.226694 3.219381 5 1
-9.557903 34.815182 14.582508 4 1
-1.221357 23.073013 8.260817 5 1
-13.261226 24.733059 19.757126 4 1
-15.187672 15.570043 12.776655 4 1
-16.136395 20.050171 15.338573 4 1
7.714422 19.562115 5.688043 3 1
-6.178890 24.722353 -1.358626 6 1
9.853252 11.765453 11.227759 3 1
-4.475453 23.977293 7.909002 5 1
-6.171730 36.065678 -1.971288 6 1
-4.001286 19.909767 -7.715891 2 1
-14.328420 15.802177 1.499768 6 1
-12.195339 21.100925 15.777181 4 1
-14.561320 20.338945 -7.346766 2 1
-15.463102 13.694957 14.072969 4 1
-6.127575 29.344910 14.725944 4 1
-18.494616 24.875523 7.149288 4 1
-0.201840 15.975406 -0.363043 0 0
5.105468 18.888878 -10.119676 2 1
-1.389416 15.937132 -11.601523 2 1
-12.042051 30.928909 18.323196 4 1
-12.134154 19.243391 -3.033148 6 1
11.801918 18.345995 -3.547073 3 1
13.132039 11.035852 2.278807 3 1
15.478269 7.395722 11.232772 3 1
13.378620 7.492336 13.885134 3 1
-15.433246 17.653423 -9.720343 2 1
-4.099884 8.864559 -15.893624 2 1
-11.762333 12.787399 0.654876 6 1
12.622420 19.968609 -4.830531 3 1
8.924386 18.171871 -1.672337 3 1
-14.314269 9.714971 -12.893011 2 1
8.385975 15.746761 3.563270 3 1
-2.611540 7.714678 -0.340428 0 0
-10.123062 23.181343 12.155019 5 1
7.337520 21.425377 -1.283378 3 1
10.762458 10.529200 8.109107 3 1
-15.101754 15.398314 16.486330 4 1
-19.656359 28.306538 8.401552 4 1
-14.431337 19.452787 5.546783 5 1
14.478339 5.771485 4.446521 3 1
-12.323601 19.140610 2.861174 6 1
-7.761135 26.734293 -4.367226 6 1
-8.517214 14.219549 -10.051382 2 1
-0.672921 36.864883 -3.230475 0 0
-0.315447 26.660006 10.145088 5 1
13.385520 11.093103 -5.080612 3 1
-17.961258 27.525936 10.947190 4 1
-7.786485 36.178352 0.218051 6 1
-2.393632 15.996350 -9.762484 2 1
1.227905 22.594015 10.822539 5 1
-3.967072 22.279703 12.332613 5 1
15.324206 3.670090 3.953393 3 1
-0.942664 22.868505 0.032598 0 0
-12.831739 21.221294 -6.929235 2 1
-16.713820 28.222025 2.598286 5 1
17.509333 6.074744 5.705341 3 1
-17.296867 22.717588 13.153074 4 1
-1.428174 22.142061 -2.120240 0 0
-0.375146 48.097763 -9.439609 8 1
-3.116146 26.088264 0.240584 6 1
-16.151867 17.999514 5.090963 5 1
1.940378 19.104774 -9.089196 2 1
-19.006996 31.482607 6.439142 4 1
-8.837313 10.298060 -14.812140 2 1
-10.302845 33.617023 16.892040 4 1
-1.175966 22.283741 11.600238 5 1
3.543739 40.652328 -5.627229 1 1
0.091745 42.587593 -4.138689 8 1
8.747905 14.688545 17.250414 3 1
-0.466051 0.533075 0.178462 0 0
-6.398737 18.504581 -5.115931 6 1
-3.228565 27.454796 3.348716 5 1
-3.258325 19.174660 -9.711519 2 1
-9.167727 7.442587 -14.019576 2 1
15.600529 4.679739 -3.511339 3 1
-7.440275 14.637782 -12.488411 2 1
-5.427497 27.065443 12.998686 5 1
-8.975452 18.823790 -8.284541 2 1
-0.665887 33.594109 -3.965657 0 0
-16.289587 22.482248 14.756677 4 1
2.069725 20.362328 11.420856 5 1
2.988833 13.878194 -11.192193 2 1
-7.225168 17.669827 1.255947 6 1
-1.584964 6.337201 -1.672162 0 0
-14.677185 20.804455 2.935196 5 1
-11.152980 34.915108 12.807907 4 1
-3.342487 16.633179 0.621736 0 0
-6.801399 32.953938 -3.066294 6 1
4.238305 15.803354 -10.593241 2 1
15.929497 10.392691 -5.650881 3 1
-4.801093 18.208088 -10.410821 2 1
6.101167 21.265831 8.043476 3 1
0.374845 34.786633 5.944003 5 1
9.296620 16.553972 8.259495 3 1
13.005508 10.249947 12.076029 3 1
-6.174528 7.480321 -15.491018 2 1
-9.961055 37.480007 7.925063 4 1
-7.690580 38.506165 6.067396 5 1
-3.092606 20.843557 9.409107 5 1
-1.011569 29.957708 0.559866 0 0
-10.133860 15.471618 -11.369669 2 1
13.915070 5.514506 -0.501000 3 1
7.372396 19.212622 13.411366 3 1
-0.209939 24.475851 -0.894542 0 0
-11.154956 37.316799 6.392704 4 1
19.590782 3.575726 7.073549 3 1
6.280105 18.531277 3.261240 3 1
-5.044714 17.605745 12.610813 5 1
-8.469369 35.199421 12.821505 4 1
11.903513 9.028936 10.954736 3 1
-3.394550 25.839304 11.763234 5 1
5.403722 22.299843 5.445519 3 1
12.203502 15.524232 -7.134289 3 1
-6.782599 15.969818 -9.641035 2 1
-16.987507 16.164869 13.102541 4 1
0.721609 16.447676 -11.246666 2 1
-18.678198 24.407001 11.050861 4 1
4.475624 23.033152 1.919983 3 1
1.580325 41.490307 -6.148320 1 1
6.734152 20.419559 0.125685 3 1
4.564883 46.253155 -10.531481 1 1
-7.647648 11.317212 -12.833464 2 1
0.786275 29.319927 -2.525527 0 0
-9.662771 20.092279 -5.360151 6 1
-5.122272 28.448288 -6.067530 6 1
-5.861741 34.586300 -3.210709 6 1
-12.991302 35.409424 8.206255 4 1
-0.349122 34.561478 3.339793 5 1
-19.520535 30.261808 4.277636 4 1
10.671613 11.414209 5.120237 3 1
-10.592629 23.119860 3.438574 5 1
2.571739 31.834518 6.619266 5 1
-1.075904 32.651844 1.376636 0 0
-13.035796 17.465328 -10.185783 2 1
-0.464762 9.216026 -0.771966 0 0
-6.151420 25.383835 0.407639 6 1
-10.005378 26.321190 18.533571 4 1
7.294847 19.875221 8.388355 3 1
-3.017125 35.289276 1.462581 6 1
15.854032 7.085135 8.028218 3 1
-14.561493 31.563402 12.845998 4 1
9.307410 21.096359 -3.862156 3 1
-8.624202 23.311508 -4.662242 6 1
-0.127958 13.510233 -10.911864 2 1
3.529720 21.007528 4.396682 3 1
-16.035101 34.539562 6.112795 4 1
0.185215 21.443489 -2.724255 0 0
-12.233525 15.836916 -1.311482 6 1
12.536226 8.862158 5.421082 3 1
9.786848 17.213694 2.440628 3 1
0.945204 36.166809 -2.176967 0 0
-2.881051 18.831966 -2.282076 0 0
-16.715479 22.431065 8.827893 4 1
3.461459 38.278809 -5.672090 0 0
-5.646355 25.426258 -5.492399 6 1
11.751844 13.465281 4.381833 3 1
-8.602816 26.390108 14.121019 4 1
8.583674 16.508644 0.956686 3 1
-20.637686 26.441422 5.506248 4 1
11.148772 13.438249 8.703144 3 1
-1.527188 6.582724 0.543329 0 0
-13.828112 13.682917 4.106559 6 1
14.428491 8.679250 4.339330 3 1
0.041579 10.812798 -17.564022 2 1
-4.988111 36.488609 0.260679 6 1
14.427204 8.427195 -0.027666 3 1
-0.026262 33.196560 7.856271 5 1
7.050178 19.423840 15.797295 3 1
14.730083 1.768183 -3.942902 3 1
4.590832 11.024744 -14.057277 2 1
-8.401907 36.885376 10.310873 4 1
12.167660 10.899136 -0.944666 3 1
-11.883529 28.728477 20.300406 4 1
-1.694324 45.096478 -5.099248 8 1
-12.748869 15.907049 -9.303434 2 1
0.805061 19.823847 0.296237 0 0
-4.684204 30.940214 -4.274595 6 1
-9.493320 21.590252 12.754029 5 1
-0.490940 7.433902 -0.638861 0 0
-2.306784 24.971165 -1.195390 0 0
4.980541 42.158279 -7.788597 1 1
-16.919500 30.230793 10.423114 4 1
-4.024162 20.787550 -3.318552 0 0
-12.859202 21.846680 5.292651 5 1
-0.050090 44.367859 -4.942192 8 1
-13.248365 22.433971 7.340593 5 1
-8.602028 15.565729 -2.328538 6 1
2.825829 30.283575 4.819883 5 1
12.243065 13.938330 -5.840838 3 1
-6.427069 22.571930 9.161574 5 1
-0.063907 17.547579 8.297477 3 1
10.036306 14.765280 0.094054 3 1
-12.704395 12.950061 -11.070575 2 1
-12.565475 23.760544 10.440141 4 1
-4.915040 13.701324 -10.807894 2 1
18.587301 1.495705 5.680141 3 1
1.693444 41.212017 -4.384854 1 1
-4.671909 20.045183 10.371401 5 1
-3.498622 11.802316 -12.797051 2 1
-8.007720 23.427076 8.689207 5 1
14.543473 1.729720 -1.284339 3 1
17.395287 0.813386 4.304505 3 1
-2.688256 26.177357 6.745260 5 1
-3.362856 1.234403 -0.354695 0 0
-9.757508 31.415380 17.726929 4 1
11.177524 14.699239 2.649564 3 1
-2.152225 21.775400 -4.900176 0 0
-10.346007 23.733833 6.087323 5 1
-7.291042 21.048983 -5.727959 6 1
-3.990862 33.722218 10.296018 5 1
-3.953300 25.722937 -4.360476 6 1
-12.329141 9.571131 -12.881878 2 1
16.634108 5.943191 4.055906 3 1
-7.865224 37.848537 7.795785 4 1
-0.764924 20.432289 -9.097094 2 1
13.817778 5.529944 1.287424 3 1
-15.166818 32.836937 10.028913 4 1
-0.832051 26.555471 0.688422 0 0
-7.796837 17.188349 -4.804441 6 1
-12.376732 32.789043 15.057416 4 1
8.526000 17.346325 10.063333 3 1
-18.115551 19.183462 9.169571 4 1
2.947078 25.325668 8.876858 5 1
1.064100 36.131081 -4.787939 0 0
-11.776711 21.592571 -8.257903 2 1
-15.914948 21.179688 7.138629 5 1
15.550531 4.525829 -1.368395 3 1
12.260532 11.689705 -3.032569 3 1
7.543373 17.871195 16.684559 3 1
6.730963 22.608627 0.774408 3 1
-10.579618 16.250292 -9.292094 2 1
-15.672868 25.598375 14.802774 4 1
4.873952 43.800602 -2.024235 7 1
10.422932 17.530540 0.060907 3 1
-17.014109 19.271032 13.699873 4 1
0.244948 12.557788 -15.702127 2 1
1.769240 14.223209 -12.358597 2 1
4.722786 22.762968 10.969652 3 1
9.067126 14.576702 4.646628 3 1
-14.698796 35.877007 5.465503 4 1
-11.764462 14.915102 -10.947748 2 1
5.848251 19.202627 5.724676 3 1
6.954292 45.510693 -10.786417 1 1
-8.962442 20.762077 11.335656 5 1
19.212706 5.331277 8.216149 3 1
-11.316214 35.821030 9.670571 4 1
-7.757941 17.629173 -10.827953 2 1
5.367775 47.527378 -0.866644 7 1
-11.864709 32.957249 1.626895 6 1
-0.901926 33.563347 -0.827553 0 0
12.543942 13.614941 -3.101503 3 1
1.788852 18.936289 7.624754 3 1
0.485756 28.031687 -1.435338 0 0
11.798419 16.167406 -3.713459 3 1
-1.284630 20.703419 -3.861252 0 0
13.563540 7.839456 -1.383651 3 1
1.119619 30.283506 8.419569 5 1
12.926958 8.051501 1.891322 3 1
-1.243563 47.012264 -6.663950 8 1
-10.316490 38.506207 4.814298 4 1
1.004678 20.567160 -9.331646 2 1
-9.371429 12.857559 -10.686994 2 1
-17.805187 21.250908 12.392029 4 1
-10.429604 16.739122 -3.478961 6 1
7.442198 46.076881 -12.411682 1 1
-0.329881 26.361090 -2.466459 0 0
11.217038 11.936823 13.442460 3 1
2.875524 44.606556 -8.659852 1 1
-0.332464 17.648819 -9.285191 2 1
-0.727495 16.889378 11.891978 5 1
-4.179645 18.057533 11.046576 5 1
5.304108 21.182419 10.426229 3 1
-13.253379 19.004910 -1.604553 6 1
12.418461 17.126089 -6.019479 3 1
-0.813176 37.029579 4.442251 5 1
0.085973 29.858107 3.001580 5 1
9.311915 14.125972 10.707634 3 1
-16.124020 23.614965 4.414247 5 1
-5.878267 25.143677 6.906380 5 1
2.898561 27.336143 6.631273 5 1
-6.519161 18.961098 -8.221758 2 1
-19.263447 20.513556 8.478280 4 1
15.294577 6.341891 6.005129 3 1
-1.675832 42.169888 -4.446170 8 1
-7.790093 32.215092 15.238409 4 1
2.481214 41.592224 -2.322194 7 1
-6.460111 26.083052 3.807055 5 1
-13.143655 14.686080 1.923588 6 1
-13.130636 29.803148 0.972291 6 1
-5.337867 37.608158 2.538175 5 1
-1.096045 11.064173 -14.858011 2 1
-10.828092 20.342381 1.320368 6 1
-13.763411 15.980780 15.657344 4 1
4.233693 45.177380 -0.148663 7 1
-2.788502 12.866399 -15.205249 2 1
-0.710811 19.739283 7.227399 3 1
-8.931948 32.905025 -0.591810 6 1
12.287599 9.607177 2.050267 3 1
9.387239 13.970318 6.821443 3 1
-1.417319 10.174006 0.627407 0 0
-3.523264 4.338517 -0.996144 0 0
-7.969816 18.765024 11.877796 5 1
8.198119 18.504923 7.944660 3 1
-5.123720 31.410027 13.731532 5 1
-17.690361 24.207382 12.448396 4 1
11.140264 11.820526 2.083037 3 1
1.263742 39.576527 -5.989618 1 1
15.757913 7.451387 -4.128531 3 1
-7.707948 11.667797 -14.459393 2 1
-11.285960 19.681067 -4.860014 6 1
-1.939096 11.637938 -1.336565 0 0
-9.427333 17.519695 -4.586710 6 1
14.501631 8.030070 2.478414 3 1
6.424008 21.357794 4.367106 3 1
15.997648 5.293015 1.912997 3 1
-15.295960 16.251219 -8.839713 2 1
2.154253 21.367220 5.958729 3 1
-10.951089 22.565186 15.417979 4 1
-10.160893 21.857450 -7.995009 2 1
6.938222 47.927872 -11.639802 1 1
1.073938 31.709723 -3.661377 0 0
-0.387155 44.670383 -7.614744 8 1
2.193887 38.702129 -2.646323 7 1
-13.361989 19.987305 -0.281255 6 1
-8.792743 19.908703 -1.168913 6 1
9.023547 21.499399 -0.976244 3 1
-3.460248 15.712584 11.773729 5 1
5.904232 20.820309 13.032487 3 1
-1.837613 21.623781 -0.609131 0 0
4.701606 41.554852 -1.112339 7 1
5.079443 26.993185 7.273953 5 1
0.845931 24.676523 9.968955 5 1
-13.495058 18.836452 4.059277 5 1
-8.236280 16.828779 0.183121 6 1
-7.717294 17.407759 -9.079788 2 1
-16.368095 15.468181 11.586967 4 1
-7.030765 15.244804 2.907031 6 1
-7.439648 25.408098 -5.286775 6 1
-2.070496 31.463486 -0.098432 6 1
-6.954876 18.802628 -0.565203 6 1
3.617281 28.980778 7.504303 5 1
-7.889615 37.808937 3.420074 5 1
8.685572 18.366138 4.943162 3 1
-18.439213 18.121727 11.250741 4 1
3.951936 45.066208 -7.002450 1 1
0.177806 12.489900 -12.402473 2 1
2.149576 39.903522 -0.733485 7 1
18.017353 6.492359 9.830413 3 1
-6.647422 32.713161 13.840065 4 1
14.679027 9.634017 -4.911666 3 1
1.115202 20.248354 3.057171 3 1
-9.282487 25.787292 17.165462 4 1
-5.446538 19.836096 12.869122 5 1
15.432296 6.211023 -2.959838 3 1
-1.358953 31.165054 -2.574270 0 0
6.008394 13.526345 -12.358098 2 1
-20.739923 19.124393 8.425709 4 1
-9.013860 36.403427 11.763552 4 1
-12.299939 22.346882 12.676601 4 1
-4.035013 31.911636 -2.503753 6 1
10.044401 16.048027 5.540895 3 1
3.801782 23.530283 9.323207 5 1
-1.340303 2.584123 -1.508824 0 0
-11.961345 21.759039 3.936001 5 1
7.058811 17.633013 10.786705 3 1
4.499580 38.718666 -2.078142 7 1
-1.242013 21.400106 -7.551303 2 1
10.801753 21.736732 -3.892287 3 1
12.803311 10.936092 6.415515 3 1
6.903016 20.148821 10.578192 3 1
-10.993361 26.203276 19.990204 4 1
-0.359443 12.528891 -0.908559 0 0
-14.134113 13.756163 -10.579884 2 1
3.642168 19.647686 -9.927506 2 1
-10.782246 9.179248 -13.288331 2 1
-21.952284 24.134718 6.741715 4 1
-18.857689 21.204840 11.039927 4 1
1.183727 31.921041 7.600912 5 1
14.361382 10.725351 -2.212162 3 1
-14.479674 11.081253 -11.510654 2 1
8.173669 23.366728 -3.491147 3 1
15.656358 -1.185205 -0.384870 3 1
14.760726 1.705651 0.459274 3 1
2.261921 37.951744 -4.379724 0 0
-14.087417 22.968111 10.368896 4 1
-7.623495 20.908665 -2.932916 6 1
4.248067 17.376690 -10.950303 2 1
12.517535 9.086063 7.045753 3 1
7.866982 16.604239 7.020462 3 1
-15.945481 24.249615 6.705332 5 1
-14.808017 23.416748 17.181767 4 1
-10.765715 24.283482 13.138035 4 1
-5.479019 12.812232 -14.052177 2 1
-4.535438 23.838884 12.295877 5 1
-13.300226 19.191111 16.552094 4 1
-16.885420 14.603937 -9.849020 2 1
0.282896 1.458233 -1.294068 0 0
3.676833 21.620869 1.669210 3 1
-6.454679 21.227381 10.039322 5 1
-16.713394 17.645004 10.395185 4 1
12.605370 11.896317 3.626907 3 1
-11.752489 22.453505 10.890084 5 1
-2.662251 10.006124 -16.852968 2 1
-14.614145 17.235750 12.619661 4 1
-3.194118 20.580179 -6.061638 2 1
-11.845653 14.418830 -0.546415 6 1
-14.859669 30.898510 2.402225 5 1
-1.667007 42.546623 -7.095629 8 1
-1.601737 16.690308 -1.531777 0 0
0.221520 18.200731 -1.363860 0 0
-5.205311 28.466888 13.734243 5 1
-5.555181 37.160309 5.620950 5 1
-15.417377 18.529600 11.140257 4 1
5.903682 15.398396 -11.520941 2 1
8.039292 16.581150 15.798053 3 1
-7.307874 28.543667 15.633078 4 1
-3.946658 22.766163 -6.714993 2 1
-14.271701 26.494928 1.058589 6 1
11.543548 22.175812 -5.778891 3 1
11.392299 14.644289 1.023233 3 1
-15.955595 15.827260 1.965921 6 1
-14.786931 26.213831 16.115894 4 1
-15.440578 20.497593 10.290262 4 1
4.468283 40.887791 -6.987822 1 1
17.738632 4.891638 4.492334 3 1
-12.302033 29.471043 18.887451 4 1
7.177359 45.707191 -2.071077 7 1
11.256396 17.056965 -4.922029 3 1
-9.833319 18.019344 0.803003 6 1
-13.249352 33.941795 10.967010 4 1
-0.559265 34.824944 -2.960860 0 0
15.825957 7.350786 9.634587 3 1
-15.796065 28.232277 13.737075 4 1
2.198023 37.398014 -0.980603 7 1
-4.948637 16.510490 -9.493372 2 1
-13.232367 18.959389 -9.268262 2 1
0.049813 14.716172 -1.306834 0 0
-15.522954 17.926989 0.633268 6 1
-0.372444 3.979073 -0.033289 0 0
-5.715900 19.653828 -1.784763 6 1
9.706947 11.750581 16.277775 3 1
-6.074410 16.616468 1.651261 6 1
1.757370 41.578224 -0.921394 7 1
10.518701 14.959551 -1.759564 3 1
11.559893 10.023034 4.789834 3 1
7.716185 16.744808 4.682571 3 1
-9.416081 31.138624 -1.415011 6 1
-9.928532 17.702158 -8.840907 2 1
-3.242029 14.579107 0.716151 0 0
6.670307 18.351273 8.902719 3 1
-18.349876 32.858177 6.042140 4 1
-10.138219 22.564457 1.955780 6 1
-4.384405 32.803944 11.568776 5 1
-5.114864 21.285303 -4.433212 0 0
-10.607171 13.937341 -11.356893 2 1
-14.219469 15.402155 14.012263 4 1
-4.397902 18.514425 -8.486970 2 1
-12.236788 21.982470 -1.124011 6 1
-8.719826 14.732256 4.838847 6 1
-0.990752 18.882822 5.859439 3 1
-10.399409 35.293167 2.063168 6 1
-1.282501 20.073217 1.104125 0 0
-6.444061 35.334835 10.045026 5 1
-9.306877 33.663914 15.612382 4 1
-16.967640 25.439734 13.181718 4 1
13.946733 8.951799 -3.200080 3 1
-17.847412 30.402519 8.932701 4 1
-12.816197 26.267962 19.722345 4 1
5.253148 23.774731 8.125998 3 1
16.305216 0.308876 0.684636 3 1
-1.113506 40.091259 -6.799316 8 1
10.913590 16.017462 -0.228623 3 1
4.069669 46.504326 -9.072419 1 1
-20.878981 23.948891 8.398208 4 1
-0.545528 23.311388 -2.656809 0 0
-14.949215 18.763811 -7.758588 2 1
13.615611 12.047088 -3.708759 3 1
-5.503427 26.192129 -6.838697 6 1
-12.380198 21.758045 18.136475 4 1
18.925579 5.529300 6.610627 3 1
2.536929 17.466206 -10.786437 2 1
-15.437469 23.434263 9.242494 4 1
-9.344483 20.919273 -6.795924 2 1
10.413343 15.909119 3.247665 3 1
-0.005794 21.616295 8.286780 5 1
-7.562164 20.101734 -8.691136 2 1
-0.646142 32.048012 -3.695644 0 0
-17.442806 26.115162 5.000636 5 1
-10.186181 19.741154 -7.665564 2 1
-10.060282 14.010642 0.147972 6 1
0.846277 34.816357 -3.934883 0 0
-6.004630 36.180092 7.869298 5 1
-11.831023 24.598516 20.323174 4 1
-1.946992 27.602526 -2.637813 0 0
1.252930 28.533697 5.525756 5 1
-1.321505 33.669800 8.563369 5 1
-12.997227 24.334631 -0.355983 6 1
-8.545729 8.830569 -13.731225 2 1
2.872370 22.242670 -0.664425 0 0
-15.520909 21.131432 4.182228 5 1
-4.346740 26.889620 5.304307 5 1
2.187991 12.279029 -13.126340 2 1
2.867047 42.641056 -0.533223 7 1
-1.495448 15.057325 0.950744 0 0
2.568773 33.292007 5.774989 5 1
6.719862 46.986477 -10.432034 1 1
-2.607286 28.568708 11.791533 5 1
-1.586390 40.119278 -4.037337 8 1
-10.059888 14.337729 -1.833184 6 1
8.680278 15.385545 7.481322 3 1
-5.818534 20.776211 -8.319049 2 1
4.139698 23.068466 4.371287 3 1
4.103721 29.472818 5.935929 5 1
-5.537120 22.887871 -7.079590 2 1
-2.803032 17.553175 1.723789 0 0
-6.767257 38.303974 4.759680 5 1
8.269817 15.863835 9.197746 3 1
-8.755545 25.046177 12.393725 5 1
1.965220 23.891415 7.856324 5 1
-0.973629 10.356479 -16.521318 2 1
-11.501846 31.008627 0.298818 6 1
1.820305 21.949932 0.898620 0 0
15.062958 8.696176 6.866839 3 1
7.220163 23.191896 -2.181964 3 1
-9.784067 28.360298 -2.139992 6 1
-4.428217 7.620595 -14.996316 2 1
-12.972335 15.840692 -10.808103 2 1
-13.318339 22.113609 -8.068877 2 1
-1.156093 19.574543 -2.827488 0 0
-1.520962 9.691981 -1.771802 0 0
-10.378813 29.229321 19.591034 4 1
5.473661 20.183622 7.129534 3 1
4.534806 22.906103 0.352162 3 1
-0.923093 20.321764 11.920077 5 1
-18.812004 25.903082 10.766728 4 1
-6.495133 23.891884 -4.375311 6 1
-16.070812 33.775066 4.150973 4 1
-8.489636 12.996859 -12.880306 2 1
-6.445892 18.283560 -10.334058 2 1
-5.545779 10.416000 -16.388531 2 1
-13.990896 8.305738 -13.408449 2 1
16.195583 4.005822 1.140109 3 1
18.707256 3.010468 5.981443 3 1
0.325692 19.472240 11.827053 5 1
-2.067348 17.665455 9.187985 5 1
-10.754829 11.684769 -12.713863 2 1
7.349039 18.274460 1.312237 3 1
-14.095198 22.868233 8.839210 5 1
-7.503269 16.454699 -2.864181 6 1
-7.800040 22.401196 -2.775935 6 1
-5.035076 16.049934 -11.788301 2 1
-11.662549 33.099659 16.350803 4 1
1.306523 32.518646 -2.380566 0 0
15.690329 4.648940 -5.187156 3 1
17.770260 3.221677 3.199021 3 1
-4.520724 9.967532 -14.803703 2 1
-5.931870 37.392540 1.011232 6 1
-10.485752 31.236889 19.033104 4 1
-11.607989 27.382103 20.916256 4 1
-14.775217 8.435940 -11.832137 2 1
15.684401 8.538260 8.383430 3 1
-3.014005 30.916197 -1.725308 6 1
-8.175406 22.892984 -6.345607 6 1
-2.562775 27.058361 11.431412 5 1
9.696513 16.931068 -2.067652 3 1
-14.333720 27.997625 1.256250 6 1
-4.266468 20.829962 12.592547 5 1
-14.392931 28.395996 15.529355 4 1
-13.566657 9.904247 -11.315475 2 1
-7.548978 10.016630 -15.560846 2 1
7.371428 17.500263 13.384151 3 1
12.367735 14.392315 -4.398942 3 1
-16.661959 13.066957 -9.943353 2 1
13.803395 9.415115 3.027051 3 1
9.311008 15.217706 1.507162 3 1
-11.569030 13.814231 2.749351 6 1
-9.377506 22.198620 10.434106 5 1
-0.267115 33.401123 2.397763 0 0
-4.478486 18.157835 -0.404976 0 0
-8.638487 39.017685 7.275773 4 1
-2.468493 18.649969 12.307552 5 1
14.725976 3.436766 -3.496128 3 1
15.189106 -0.526792 -1.641707 3 1
16.293047 -0.151170 2.407358 3 1
-9.611814 28.149477 18.611280 4 1
-15.260248 12.777564 -10.598627 2 1
-0.288144 17.435982 -10.759646 2 1
-12.589485 35.012711 9.628978 4 1
3.937711 39.946880 -1.161459 7 1
-0.070135 13.725595 -13.243675 2 1
-16.594578 26.298519 2.917375 5 1
2.602890 20.785229 3.252965 3 1
-9.695374 14.967991 -3.159780 6 1
-6.652856 8.911200 -14.886777 2 1
-7.067280 20.320599 13.100039 5 1
-15.699649 15.474737 -10.087355 2 1
12.702845 12.266152 1.494371 3 1
-19.197317 27.290188 4.090987 4 1
-14.191039 14.891465 -9.468144 2 1
-6.219676 12.939639 -11.130884 2 1
-0.566424 28.848358 10.134428 5 1
-4.153491 14.414433 -12.881053 2 1
-1.911892 31.418533 10.715460 5 1
16.433006 6.990486 12.341907 3 1
-19.566351 25.633493 6.304185 4 1
-13.789421 16.404484 3.796497 6 1
9.728383 10.490074 11.974058 3 1
0.624968 33.831928 -1.021862 0 0
-14.903845 20.899485 -8.675437 2 1
2.361908 36.745125 -3.070746 0 0
-9.459612 24.976633 14.294478 4 1
10.204388 10.909176 14.211212 3 1
-4.697162 21.120483 -6.325974 2 1
-13.311550 18.048965 14.841132 4 1
4.538178 45.339493 -1.704715 7 1
-8.789873 28.872364 17.376768 4 1
-2.498682 37.328224 4.459033 5 1
17.156960 7.356925 7.345447 3 1
9.349557 15.459198 11.342403 3 1
-5.044949 9.180295 -17.162050 2 1
-6.188409 11.536284 -12.617208 2 1
-10.000469 36.523720 2.778657 6 1
-6.847395 15.910017 -12.036202 2 1
1.975274 33.048527 4.387288 5 1
1.394343 11.299840 -17.179447 2 1
2.499905 44.040756 -0.824006 7 1
-5.774820 31.837027 -4.693743 6 1
-15.637474 16.169308 3.913973 5 1
-10.453495 35.866280 11.929563 4 1
-12.208834 11.540710 -10.977914 2 1
-13.533243 32.614315 12.813502 4 1
10.629726 19.406176 -4.681140 3 1
-11.290061 25.987562 -1.735665 6 1
-2.814579 19.229124 -8.276898 2 1
-12.228135 36.366802 4.249219 4 1
-2.195101 19.745144 9.030456 5 1
-5.510659 34.801674 -1.627700 6 1
9.910274 11.092414 9.860079 3 1
-9.993530 37.353939 9.386128 4 1
-15.045845 20.069700 6.733830 5 1
-0.324606 30.613190 -0.701980 0 0
10.321337 13.090321 2.292258 3 1
-16.873470 17.637602 -9.291871 2 1
-8.315159 21.981251 -7.812818 2 1
-5.161446 25.242332 -2.321190 6 1
12.085064 19.907194 -6.191213 3 1
-11.157524 17.978403 -10.010902 2 1
-4.760054 17.287804 0.790742 6 1
13.741096 6.517082 -1.991514 3 1
-12.051158 28.061060 -0.272604 6 1
-15.639332 23.360571 15.759730 4 1
-2.154411 29.939022 -2.593334 6 1
-4.974977 22.836845 8.673690 5 1
-21.434574 25.691341 7.258508 4 1
-8.839405 39.173351 5.387649 4 1
-15.703084 17.327782 6.306425 5 1
17.623707 4.640372 5.944592 3 1
11.210540 12.853867 -0.496708 3 1
-19.583620 17.956694 9.648668 4 1
-6.487811 38.232548 3.275454 5 1
-19.834579 25.562460 9.694749 4 1
-12.950081 21.359476 -0.016460 6 1
-8.084341 37.187595 1.229455 6 1
-14.936431 19.646379 18.319401 4 1
-15.458094 20.586287 16.666298 4 1
-15.249684 17.851414 17.573853 4 1
-7.181514 35.395256 -0.845763 6 1
1.620204 42.935349 -6.324439 1 1
-3.995470 37.398094 4.507026 5 1
-1.395120 18.057425 1.050367 0 0
10.768943 14.749509 5.950829 3 1
-20.002871 30.293760 6.184082 4 1
-0.435343 12.191943 -14.035646 2 1
-1.181618 46.878750 -9.373440 8 1
-9.636139 22.071024 -4.308777 6 1
10.062468 22.203251 -5.634526 3 1
-3.750585 33.616409 -0.742188 6 1
5.167549 44.968697 -10.827662 1 1
5.319201 44.366394 -0.766476 7 1
-6.851370 29.970045 -4.584319 6 1
10.987782 9.818012 9.387000 3 1
-15.965687 18.595766 15.785689 4 1
15.321821 2.298722 2.647814 3 1
4.382697 11.721910 -12.805112 2 1
-19.243519 23.035084 10.413135 4 1
-9.900099 14.970305 5.855495 6 1
-11.517640 13.590296 -10.137946 2 1
16.072512 7.152316 5.032581 3 1
0.457883 21.854269 -0.260990 0 0
-10.821444 24.794321 11.784780 4 1
16.786913 1.530769 1.339297 3 1
18.727520 6.687217 8.413139 3 1
16.513741 6.151448 6.866233 3 1
13.617875 7.140204 4.151009 3 1
-16.220495 8.977393 -12.096073 2 1
-0.576637 11.739586 -16.613600 2 1
7.668193 22.487160 -0.365869 3 1
-16.277885 24.703062 5.377904 5 1
0.250323 17.945694 11.820797 5 1
-2.050368 17.622660 -9.182964 2 1
-1.658613 28.214699 4.675685 5 1
-11.613962 20.208626 -8.621537 2 1
1.328730 27.590736 9.065605 5 1
-21.445868 28.942011 5.511506 4 1
-12.111916 20.554955 3.024535 6 1
-7.135097 24.502211 12.603073 5 1
-0.815633 46.043007 -7.664235 8 1
-12.234309 14.112346 0.955004 6 1
16.508507 8.181043 10.588641 3 1
-3.885815 38.002228 2.462066 5 1
-1.575170 25.398457 7.213063 5 1
-11.642267 20.592417 -3.081441 6 1
-8.733497 30.956034 16.773523 4 1
7.049648 17.765335 6.442400 3 1
-3.181784 17.984077 -10.566714 2 1
-3.559790 10.414884 -15.789335 2 1
6.331069 18.881413 10.195887 3 1
-5.825938 9.812373 -13.618656 2 1
-16.377102 21.167538 9.439648 4 1
10.826003 19.973269 -1.949004 3 1
9.552282 22.430105 -3.314388 3 1
14.256413 4.213455 0.826054 3 1
6.343490 21.759687 -0.308295 3 1
3.257920 11.546476 -15.784594 2 1
-17.327158 24.384272 7.807266 4 1
-10.728369 36.820160 4.180055 5 1
1.779520 15.924070 -10.222438 2 1
2.053056 18.696419 10.075890 3 1
0.868537 20.966101 -1.559274 0 0
-0.424184 25.203995 10.476308 5 1
-3.592741 29.093163 12.687065 5 1
13.997097 7.756413 12.620116 3 1
-13.172407 15.022859 3.985663 6 1
9.665608 13.487882 3.947273 3 1
-10.408184 15.567343 1.827682 6 1
8.366093 21.296928 -2.651907 3 1
0.303569 19.910173 6.066642 3 1
3.925693 43.710667 -6.562339 1 1
-1.594241 24.114725 11.233863 5 1
0.366645 40.912628 -3.789367 8 1
11.961964 14.344855 -2.029758 3 1
3.621614 25.387096 7.427442 5 1
-10.557203 7.830004 -13.663286 2 1
-19.580729 23.411394 7.476953 4 1
-5.534945 18.148401 -3.054368 0 0
12.121575 12.338019 6.596047 3 1
-16.763493 32.648701 8.100187 4 1
-9.668425 24.122650 3.837347 5 1
-12.547272 20.719418 14.417845 4 1
-0.072730 38.381840 -2.962811 0 0
-0.387746 10.594805 -0.305877 0 0
-14.412992 21.352924 10.746007 4 1
10.447867 14.373137 9.543586 3 1
-20.385798 22.734327 8.983047 4 1
-7.060522 7.938576 -16.489529 2 1
4.149401 21.014208 7.374102 3 1
-0.586807 29.387589 1.798024 5 1
-2.543990 22.342064 11.936843 5 1
3.827318 41.322941 -8.673730 1 1
9.513087 16.592606 6.775131 3 1
-7.132077 30.146849 15.441496 4 1
2.512926 45.146839 -7.099558 1 1
8.896816 14.458230 15.803167 3 1
-3.746759 27.796518 -5.018863 6 1
14.472360 3.790512 -2.037080 3 1
-13.752899 17.684181 -1.347067 6 1
-9.727725 24.224115 15.744422 4 1
2.729906 42.713638 -7.951426 1 1
-20.241268 31.496214 5.468405 4 1
-16.171286 19.255383 -8.826521 2 1
-7.918186 31.110794 -2.907746 6 1
13.535261 8.203553 6.644699 3 1
-5.884517 28.822351 -4.941739 6 1
0.773600 31.522957 -0.606760 0 0
-13.138629 30.458431 16.442673 4 1
0.576339 16.918423 9.378107 3 1
15.101636 8.297056 5.510155 3 1
-10.194660 19.345789 0.525269 6 1
-2.379255 16.826880 -11.159540 2 1
19.720055 2.678570 5.070148 3 1
11.022779 9.375140 12.018935 3 1
-0.718265 39.777878 -2.950945 8 1
-7.977072 25.304085 5.083324 5 1
-8.344890 28.500198 -3.420143 6 1
0.069520 30.139885 9.333754 5 1
1.491512 18.466230 -10.276550 2 1
-11.042594 23.771614 18.049463 4 1
7.628407 19.906218 -0.819432 3 1
7.243235 19.952843 6.992821 3 1
2.420450 26.803114 8.678838 5 1
14.772375 11.276798 -5.152563 3 1
0.662552 20.805586 1.855294 0 0
5.598979 19.744488 2.872664 3 1
-21.364275 27.768383 6.260351 4 1
-7.018425 19.725105 -5.384973 6 1
-12.521150 35.154858 3.577199 5 1
-13.455317 20.382830 18.861198 4 1
15.873569 6.260376 2.908380 3 1
0.246328 27.673443 -0.063419 0 0
