-13.114255 206.359120 74.270462 9 1
-36.821259 210.947280 22.156200 32 1
13.487226 161.925540 90.024200 1 1
14.564792 169.235170 82.638657 1 1
-39.860497 121.910290 -46.196762 36 1
-7.892840 100.619640 5.869664 0 0
19.764256 215.372380 26.064713 4 1
-113.473620 208.945280 34.706654 38 1
-26.634800 238.938340 15.564705 32 1
-57.120949 232.130100 9.343656 29 1
-20.341372 205.363310 77.200592 9 1
-40.252949 111.337920 64.545616 13 1
-6.053723 200.986660 48.979965 26 1
-57.008160 94.592812 -8.598909 10 1
-85.195786 214.031300 13.324965 28 1
43.296139 159.164810 51.682640 14 1
-5.658872 74.501038 1.108095 0 0
-2.131347 105.304140 35.905815 25 1
18.854038 121.460310 34.571632 21 1
-45.439133 105.586640 70.939606 13 1
-77.445129 95.996666 48.260250 16 1
27.437960 187.329540 93.565353 8 1
-15.913600 212.265760 67.549881 9 1
-41.818970 247.281400 24.378054 29 1
-51.335136 233.766240 25.360863 32 1
-129.048220 179.748170 16.244564 38 1
-15.707389 202.328260 82.284431 9 1
-0.119611 87.785683 9.046418 0 0
-48.322369 110.052760 50.706009 16 1
-55.451828 139.466030 33.296280 17 1
-119.737010 206.590760 26.050900 38 1
-65.938225 213.866760 8.364056 29 1
-68.304390 107.391620 44.189617 16 1
-35.881462 202.368700 11.017383 30 1
3.076776 125.659800 -16.650892 0 0
24.533535 85.224586 36.345127 12 1
-6.873222 105.998410 40.352421 25 1
49.833572 156.255970 47.607388 14 1
-67.402435 189.024020 76.596397 31 1
21.589710 119.982880 -0.119222 22 1
-3.863324 210.827840 73.376793 9 1
-2.095272 155.279010 78.871124 15 1
-20.921764 130.929000 -7.852732 0 0
18.242628 123.231030 29.688271 21 1
5.709940 169.781910 61.197361 15 1
-48.512909 217.440580 16.654358 32 1
-4.074971 168.739990 72.476646 26 1
-39.869595 110.208990 59.467491 13 1
-31.213848 109.774930 36.167194 25 1
-17.179462 132.516980 12.988864 0 0
-124.192950 186.949310 29.595350 38 1
-2.512291 107.696280 15.592980 0 0
-3.294927 247.856770 6.313063 19 1
33.876999 155.802700 5.469145 2 1
-26.136532 148.770430 17.657675 0 0
0.760333 208.865480 27.554125 19 1
-43.216846 226.696090 1.535671 32 1
-56.058056 143.324100 21.931503 17 1
-7.508658 216.977110 54.996017 9 1
26.777277 161.128370 -10.324892 2 1
-67.228096 195.393710 15.762186 30 1
-33.817745 112.254280 59.395271 13 1
-35.070938 96.256386 -25.772650 18 1
-39.467743 213.462370 14.591182 30 1
-53.772560 139.590320 26.593805 17 1
-112.723610 205.648640 30.616051 38 1
43.395821 160.645450 45.101795 14 1
-46.176815 107.301350 41.536316 25 1
1.226206 171.500200 58.218891 15 1
-25.788147 92.251556 -14.127569 0 0
28.203167 209.835170 33.634781 4 1
-37.586464 92.175201 12.591234 11 1
-0.222896 43.090965 0.776917 0 0
-4.925352 26.672850 0.670463 0 0
-22.567474 85.424965 -5.714436 0 0
-40.405128 124.298820 -38.220852 36 1
-48.762794 204.593400 27.801836 31 1
-89.736282 198.268140 52.201374 27 1
10.357916 125.140500 27.307577 21 1
40.012535 152.078580 -6.139584 2 1
-8.353203 91.420425 3.628803 0 0
-74.752792 196.539410 53.682693 27 1
-21.460207 109.836140 49.575237 25 1
35.410698 125.327190 18.746719 7 1
-59.977982 233.873210 16.238503 29 1
36.757458 154.688000 -5.295955 2 1
-54.175968 210.651030 51.132416 31 1
-85.116844 192.813720 -4.214402 28 1
-56.005474 111.825060 53.148743 16 1
-86.796547 205.929580 -2.575892 28 1
3.159538 213.580150 50.970497 9 1
-74.991020 199.788160 50.770039 27 1
-40.593498 104.927790 70.000732 13 1
-87.472137 211.475750 19.811064 28 1
27.877289 181.739550 93.427101 8 1
-12.971175 130.013050 -22.783213 20 1
-49.070580 90.989128 76.537621 13 1
-92.563446 192.833830 49.386490 27 1
-13.266177 102.051510 8.766851 0 0
11.937637 126.208960 19.555624 21 1
22.139355 166.680820 -43.896927 40 1
-19.823833 105.453000 18.401937 33 1
2.462483 138.151230 36.271847 0 0
-85.947922 203.342740 51.128033 27 1
-50.964737 206.671620 42.548134 31 1
8.066228 216.174800 53.369644 9 1
-62.322311 223.224560 9.061718 29 1
-13.262619 190.469510 61.405128 26 1
-94.718292 214.720000 20.488747 28 1
-67.952774 211.319890 4.724499 29 1
-51.847019 101.440280 44.448830 25 1
-27.395401 237.893040 7.893397 32 1
-124.800720 180.994290 28.589045 38 1
-29.432333 245.004350 -2.937767 32 1
-7.340842 65.139511 8.283071 0 0
-82.593040 192.846790 -8.082076 28 1
40.276554 182.336400 20.316084 4 1
-86.465332 135.055150 28.048058 37 1
16.643860 118.798970 38.336796 21 1
51.074947 113.001120 19.054676 7 1
18.961697 164.318850 -31.327364 40 1
-54.297112 235.992610 10.901326 29 1
-35.213238 196.192280 30.177145 0 0
-93.483833 172.164290 -11.973445 28 1
-21.420429 111.296050 34.723984 25 1
-20.651056 215.688320 66.974442 9 1
17.697176 169.835480 69.490425 1 1
-76.499191 212.949910 16.024046 28 1
-47.855598 92.415886 9.528152 11 1
-21.783163 213.208540 8.648354 0 0
26.751389 205.756680 33.213154 4 1
7.604930 164.752780 -21.833513 2 1
-23.298632 114.358630 45.763428 25 1
23.506969 81.025307 43.145309 12 1
-10.455532 103.988790 23.153084 33 1
-76.578911 221.006390 25.743603 29 1
-90.734993 176.918500 -16.962055 28 1
14.115328 161.054440 -19.849024 2 1
10.940590 79.789619 33.293095 34 1
-80.878960 136.885700 23.937056 37 1
-91.232765 195.524920 -7.645350 28 1
-9.923155 236.346830 26.450243 19 1
-94.247910 185.203830 57.700871 27 1
-125.774460 183.719880 31.628250 38 1
17.386726 119.524540 0.343995 22 1
-61.820034 194.134950 -1.084871 30 1
-0.833349 216.446880 24.565878 19 1
-75.247498 194.493580 59.733341 27 1
-16.672140 109.749870 37.245220 25 1
-45.850769 251.319470 5.376334 29 1
-44.110775 92.136040 -2.640064 11 1
33.083267 78.291420 20.874416 23 1
33.622993 149.440520 4.476467 2 1
-23.483990 211.328050 70.617081 9 1
-13.580594 157.160460 67.186646 15 1
-50.955177 122.693860 -43.353214 36 1
-51.751694 118.668530 -49.952290 36 1
-83.471680 208.853060 45.689980 27 1
-9.914596 171.646180 28.235851 0 0
-49.266232 128.143620 41.285854 17 1
-4.544910 97.988701 -6.181274 0 0
57.994469 142.820970 40.698048 14 1
-11.431219 142.768690 75.278816 15 1
-7.304015 105.657340 10.827784 0 0
-83.991409 178.194900 64.759941 27 1
-2.542046 78.764824 11.683763 0 0
-12.590022 206.745290 80.501472 9 1
-7.867720 126.725360 -24.276171 20 1
-20.172913 126.740750 8.341519 0 0
-57.449448 215.473430 42.724075 31 1
-46.930065 123.704940 47.235149 17 1
-70.233742 194.524320 8.183431 30 1
-57.572323 206.240140 3.696991 30 1
-24.738617 92.104073 -2.599643 0 0
-28.086487 122.235780 -7.204289 0 0
-62.803921 234.370420 23.287596 29 1
0.652007 207.941570 21.847296 19 1
-37.241344 109.088000 66.214691 13 1
-46.263851 128.169510 44.429859 17 1
37.641735 178.799590 87.610435 8 1
-54.853291 221.602720 22.413073 32 1
-29.164824 96.934868 35.092312 0 0
8.103231 219.701130 67.350075 8 1
-80.249290 139.364270 6.433486 39 1
33.969296 204.938140 81.842583 8 1
-72.078506 182.318100 67.301460 27 1
16.548340 170.462400 63.137711 15 1
45.333290 117.529810 20.218649 7 1
-55.229969 228.114490 25.769466 32 1
-48.050114 213.753450 50.018959 31 1
-90.508057 195.907010 2.394115 28 1
7.751008 221.968690 43.368168 4 1
-61.067997 202.431350 18.826500 30 1
32.181561 149.430390 103.173350 1 1
-24.540295 192.446460 79.201767 9 1
-31.711966 98.172424 -7.738173 18 1
-14.905414 162.594450 -27.655054 3 1
-71.096664 213.415180 11.021116 29 1
-31.618353 257.748290 16.689262 29 1
-60.706448 209.296300 19.619944 30 1
22.906425 214.329250 46.054192 4 1
-38.196224 98.498253 -18.401899 18 1
-25.068481 136.736910 0.545895 35 1
-11.535239 131.310960 -18.707603 20 1
-6.760955 206.475630 26.736208 19 1
-6.309443 157.802490 -46.380249 3 1
-19.945490 138.924770 -14.800804 20 1
-58.544567 208.461200 41.450157 31 1
-6.297295 218.058090 22.551107 19 1
26.559496 149.226360 -73.720955 40 1
-18.064445 214.804470 10.713478 0 0
-30.276674 230.931750 6.043754 32 1
-17.573368 225.496570 7.755369 0 0
-25.526203 118.573620 -35.760479 5 1
32.186440 178.250870 89.559013 8 1
-5.173534 192.851900 51.540298 26 1
-7.917086 153.905460 75.874977 15 1
-60.402725 140.802230 27.099649 17 1
33.509167 195.117840 19.539080 4 1
-25.852200 200.289460 48.910549 26 1
-89.512550 184.293140 -15.409735 28 1
-80.198669 204.934980 20.200285 28 1
13.891429 122.244780 5.189297 22 1
-15.018366 108.961780 23.455809 33 1
14.309672 112.758150 13.897617 0 0
-29.071529 128.805280 -3.064743 0 0
-92.137772 211.188640 31.164167 27 1
21.097511 203.700240 87.179192 8 1
-17.961775 250.942630 13.866848 19 1
19.090837 160.670360 -22.034369 2 1
-4.680208 187.005040 62.444153 26 1
-3.913883 192.828780 56.414833 26 1
-16.275404 200.682420 56.954514 26 1
10.640086 164.053790 -32.760818 3 1
-62.245399 199.746990 70.108353 31 1
-33.760323 210.861340 11.225767 30 1
-35.659554 204.101120 38.305992 26 1
-81.256752 196.057500 48.673695 27 1
-44.728527 110.935680 61.549202 13 1
-129.105330 172.579250 18.361057 38 1
-51.542683 215.116290 19.855671 32 1
42.102440 152.915410 -10.698772 2 1
-29.382767 204.541140 39.842319 26 1
0.904371 129.801570 30.388853 0 0
27.677580 208.568250 27.403585 4 1
-28.567654 244.389890 13.772396 32 1
-12.406637 244.467010 21.781353 19 1
-46.769421 119.589030 -49.101215 36 1
-23.690639 197.006640 10.852513 0 0
-1.414150 171.944180 67.424164 26 1
3.171659 78.796066 17.302265 0 0
-25.039068 207.069670 72.173950 9 1
0.925983 58.488613 13.018843 0 0
-34.862717 230.875980 0.332330 32 1
1.503740 84.720299 20.962440 0 0
-24.944223 190.005230 13.962143 0 0
-9.448088 167.062230 62.208851 15 1
-6.219918 55.473843 4.181368 0 0
5.575830 163.973500 -37.247059 3 1
-118.170300 198.587420 29.856178 38 1
-26.441748 177.157260 12.451827 0 0
19.642979 83.244522 30.195501 0 0
-19.497787 99.600037 17.621418 33 1
17.154671 214.882290 32.940376 4 1
-82.370750 125.695080 -15.978970 39 1
-59.206032 212.585920 36.755791 31 1
-39.418125 226.116210 5.056349 32 1
-7.075346 163.634310 68.204422 15 1
1.513506 241.948840 12.251866 19 1
-82.460564 137.884350 27.532366 37 1
-128.906390 178.189850 23.221663 38 1
-67.467789 193.818470 3.569717 30 1
-88.647102 208.283480 0.921941 28 1
1.343154 94.412468 20.819721 0 0
36.952076 168.600160 53.115513 14 1
-23.160379 88.128799 -1.946179 0 0
-36.427567 102.689460 70.300995 13 1
-44.628307 116.029920 -57.683704 36 1
-27.504263 128.091870 -7.661515 0 0
-39.887550 246.853620 13.879183 29 1
-61.552513 221.789490 5.394264 29 1
-74.737007 208.266680 38.504791 27 1
-89.178162 213.889570 12.860291 28 1
-8.447836 214.821580 70.079018 9 1
-22.116859 87.012428 -9.370964 0 0
-115.504910 211.496400 23.529697 38 1
-17.800810 191.085460 86.362465 9 1
-85.526237 186.014590 -12.067809 28 1
15.716448 218.020020 44.894810 4 1
-37.387009 108.861530 36.059483 25 1
9.034766 98.194313 11.841928 0 0
-69.447586 182.720760 1.188995 30 1
42.371849 140.302430 6.604162 2 1
12.151043 217.904750 37.954475 4 1
-123.764170 202.049410 17.389935 38 1
-33.904114 203.751950 6.380381 30 1
-40.149906 205.179140 42.855427 31 1
10.450027 167.840180 71.468674 15 1
-63.896976 194.262120 73.656128 31 1
-56.562168 202.581970 14.961449 30 1
33.573219 164.971360 60.947533 14 1
-79.634254 178.972890 62.421333 27 1
-15.052994 205.808790 38.351357 26 1
-70.373543 188.133540 65.441757 27 1
-34.194740 229.269760 4.635824 32 1
-3.738279 79.530609 2.508795 0 0
-63.760887 145.600660 12.231573 17 1
-16.581209 139.249680 79.177750 15 1
-6.691031 180.593260 31.958534 0 0
-78.853477 210.255340 11.812679 28 1
-55.373039 208.023250 6.648599 30 1
-36.008461 168.288770 11.108060 0 0
-9.268733 214.625700 27.939241 19 1
19.769197 163.606030 -14.396431 2 1
-62.364182 90.879807 0.122591 10 1
-8.592114 58.080723 2.215722 0 0
-90.320702 204.983860 47.759609 27 1
-7.716677 213.106080 75.903557 9 1
-25.273556 261.805570 13.126374 29 1
-77.258102 215.733470 35.827171 27 1
-71.456673 98.608818 52.841969 16 1
-69.056252 81.640808 -12.263780 10 1
-66.223969 223.478580 15.611490 29 1
-4.852145 74.181839 7.489419 0 0
-39.609821 94.765663 4.260918 11 1
-35.677208 257.823490 19.900150 29 1
-26.184196 102.467500 -4.979435 0 0
-45.960579 98.940971 -20.231100 18 1
-50.656918 226.590940 4.665648 29 1
-2.791053 65.965363 1.566255 0 0
-104.402840 212.073410 27.099346 38 1
-86.961174 126.091710 -14.230372 39 1
-43.622883 207.985640 48.674747 31 1
-122.192120 198.164470 35.607323 38 1
-99.042953 189.900130 -3.308722 28 1
-16.118788 251.940340 8.366032 19 1
-64.081703 89.887451 -5.081379 10 1
19.735281 151.494190 -74.171608 40 1
-72.389313 99.524948 47.488781 16 1
-18.429033 148.224210 -47.333244 3 1
-21.232300 71.677162 -3.372918 0 0
11.415153 169.440400 -35.651100 40 1
-37.189518 95.382965 -5.527602 18 1
-56.108097 217.241060 34.704842 31 1
6.814320 142.382390 34.367458 0 0
-79.689476 211.432080 2.999490 28 1
-44.827656 219.764570 4.665139 32 1
-42.667973 240.250810 18.711510 32 1
38.526638 169.986630 45.264641 14 1
35.667274 164.502030 90.963791 8 1
-94.525696 185.729610 -4.522030 28 1
-43.085289 88.858002 20.992147 11 1
-71.867531 177.289580 3.655123 30 1
-48.392395 120.692320 -28.297779 6 1
-32.735336 94.003868 -28.046526 18 1
-48.752972 208.597500 49.333538 31 1
43.055653 145.732800 0.171843 2 1
-129.280730 184.716220 18.287125 38 1
-80.144638 175.269320 64.118202 27 1
-11.953372 72.568253 9.429001 0 0
14.517782 126.353630 10.116500 22 1
22.295620 154.906800 -70.156158 40 1
-40.311348 107.627440 47.169842 25 1
-64.054703 212.130580 11.969115 29 1
-41.277088 90.382698 12.411869 11 1
19.696838 128.560990 18.996672 21 1
-48.931236 224.499680 29.341049 32 1
19.769165 170.888460 60.802887 14 1
-37.608665 113.476230 43.882633 16 1
-31.336777 113.113910 33.799530 25 1
-36.249443 120.079200 -29.551601 5 1
-120.281110 202.442250 36.249718 38 1
-8.994682 183.831830 62.501404 26 1
47.970879 160.001160 39.776516 14 1
-61.130867 208.722020 64.439034 31 1
9.671086 221.999970 76.416466 8 1
-8.970921 110.814070 30.383976 33 1
-6.182965 88.910034 -1.318761 0 0
-23.468039 207.291700 34.844757 26 1
-72.019012 144.001190 16.836718 17 1
-107.520640 210.904510 29.599699 38 1
-73.927780 134.811330 -7.020310 39 1
20.523979 221.334240 66.588028 8 1
-91.990845 209.925510 14.934483 28 1
-21.322762 142.602170 15.480217 0 0
-32.825371 168.454710 15.832313 0 0
-40.185776 241.531560 9.444587 32 1
-54.223629 204.094590 72.015160 31 1
-84.732071 137.259170 0.271723 39 1
-16.693531 195.170840 83.286812 9 1
-68.848312 198.517110 58.433052 27 1
-108.198680 212.118620 22.158215 38 1
-46.371342 94.265244 -9.156025 11 1
-41.859089 204.321520 16.379509 30 1
-29.645752 98.311775 -3.138859 0 0
20.319792 118.922000 3.497384 22 1
19.164165 168.601550 79.194023 1 1
-131.719850 158.529920 17.244530 38 1
-17.730480 141.984240 -0.864224 35 1
-48.797359 115.329890 44.121971 16 1
26.936184 126.367890 18.880409 7 1
-22.498270 138.223280 -5.018355 0 0
-49.302517 99.209938 73.464493 13 1
-9.951263 76.625389 0.293694 0 0
26.507421 171.689800 77.281868 1 1
-31.451033 107.475610 66.872108 13 1
-17.770334 78.030075 17.499773 0 0
-76.399940 178.640700 64.840225 27 1
-76.081520 143.479660 17.916962 37 1
1.714306 176.944750 62.616196 26 1
-20.017908 74.683304 -0.927153 0 0
-62.551888 217.230010 13.548324 29 1
23.654251 163.962920 -4.540682 2 1
-97.130058 205.765110 4.641264 28 1
-15.210695 222.405610 59.833397 9 1
-46.128693 211.167820 19.766958 32 1
27.894644 80.615067 17.836386 23 1
-131.799910 164.728030 20.460796 38 1
-10.806190 210.844920 68.691544 9 1
-76.778740 205.864110 -1.252313 28 1
10.834215 159.215000 -25.507982 3 1
-51.610111 135.618760 34.462254 17 1
15.817172 167.010070 -32.324677 40 1
-49.038681 94.071510 2.507040 11 1
-50.483959 109.369350 68.614670 13 1
-17.504314 77.040077 -4.126112 0 0
-85.161354 166.217960 66.765533 27 1
52.699100 150.960190 56.602074 14 1
-26.304457 137.703120 -51.152245 3 1
-3.868863 212.709370 50.513939 9 1
-74.796181 103.678300 38.703159 16 1
-47.913383 203.841280 14.823616 30 1
-71.779480 203.765460 56.261597 27 1
45.052334 140.654710 -1.586555 2 1
-125.140140 196.503510 22.018547 38 1
-49.450066 179.285340 10.670283 0 0
-43.046764 228.112350 25.550308 32 1
-71.871735 213.570450 35.237511 27 1
-42.544426 214.669530 17.444853 32 1
41.778202 118.963360 19.386932 7 1
-30.390102 152.834180 12.860899 0 0
39.849060 162.424970 59.786964 14 1
-30.065878 201.324910 41.941727 26 1
-89.464378 208.901210 34.851250 27 1
-8.412343 227.359950 19.985493 19 1
-33.922321 112.469460 36.948223 25 1
-57.107723 134.901660 33.876057 17 1
-96.546761 210.425310 9.346944 28 1
-14.250649 246.671040 10.133472 19 1
-45.652382 111.230160 47.773869 16 1
-124.775700 190.997510 17.139114 38 1
-23.083025 203.194430 11.617461 0 0
40.993820 165.002930 41.383545 14 1
-30.085514 205.021070 31.352242 26 1
-47.643890 213.450580 36.612446 31 1
25.715240 201.571170 85.404861 8 1
-13.827002 220.790500 56.336525 9 1
28.288130 166.654910 -55.190441 40 1
-39.857311 96.333710 -21.177891 18 1
14.933325 168.924380 -40.972824 40 1
-113.843550 210.368730 16.094131 38 1
-3.464257 189.095730 35.898609 0 0
-51.985142 223.875550 35.210365 32 1
-60.339897 118.010670 -21.309933 6 1
-84.893112 154.303970 70.270660 27 1
-41.952641 98.387352 73.404358 13 1
-50.524982 219.069430 36.021397 32 1
-58.181232 209.156400 61.796986 31 1
-33.332958 102.725290 -3.173033 0 0
0.123610 90.031792 24.342815 0 0
-53.811119 204.189900 29.473293 31 1
-126.443020 188.222460 26.478821 38 1
13.990551 218.285000 33.231331 4 1
-29.601469 183.206710 9.201118 0 0
-74.889740 205.774220 16.392334 29 1
-7.117707 53.300941 -1.871292 0 0
-33.210941 87.183144 -35.753605 18 1
-42.482746 251.211700 8.189232 29 1
-105.412020 216.862370 27.662125 38 1
-64.919617 192.499570 77.069908 31 1
-10.877204 248.398060 6.198211 19 1
-47.799076 75.597107 29.142050 11 1
-14.171534 108.070690 46.095306 25 1
22.646048 214.420230 76.107590 8 1
-68.209068 205.726290 11.390529 30 1
-16.634272 106.327160 27.419228 33 1
-38.585434 107.558750 41.488083 25 1
20.090714 164.950790 -56.019375 40 1
-2.915514 191.252010 27.935909 19 1
-130.567210 167.626860 23.764572 38 1
26.878016 205.427750 83.050240 8 1
-91.575325 194.045000 53.361591 27 1
-20.064238 115.426950 -33.293411 5 1
-34.567009 188.210400 28.941532 0 0
-67.368271 204.550250 66.259590 31 1
26.045700 217.955730 72.065819 8 1
-11.233608 154.917430 -46.118965 3 1
-56.937977 235.458620 18.027632 29 1
11.637884 159.869920 46.031296 0 0
-43.138947 108.813740 39.682285 25 1
44.505756 146.532230 -6.208154 2 1
-72.239136 192.080690 59.994007 27 1
-58.914806 130.797640 9.645281 0 0
-11.515296 213.873260 65.229622 9 1
-11.310085 153.995030 71.862671 15 1
-71.995667 227.719860 19.268990 29 1
-27.144741 251.584060 12.090167 32 1
-8.691803 104.420080 55.597137 25 1
-66.793327 232.271550 25.394735 29 1
34.313522 199.383700 24.420956 4 1
-44.265469 79.310028 78.468918 13 1
-59.853325 138.618270 30.447233 17 1
-56.713051 213.392320 18.483423 32 1
-43.014515 122.639890 -33.065907 6 1
-25.133823 111.440780 32.598839 25 1
-75.219749 211.596830 2.386450 28 1
-81.377548 203.689960 -6.496604 28 1
-9.570967 163.560380 -25.210489 3 1
29.358932 141.632860 106.576000 1 1
-75.974777 183.618160 74.306252 31 1
-12.337656 237.615360 19.553549 19 1
44.154091 165.005580 38.807869 14 1
44.708855 138.102190 1.604102 2 1
-8.143234 103.194050 20.180058 33 1
43.378990 161.934280 56.367985 14 1
0.077779 215.228940 18.233547 19 1
-66.499054 83.399757 -3.976792 10 1
18.998426 85.292015 33.385246 34 1
-14.956850 148.360870 70.706474 15 1
-78.379166 199.082780 47.915390 27 1
27.655146 162.559630 -6.867518 2 1
6.295683 166.094560 73.479378 15 1
22.760313 168.793880 -49.787086 40 1
14.840963 78.808525 27.361706 0 0
-42.935440 209.215770 54.576267 31 1
-50.580025 228.022750 24.428150 32 1
-57.244667 109.725330 56.154625 16 1
-50.327801 222.475860 10.146183 32 1
-39.293461 95.598099 11.827333 11 1
-94.862869 212.720980 5.903695 28 1
-83.405540 211.729200 18.879751 28 1
14.820896 218.569810 52.427586 4 1
-131.134110 161.537580 26.113661 38 1
-41.249176 223.630780 7.555227 32 1
51.094090 151.984820 41.631954 14 1
-41.689384 113.403610 61.591190 13 1
42.494507 160.037160 61.200127 14 1
-1.502782 111.098640 17.499781 0 0
-94.350571 178.090450 60.763550 27 1
-9.081275 50.799713 2.466190 0 0
-36.882229 234.921020 18.456062 32 1
-80.836014 126.952430 -10.895660 39 1
20.492273 146.913680 106.478940 1 1
-2.492249 180.204730 62.670624 26 1
-73.541138 140.252140 -6.731166 39 1
28.657804 172.713820 53.597713 14 1
-125.169990 196.302410 33.767929 38 1
23.830687 169.686110 73.706284 1 1
24.796354 164.870910 89.255211 1 1
-50.975063 103.886520 73.501381 13 1
-46.306446 114.591000 57.496605 13 1
-43.504086 116.194360 4.347598 0 0
-45.424500 106.256980 45.535221 25 1
-78.275208 206.593890 39.736485 27 1
-29.704115 240.003460 -0.315996 32 1
-66.254280 228.897520 14.174715 29 1
-30.428642 135.131700 -6.416910 0 0
-3.820009 138.408390 -5.043211 24 1
-16.322145 148.548860 17.806574 0 0
-25.291946 197.273880 76.758629 9 1
-25.608730 207.035400 27.476559 26 1
-83.885117 198.330780 -9.852970 28 1
-8.294467 79.724998 7.000369 0 0
-120.170070 206.525590 19.152933 38 1
-67.082390 104.427890 55.558960 16 1
-59.287430 205.047850 66.741219 31 1
25.381741 161.865970 -1.649146 2 1
28.182354 168.658690 -45.004356 40 1
-42.265957 210.797820 38.676617 31 1
-125.637420 175.982680 25.615017 38 1
-54.238720 110.740430 42.094078 16 1
17.972092 171.618090 51.650131 14 1
-125.735010 179.152910 20.895355 38 1
-17.285324 128.794200 14.333089 0 0
-12.893142 139.920260 79.853828 15 1
-33.816807 112.194840 53.966236 25 1
-62.037785 201.751010 -0.383527 30 1
-73.981781 188.813030 63.257229 27 1
-24.000669 263.580990 9.863170 29 1
30.983315 76.981056 49.074234 12 1
-33.606709 245.320850 10.592781 32 1
-76.425339 141.393450 10.620310 39 1
11.454400 219.864500 44.555824 4 1
16.281336 218.622700 38.559807 4 1
-25.119228 118.414760 -29.795410 5 1
-57.589005 223.690800 12.945083 29 1
-87.424377 121.605220 37.881432 37 1
-16.762032 138.882540 -6.373288 24 1
-0.490527 197.242720 27.044905 19 1
-54.700211 211.726270 9.584874 30 1
35.509289 163.431920 56.275467 14 1
32.459732 185.604770 89.165398 8 1
-90.979637 178.926320 -11.000420 28 1
25.856895 170.831010 -38.660141 40 1
-26.870367 133.551210 -6.127367 0 0
-51.652981 215.021360 28.821404 31 1
-24.985216 110.265960 51.320465 25 1
-36.426163 93.369682 9.137167 11 1
-40.762691 119.712610 -32.084087 6 1
-127.080940 188.828450 36.693245 38 1
13.545954 116.195020 40.194077 21 1
-66.754166 200.792830 5.767035 30 1
-19.879435 237.643550 8.324385 0 0
-35.393379 252.981350 15.398729 29 1
11.269298 162.294130 -29.104986 3 1
-1.558372 160.972470 -43.619122 3 1
-19.536579 123.777010 13.039462 0 0
-12.254653 135.569950 -18.888737 20 1
0.930117 165.051010 77.340675 15 1
6.118240 223.300200 18.448524 19 1
-19.527353 81.655945 -2.797633 0 0
-51.876835 207.512940 4.624702 30 1
-123.214800 184.415850 26.955294 38 1
-66.246857 88.725624 -11.933086 10 1
-10.970061 203.558840 44.375938 26 1
-10.936638 163.114060 64.448647 15 1
-51.195881 127.076190 4.527566 0 0
21.164263 125.630030 9.532099 22 1
-13.963443 160.440870 23.543123 0 0
-21.864918 99.291222 13.357777 33 1
-87.762115 200.324260 -6.774068 28 1
2.529742 90.275108 17.127234 0 0
5.373562 171.740840 57.874630 15 1
-14.630846 196.349850 52.568962 26 1
-3.574633 195.951020 31.802826 19 1
-27.577280 165.280910 14.707698 0 0
36.552063 153.530500 2.617491 2 1
-78.559334 186.919510 58.236687 27 1
-13.950624 61.682186 1.927042 0 0
-32.202816 122.168260 -34.144428 5 1
-14.699180 192.287350 64.384956 26 1
-16.157383 153.258580 66.665215 15 1
-35.349846 115.442530 57.757256 13 1
19.482771 150.575440 103.373630 1 1
-45.443707 223.432910 5.296314 32 1
33.287880 159.243260 -13.944543 2 1
-11.373865 242.537250 10.867854 19 1
-92.973610 131.099060 28.706425 37 1
-66.655785 220.257340 19.330406 29 1
-109.906380 207.126770 28.220160 38 1
-19.273899 245.714050 6.068707 0 0
-77.388123 224.670150 26.277256 29 1
25.396196 74.346260 52.349281 12 1
-10.435817 223.936490 25.108749 19 1
-20.821062 202.480290 51.547237 26 1
-40.289215 203.930590 10.253849 30 1
-61.955536 139.437500 10.901195 0 0
-48.501640 113.585880 52.057922 16 1
-29.012810 232.935240 12.838071 32 1
47.769047 116.040840 17.681852 7 1
-6.304242 17.268112 -2.257493 0 0
-0.945215 75.672089 7.326442 0 0
-92.496590 209.134930 41.671089 27 1
-87.567841 181.745540 61.947102 27 1
27.106304 174.223880 45.468807 14 1
-62.416523 92.687653 -10.970089 10 1
-16.168421 133.466670 -23.396584 20 1
14.029955 164.268910 -12.268384 2 1
-87.054688 211.620880 5.248169 28 1
-24.966679 71.403778 -2.577017 0 0
-44.419029 206.765910 44.661015 31 1
-52.381851 226.407530 12.118249 29 1
17.253275 123.592980 12.608777 22 1
36.314537 188.796540 19.592028 4 1
-2.022959 197.935500 39.504356 0 0
11.540538 222.176040 32.963642 4 1
24.605272 192.699980 92.911560 8 1
-8.829011 27.702316 -0.527097 0 0
-76.924751 138.324510 -2.256237 39 1
-63.093552 233.595170 18.318140 29 1
-1.516274 245.226200 11.252612 19 1
23.334723 213.536410 31.226725 4 1
-27.620716 241.048830 5.523312 32 1
-7.286200 107.463680 36.919922 25 1
-4.571388 38.432095 2.848986 0 0
39.586330 187.052760 22.663425 4 1
-33.448997 108.360550 42.987587 25 1
14.001338 82.124229 33.645813 34 1
29.732372 159.602340 6.760777 2 1
29.039022 162.131160 -60.903484 40 1
-124.072860 186.924220 20.268330 38 1
-36.116169 223.878690 14.062002 32 1
-8.090078 192.198170 53.800892 26 1
-46.782204 211.840770 13.618289 30 1
-65.294647 85.694740 -9.821204 10 1
-53.542236 133.747070 38.703415 17 1
-78.868172 208.043320 25.908335 28 1
20.229437 216.945740 31.277533 4 1
-69.030350 216.356900 14.761303 29 1
-109.295820 212.427400 33.172131 38 1
-71.228928 201.535980 10.592607 30 1
25.221731 172.471860 56.049847 14 1
-38.088413 207.654420 36.034939 31 1
-22.956188 88.540649 28.416956 0 0
0.485783 121.552470 24.197361 0 0
-68.496628 215.395900 22.662289 29 1
-26.051512 171.812300 11.896500 0 0
45.973576 156.308500 53.187286 14 1
-67.621033 145.146420 5.957278 39 1
-49.105122 94.855095 -2.737319 11 1
3.379798 214.326830 63.008934 9 1
-28.202940 114.405400 49.885025 25 1
-18.144730 218.765950 63.603813 9 1
-52.154678 123.311820 -22.422470 6 1
-44.610832 94.401848 -25.315063 18 1
-78.442909 185.641740 63.282372 27 1
-26.708103 197.221850 80.252235 9 1
40.590359 156.059430 -12.198883 2 1
-16.747520 136.594380 -18.946701 20 1
-48.978600 82.240067 22.366062 11 1
-93.711800 201.001680 44.104244 27 1
-32.400803 188.568760 14.476283 0 0
-22.392860 67.740135 -3.578133 0 0
-43.479229 220.187810 12.064033 32 1
-39.321239 241.957980 18.925402 32 1
-22.594067 206.602230 38.804718 26 1
-17.303814 218.984990 9.168925 0 0
-35.508541 99.518494 -14.798447 18 1
-30.352596 103.972050 -21.676662 0 0
18.027193 215.680390 78.830055 8 1
-67.317268 186.602340 0.382476 30 1
24.729126 151.435060 102.081930 1 1
-15.059330 112.301690 -32.944374 5 1
-9.585344 137.501890 -1.624038 24 1
-53.651062 120.595210 -47.312946 36 1
-30.154854 201.118700 30.949587 26 1
-86.680618 190.768980 50.510517 27 1
-82.414055 207.242480 48.973511 27 1
-13.892709 201.716340 50.274105 26 1
20.637564 217.488040 72.469452 8 1
-7.329491 141.294400 -5.223904 24 1
-95.707428 194.333770 48.078403 27 1
2.268884 213.193980 24.573868 19 1
38.646545 191.393800 26.587500 4 1
-18.663977 81.994324 23.371078 0 0
-2.935394 219.127290 57.465168 9 1
13.243965 155.164400 -24.529930 0 0
-3.848627 198.978350 51.293507 26 1
-23.751856 147.699870 10.714832 0 0
-80.884590 208.860090 -1.453291 28 1
27.957767 166.840320 56.996330 14 1
-11.587358 190.079420 64.995049 26 1
-9.402600 218.675950 50.844036 9 1
-45.069862 249.985370 12.607286 29 1
-38.290924 229.082290 19.612591 32 1
-48.890087 117.584050 57.970692 13 1
-19.749214 114.572940 34.213428 25 1
-65.145699 205.857620 30.275640 30 1
-51.754204 120.597630 -26.655523 6 1
5.564910 170.283250 70.371086 15 1
-73.797226 136.558940 -0.614687 39 1
-61.158070 207.072240 9.275949 30 1
-6.503313 175.636410 30.290800 0 0
-3.698727 153.324250 76.156494 15 1
-23.594896 199.141820 52.369030 26 1
24.536240 171.113160 80.657227 1 1
24.900085 209.362720 39.859646 4 1
-77.655357 101.084830 43.860188 16 1
-28.153635 90.436836 31.585833 0 0
-7.623305 157.287890 68.297264 15 1
-48.908813 106.007220 69.595734 13 1
-29.594740 76.708557 -3.283195 0 0
-68.996841 185.989730 74.589066 31 1
-73.778069 213.617430 8.348497 28 1
-52.709084 219.460310 15.610147 32 1
22.774248 108.397350 -8.007649 22 1
-17.804235 64.672646 -3.162715 0 0
5.210074 224.598850 43.942223 4 1
6.213422 222.884570 70.751144 8 1
-34.697857 205.475050 30.536690 26 1
29.546480 81.327705 22.698212 23 1
-84.019241 211.841460 38.547516 27 1
-37.374630 212.033370 31.134939 31 1
-28.295361 234.385540 5.350231 32 1
5.072604 131.451220 -18.242241 0 0
-13.173004 132.234210 79.163460 15 1
-41.595821 105.667740 64.866005 13 1
-5.316559 209.715880 25.572222 19 1
36.828690 192.848980 20.972904 4 1
4.462763 219.571060 58.617302 9 1
22.420607 208.144790 85.935158 8 1
-5.948550 161.288970 72.024620 15 1
-66.617752 199.458080 14.206712 30 1
-9.094509 248.505840 14.363999 19 1
-10.655629 164.980040 26.943302 0 0
-40.935097 93.708153 -6.403079 18 1
-0.672498 224.333020 22.647911 19 1
-8.375948 232.561420 15.327947 19 1
-98.121635 200.246120 -0.394349 28 1
-4.852155 109.704320 41.426018 25 1
-43.467163 96.808716 -21.923021 18 1
26.192667 141.270130 108.438290 1 1
-59.272503 213.537140 45.926739 31 1
-9.874016 79.712326 -2.180863 0 0
-8.816588 148.580050 74.309219 15 1
-32.867741 100.415130 38.055889 0 0
-5.707377 95.141953 -3.777825 0 0
24.578274 162.663740 -59.903667 40 1
35.955883 160.970950 63.863548 14 1
-87.729683 180.577150 -14.296236 28 1
5.714331 221.261570 49.583851 4 1
-3.730506 67.977776 4.574219 0 0
-14.913068 110.636730 29.797876 33 1
14.123935 212.928050 87.264915 8 1
-92.393929 214.321230 27.937357 28 1
-13.280194 244.767290 16.730635 19 1
-19.541019 156.696460 -36.770515 3 1
-18.409273 139.891680 76.026871 15 1
-42.627163 98.357498 -14.978097 18 1
13.942214 167.610700 64.712669 15 1
-79.721634 203.168170 -0.322354 28 1
-78.408234 136.096410 -5.538304 39 1
-120.607660 196.464750 19.315046 38 1
-81.099449 90.967773 46.807346 16 1
-60.304379 143.070740 15.663317 17 1
0.170226 236.678210 18.665581 19 1
-86.136185 211.660230 26.414579 28 1
-20.659666 249.502270 8.393110 0 0
19.242567 159.563630 95.247086 1 1
-17.931885 228.753370 6.090480 0 0
-9.697632 180.432270 67.168510 26 1
-86.903145 192.235080 56.519672 27 1
-18.070591 94.006348 15.088736 33 1
-94.332878 199.440460 49.195156 27 1
-23.158848 251.429150 3.060723 32 1
-32.215969 261.131960 15.399549 29 1
21.221626 112.580520 -2.496340 22 1
-119.862500 191.950850 25.065439 38 1
37.059296 196.809420 30.895958 4 1
1.378896 44.477104 3.772427 0 0
-71.443649 139.324770 0.630487 39 1
-39.725960 255.361210 9.079501 29 1
17.402676 114.396710 44.601974 21 1
-30.251820 125.439240 -6.666008 0 0
17.018080 127.669690 15.297144 22 1
-71.679588 101.973270 44.842716 16 1
-22.771530 120.110980 12.198109 0 0
15.120186 114.421170 -4.963245 22 1
-90.056938 158.278310 65.074425 27 1
-63.411102 195.915890 8.443412 30 1
17.813614 204.515440 89.337364 8 1
-27.481262 114.380680 33.664810 25 1
28.328915 127.367810 25.241106 7 1
16.267832 118.963940 5.348934 22 1
-91.793442 182.414840 57.943893 27 1
16.900410 162.140410 -29.067780 2 1
-28.578070 247.933230 5.544676 32 1
-47.356136 205.931960 42.293095 31 1
41.511890 118.312930 26.531660 7 1
-122.631390 201.236390 24.038887 38 1
-91.128601 172.707490 -15.029100 28 1
-58.872520 219.873580 3.803397 29 1
-48.754246 204.337630 19.980995 30 1
30.603441 152.840390 102.948430 1 1
-77.005402 206.200840 52.847309 27 1
-6.507219 105.125370 25.974398 33 1
-31.079771 190.947560 11.280643 0 0
-46.592335 122.168270 -24.026257 6 1
-20.769754 129.827000 -59.420746 3 1
53.173000 108.730810 23.643564 7 1
-51.376728 240.395490 18.887991 29 1
-17.548824 155.476000 -42.317509 3 1
18.075264 165.563920 -52.532410 40 1
-35.985752 96.644577 -11.425100 18 1
-97.933388 215.496410 24.884705 28 1
-27.656601 263.062440 10.381340 29 1
-44.979729 217.523880 9.489629 32 1
-36.730656 105.637850 65.128090 13 1
11.930780 165.665040 -35.882851 40 1
34.031216 131.997390 107.505790 1 1
2.067583 230.846250 19.115250 19 1
32.840988 159.784210 -8.735069 2 1
-92.200882 183.382170 -11.827690 28 1
-60.389938 218.897380 10.965519 29 1
13.762230 220.083310 63.933334 8 1
-51.119389 222.480350 22.099821 32 1
8.546527 153.364270 42.177998 0 0
30.495377 181.244930 90.781052 8 1
-88.628830 214.169450 29.969868 28 1
-79.187012 192.973040 59.207890 27 1
-33.214054 161.636580 14.831488 0 0
6.093535 222.034880 75.711166 8 1
-2.114703 230.278410 22.082371 19 1
-69.327782 226.444020 25.281799 29 1
23.196388 208.933960 33.116470 4 1
3.986067 219.314830 20.874613 19 1
-46.921257 121.609600 -45.080883 36 1
-49.319229 203.724240 35.005035 31 1
-30.796968 101.098340 -5.221793 0 0
-0.999888 161.831360 78.090263 15 1
-131.987340 149.427550 25.433737 38 1
-43.165745 95.066917 74.523705 13 1
8.703768 216.904330 46.474937 4 1
-72.519165 196.472240 70.099144 31 1
-6.572209 215.080280 62.345341 9 1
-81.798538 215.180250 31.198387 27 1
-80.258316 215.771760 23.782459 28 1
1.636126 79.551147 20.528536 0 0
23.802147 220.970410 73.352707 8 1
-57.573895 201.034710 73.569565 31 1
14.836213 170.525920 57.407913 15 1
4.073158 164.548260 -44.279781 3 1
-53.429359 214.343200 23.046223 32 1
-52.596684 138.467530 29.960203 17 1
17.920965 207.896160 85.563385 8 1
-21.122822 204.989060 73.671242 9 1
-70.907814 207.451290 49.897579 27 1
-9.364401 235.870190 13.909056 19 1
40.538448 168.532240 42.322361 14 1
-77.304268 140.254790 3.785030 39 1
31.996613 160.641050 -4.452199 2 1
30.976294 156.121950 1.048823 2 1
-62.262882 109.108480 43.474194 16 1
-21.743198 185.553540 85.490616 9 1
0.088199 239.991790 8.596321 19 1
-50.237411 222.090010 38.856720 32 1
-53.306206 93.854530 78.101318 13 1
47.668819 156.335460 44.630955 14 1
-15.821202 110.808210 9.392649 0 0
-80.983551 133.086150 -7.950072 39 1
30.245031 188.138180 90.518196 8 1
-57.677147 114.679440 39.446167 16 1
14.595984 167.660400 68.277359 15 1
-95.890541 183.279860 -7.446771 28 1
20.209993 168.494160 -46.387184 40 1
4.651093 90.083565 20.929293 0 0
24.758968 80.191498 22.651249 23 1
34.229721 171.372920 90.267715 8 1
0.078178 172.462520 61.516861 15 1
-64.515884 204.097520 25.529125 30 1
-4.885254 198.044860 28.077507 19 1
-78.219917 223.455490 29.585609 29 1
-42.337185 94.954102 -9.712434 18 1
-94.265121 175.921520 -10.552697 28 1
40.350906 149.587190 -0.068810 2 1
-26.794031 251.828660 15.969377 32 1
-83.856148 129.063610 -8.984537 39 1
-60.706615 204.805970 31.720570 30 1
-25.237114 143.235230 7.399755 35 1
-73.023865 173.972080 4.927436 30 1
-4.006419 223.197860 53.270950 9 1
-9.795116 202.751210 53.700207 26 1
10.046104 101.666640 12.233514 0 0
-65.437630 143.933850 9.496446 39 1
-3.965205 245.734700 13.918793 19 1
-38.297356 113.473460 58.783855 13 1
-65.719688 198.153850 2.851535 30 1
-50.295380 112.904360 -58.883648 36 1
-0.359839 75.909935 12.463202 0 0
-129.047230 172.106290 27.872334 38 1
-72.038399 75.815002 -7.923873 10 1
-67.341232 192.244290 -0.686240 30 1
22.122677 81.564751 46.482624 12 1
12.167749 115.349330 4.724862 24 1
-84.663628 131.482940 27.944019 37 1
-60.991623 210.380650 30.675592 31 1
-74.500847 134.282040 -10.543920 39 1
36.054203 172.771820 44.047920 14 1
-17.516432 138.598890 -11.892611 20 1
29.770084 75.230003 52.064842 12 1
-51.877842 183.272420 13.683637 0 0
-67.901299 199.485490 70.446686 31 1
-80.134224 198.681370 -5.475460 28 1
22.024918 160.880980 -62.055721 40 1
-58.244747 90.559914 -1.098323 10 1
-11.641585 218.013230 58.081089 9 1
-17.621851 120.364780 13.085752 0 0
9.189773 117.710000 38.793243 21 1
-23.326069 115.884330 37.973362 25 1
25.406126 210.964370 25.713438 4 1
1.150744 213.547070 70.047424 9 1
-20.260433 207.084240 32.557064 26 1
-92.937233 188.306780 56.184975 27 1
18.712202 166.075640 86.318024 1 1
11.131986 161.423830 92.747444 1 1
22.320555 211.718670 81.631752 8 1
-46.281509 227.820390 21.338665 32 1
-4.527093 31.169048 0.592957 0 0
30.406265 80.611473 44.650482 12 1
-74.368408 227.045680 25.245123 29 1
-112.941480 213.527420 19.092106 38 1
-2.563143 234.793490 11.591210 19 1
-19.392796 132.676130 76.380920 15 1
-84.168625 201.470810 5.235400 28 1
4.839530 94.740257 21.593149 0 0
5.283609 97.775368 11.548287 0 0
32.152039 126.589940 20.037962 7 1
-37.881760 230.022130 -1.415431 32 1
-7.950834 78.051819 10.216369 0 0
-76.427185 204.443160 44.441635 27 1
2.521738 99.482628 44.321266 25 1
-44.415302 209.907260 6.341087 30 1
-54.752106 221.801390 34.239250 32 1
-58.470730 227.404220 23.133650 29 1
-70.491440 213.808010 27.099274 29 1
-4.131291 203.299790 34.456139 19 1
-31.375687 94.451408 33.728630 0 0
16.285551 118.780400 14.198141 0 0
-48.374462 88.870140 13.213579 11 1
-6.837440 -0.810997 2.833780 0 0
-28.623413 155.599870 14.377849 0 0
-29.134087 146.125110 12.834413 0 0
-14.730793 115.294180 7.252424 0 0
-86.049332 137.906450 25.831053 37 1
25.650923 136.322910 110.819820 1 1
-41.509693 252.471100 22.119242 29 1
-53.642479 208.369610 65.633774 31 1
-79.681694 146.120820 18.149899 37 1
-39.937759 206.067370 24.715464 31 1
-70.307854 192.869510 73.893677 31 1
28.784040 169.647780 -31.923546 40 1
-51.366180 78.592674 78.961975 13 1
-54.975098 142.774400 25.480570 17 1
-14.532167 135.322050 -14.509593 20 1
-20.360016 121.977930 7.344970 0 0
-83.157013 91.039009 43.515675 16 1
12.443619 164.064100 -18.409157 2 1
-95.249023 204.793640 44.786423 27 1
-75.365982 177.045610 74.048927 31 1
-37.346298 112.236370 53.003834 25 1
22.006855 216.251420 49.055637 4 1
-83.585251 199.183350 0.857738 28 1
-8.290568 103.179830 13.251346 0 0
-116.855520 210.442260 26.668886 38 1
14.055484 215.638520 77.643341 8 1
10.100748 222.694920 70.383392 8 1
-8.818635 240.229130 24.748814 19 1
-22.405472 77.428276 -1.719681 0 0
17.385250 222.622020 69.802788 8 1
-13.806468 73.140030 15.446551 0 0
-2.540297 165.674770 64.037216 15 1
-14.347365 156.763700 22.127872 0 0
-58.397476 110.529570 41.142162 16 1
-65.602676 215.337630 18.909187 29 1
-121.599540 192.346560 28.593185 38 1
31.199953 175.262220 46.870453 14 1
36.982464 146.864240 3.899266 2 1
18.499760 126.626490 25.532200 21 1
-75.415131 131.271530 -8.709996 39 1
40.687847 160.563340 54.408497 14 1
-7.109174 173.901670 68.946426 26 1
10.992547 168.788940 58.461571 15 1
-89.616951 130.770140 30.004227 37 1
8.385443 82.547310 35.193871 34 1
-76.027145 202.960570 20.885458 28 1
-54.835587 101.942930 49.861137 25 1
-28.499599 187.764250 84.352348 9 1
-5.152084 4.886708 -0.893960 0 0
-96.308884 212.299450 24.911198 28 1
-10.970941 109.226810 37.141949 25 1
31.036476 174.826490 91.640968 8 1
-92.700768 215.505420 15.810957 28 1
-75.845551 209.111400 7.505633 28 1
17.990438 115.133350 -2.219755 22 1
-48.522614 212.241300 24.195141 32 1
-32.720749 260.234160 23.768040 29 1
-20.311754 134.337940 13.037977 0 0
-15.711547 121.849230 9.146734 0 0
-71.345360 142.830060 5.514069 39 1
-86.734406 177.778840 59.866428 27 1
3.572257 226.247360 19.524117 19 1
-54.674297 210.433470 58.890610 31 1
-17.140804 200.740160 41.477013 26 1
-65.167038 210.843770 25.197618 30 1
-2.930702 105.974780 11.748341 0 0
-85.997467 206.864560 12.298756 28 1
23.914270 176.540830 50.182255 14 1
17.251352 163.087570 90.440979 1 1
-128.075840 190.146320 18.812675 38 1
-34.397110 240.615140 -1.970188 32 1
-18.539986 145.588130 -50.509312 3 1
-53.931000 93.605995 -10.077442 10 1
-71.600723 185.680400 7.052810 30 1
-25.303141 143.204650 15.213647 0 0
-34.996464 211.868470 19.224575 32 1
-7.281934 138.112370 -9.988579 24 1
-78.931374 215.721980 16.044958 28 1
-49.967247 242.892440 11.907501 29 1
22.549547 169.185940 58.311378 14 1
0.989668 183.109310 58.470142 26 1
-34.526314 246.782560 17.670135 32 1
-22.097395 136.686570 11.007394 0 0
22.229240 161.023650 -19.800791 2 1
2.342222 161.892910 -38.446835 3 1
-91.273750 190.872010 -1.510553 28 1
-6.016523 237.445710 11.177749 19 1
26.327021 160.795470 95.672447 1 1
-0.019558 199.643920 44.632725 19 1
-9.833706 64.827629 5.225009 0 0
56.665474 144.060900 53.027061 14 1
-14.083986 185.048260 64.776398 26 1
-3.273697 101.910250 51.176075 25 1
21.846512 199.034680 89.679504 8 1
9.554005 120.077390 31.065542 21 1
-69.162979 230.165700 20.463287 29 1
-37.539562 243.354920 12.678227 32 1
2.910236 92.070786 51.573605 25 1
-38.629295 250.465040 11.675644 29 1
-15.707929 250.691670 16.682293 19 1
-76.516823 172.934390 69.997398 27 1
18.238297 125.339140 18.831684 21 1
23.242023 158.669530 -64.680389 40 1
-39.147896 96.905174 -0.647932 11 1
10.686522 161.509320 49.165119 0 0
24.980480 78.139305 47.189941 12 1
-53.460445 237.503250 13.988345 29 1
8.395749 168.660100 64.051102 15 1
-82.024307 189.755690 52.178261 27 1
-36.610222 202.417850 29.924280 31 1
17.384611 175.416030 50.944023 14 1
21.371077 85.404770 23.872320 23 1
-30.057783 194.874450 80.634262 9 1
-53.653645 115.441420 40.570442 16 1
-43.202396 102.945770 71.658363 13 1
-7.059527 162.034550 -27.174377 3 1
-47.368240 112.152250 67.321938 13 1
25.189350 170.492940 50.932423 14 1
-0.105063 101.328860 45.910999 25 1
35.160316 152.449420 -0.444715 2 1
15.763500 154.019710 -68.732162 40 1
15.640490 169.408420 76.374954 1 1
-54.520638 219.351680 19.421358 32 1
-69.697372 210.183170 34.043419 27 1
29.527237 168.679790 -50.950909 40 1
-65.065834 138.199250 12.027266 0 0
-5.890653 162.018300 -38.615837 3 1
-48.420490 241.554660 22.992901 29 1
26.518744 214.210530 41.083008 4 1
-28.524044 162.728580 9.734946 0 0
3.527365 141.303700 35.070663 0 0
42.833065 130.495070 10.249635 2 1
-72.350655 104.011450 47.996143 16 1
10.460883 221.109500 41.195061 4 1
-60.700027 209.733640 34.338371 31 1
-44.854897 118.374700 -54.956558 36 1
-40.862217 92.426643 18.139528 11 1
23.225885 116.957690 0.786906 22 1
29.387264 195.417710 86.312653 8 1
-39.711536 248.147350 18.097050 29 1
34.395477 126.349410 14.822920 7 1
45.112221 159.396040 58.540184 14 1
-42.698254 85.663773 76.389328 13 1
20.836248 164.442440 -9.603170 2 1
-130.139330 177.391650 18.964911 38 1
-39.122025 114.448390 47.105968 16 1
40.722878 163.683670 45.206593 14 1
-37.764820 121.362510 -37.134453 5 1
31.506392 126.658230 23.875383 7 1
-18.777130 246.259550 10.944263 0 0
17.303505 225.118940 64.485062 8 1
-76.165123 189.904370 57.739029 27 1
-125.464320 198.909900 17.875422 38 1
4.218891 163.974350 -29.617229 3 1
-74.695290 190.149540 73.708420 31 1
9.731296 151.246980 -24.098145 0 0
-11.929157 250.835370 8.950067 19 1
-91.092194 201.259290 8.293101 28 1
-41.573555 87.973862 24.268667 11 1
-13.150846 157.985860 -37.614517 3 1
-39.539711 207.475330 7.182725 30 1
-25.291283 140.525180 1.092417 0 0
-69.735641 208.382600 4.004257 29 1
-41.251869 203.210560 40.038078 31 1
-100.438930 114.078220 35.375813 37 1
-55.612583 93.163536 2.654945 10 1
-67.866882 106.526910 48.461895 16 1
-32.799736 195.848590 11.765092 0 0
-80.005119 171.547810 66.418358 27 1
-52.719082 114.774850 44.100357 16 1
46.729435 159.796330 51.337418 14 1
-121.730080 188.378140 23.108835 38 1
35.138733 145.477220 10.151304 2 1
-48.294270 216.918990 38.607990 32 1
-44.934162 92.755745 -5.990932 11 1
-14.779166 151.191280 -51.271156 3 1
14.675601 159.514020 -23.373734 2 1
-79.373856 218.646330 25.579027 29 1
-2.217475 83.633469 18.915571 0 0
-33.652378 225.184520 16.180466 32 1
-68.891754 191.319140 9.838926 30 1
-84.409592 182.204900 58.363678 27 1
-83.525871 189.653520 59.279812 27 1
-10.098583 106.838620 9.083642 0 0
11.443140 219.134220 73.568123 8 1
-19.944944 196.082020 57.595661 26 1
-81.615372 135.481380 30.213926 37 1
23.943386 77.300781 51.107159 12 1
-0.168034 95.770119 17.924591 0 0
-61.188366 107.488980 54.597618 16 1
-32.842575 178.401930 22.434551 0 0
-52.492512 97.607475 76.722015 13 1
-49.695599 204.884280 69.969948 31 1
2.352228 221.562840 16.616325 19 1
-19.425543 208.227690 11.652462 0 0
-96.027023 207.263180 7.614969 28 1
-5.145461 36.795052 -1.632339 0 0
27.319395 205.442180 36.742226 4 1
5.134818 171.963150 63.865063 15 1
-64.353096 192.233220 1.274400 30 1
-8.270812 245.994380 5.792156 19 1
20.068821 83.119286 35.974281 34 1
-12.300043 145.025540 78.507790 15 1
-130.109620 174.012150 21.382404 38 1
-17.723850 208.590940 75.103752 9 1
-41.117947 110.090980 42.440445 25 1
-76.232895 214.809860 23.979292 29 1
-46.840111 207.788640 66.010696 31 1
-6.902861 87.162788 7.861579 0 0
-56.449512 205.300140 69.225914 31 1
-50.969326 209.210970 60.957996 31 1
12.710121 108.527350 13.293836 0 0
27.933815 156.734970 -67.834381 40 1
9.947381 217.400100 60.559418 9 1
-38.082859 94.767578 -24.704863 18 1
-19.827625 198.527790 77.581421 9 1
-79.231514 221.856900 23.650017 29 1
25.344042 85.076546 32.960663 23 1
-54.416676 105.792750 43.578651 16 1
-86.212372 139.380000 22.185078 37 1
-2.153801 169.392270 64.833466 15 1
-41.716656 211.358230 12.967833 30 1
10.765356 219.505860 56.990162 9 1
-10.062420 161.961400 -22.150030 3 1
-32.425770 90.290825 -33.807327 18 1
0.742368 161.976040 71.561409 15 1
14.819859 166.273730 84.447754 1 1
-22.054756 117.927500 -35.426235 5 1
-60.662727 217.206470 7.491672 29 1
-18.188110 207.798550 71.703552 9 1
4.305536 236.917240 13.110265 19 1
-50.211693 212.928770 55.183140 31 1
-25.978294 148.673310 14.135945 0 0
1.330452 131.001510 -3.710089 24 1
-41.516529 101.624580 68.402077 13 1
26.622505 215.723680 45.048721 4 1
-88.406784 187.252690 53.083862 27 1
-77.340736 213.930800 8.979279 28 1
4.573180 160.184880 -21.864397 3 1
-16.247431 147.744600 -54.195728 3 1
35.127697 148.984710 7.793926 2 1
-5.026892 100.201700 7.791511 0 0
24.442947 210.900470 22.060371 4 1
-42.858864 90.525093 8.800857 11 1
0.218534 124.986500 27.434931 0 0
-3.696174 85.585632 3.776943 0 0
3.354621 164.385830 72.792892 15 1
-35.579792 103.572230 39.684940 0 0
-54.557552 214.464830 51.195477 31 1
-17.793430 198.549090 83.411781 9 1
15.957296 216.029370 47.722443 4 1
-78.188972 167.768020 69.613098 27 1
-5.814254 209.156430 76.666161 9 1
15.407307 215.765010 82.475502 8 1
-13.937837 212.391130 71.647003 9 1
-47.758572 246.777280 10.156116 29 1
-72.997978 212.963130 4.667644 29 1
-37.306313 184.964650 27.109364 0 0
-78.933319 131.355060 -10.390973 39 1
-30.375637 235.361770 1.863066 32 1
-52.421936 216.136310 10.676432 32 1
-10.461125 248.182560 20.072969 19 1
-9.619070 18.347366 1.139376 0 0
-26.035524 249.730500 3.958256 32 1
-67.452606 212.930570 11.596742 29 1
-2.142885 107.460810 41.080978 25 1
14.608131 218.581910 56.176983 4 1
-50.776649 203.862700 12.750671 30 1
59.877983 136.179180 49.040253 14 1
19.596016 118.592310 36.546043 21 1
16.185427 217.954410 72.902695 8 1
4.173590 124.678530 2.628750 24 1
-50.453800 93.927635 -8.714006 10 1
31.712200 198.944030 85.932167 8 1
-26.828676 152.036830 13.592352 0 0
-19.239222 194.824980 80.809494 9 1
-26.675724 246.324160 -0.732636 32 1
45.471481 128.580170 8.008516 2 1
-72.904922 146.199040 -4.079338 39 1
-76.716545 209.554890 33.067936 27 1
-9.072316 106.744530 47.399036 25 1
-5.039148 83.193291 10.496991 0 0
17.552998 165.848280 -8.600584 2 1
-89.081184 210.278350 16.906809 28 1
18.826607 213.387510 81.704247 8 1
-14.383517 127.900570 -27.379774 20 1
15.273846 121.226370 34.877209 21 1
15.572387 164.345140 -59.215435 40 1
-58.851700 211.889790 56.030888 31 1
-87.879364 206.916340 37.351845 27 1
-62.096169 203.744310 3.047566 30 1
-46.994991 234.103440 20.832825 32 1
36.363216 123.459370 23.352289 7 1
9.517915 122.810210 3.340933 24 1
32.000969 205.337830 32.697811 4 1
-42.231709 244.829130 10.468246 29 1
-63.636391 198.611590 0.145421 30 1
-4.039414 183.264890 64.841072 26 1
32.264072 208.448580 39.515522 4 1
-2.795646 169.069200 68.760857 26 1
-39.750961 254.182420 19.618303 29 1
-98.232918 118.023030 36.254295 37 1
-9.766054 158.232320 -40.233612 3 1
-16.450766 205.811810 35.204830 26 1
-9.090558 97.495293 5.059683 0 0
-63.075420 198.832700 14.092810 30 1
-69.116638 102.572840 51.013527 16 1
-44.877373 125.105310 -22.219423 6 1
-0.979822 207.059250 29.910889 19 1
36.298599 193.523100 25.060442 4 1
53.593578 150.758090 46.406555 14 1
12.592901 112.962710 45.238987 21 1
-8.157951 220.914720 53.299267 9 1
-13.949627 111.789340 25.198570 33 1
-34.250790 109.260750 47.521469 25 1
-7.129344 175.597780 64.218826 26 1
-1.380787 47.005394 5.826868 0 0
-6.268410 56.753353 -1.003666 0 0
-46.343872 205.668850 8.127865 30 1
