-14.852708 40.823803 15.645315 0 0
-49.048874 61.131592 36.767715 26 1
-32.525101 110.693730 50.395550 3 1
77.210121 197.337250 -42.929886 43 1
-16.047426 222.011540 -19.498058 38 1
-67.602470 117.951770 55.119892 45 1
-37.812622 202.129330 40.345184 33 1
34.590862 157.863070 30.570835 14 1
-77.525452 118.755620 54.254227 45 1
29.259396 27.596268 -22.616207 8 1
17.936493 225.624510 54.917118 4 1
-24.537004 97.473259 64.339119 3 1
12.325330 32.958870 -33.941509 9 1
45.249493 93.078743 17.074219 19 1
-62.208668 195.676770 -26.431654 35 1
0.324063 176.492430 -35.712357 11 1
-21.320021 55.353168 37.367348 0 0
-64.968498 217.150100 5.826269 35 1
-11.806141 161.108380 1.604460 0 0
26.170139 232.378130 14.391475 15 1
47.357529 157.735170 29.561024 14 1
20.892805 199.274230 -27.574993 11 1
-23.023178 62.404285 -2.613528 20 1
0.483017 224.562470 33.554371 12 1
-15.256027 67.023323 58.310032 22 1
-42.292530 131.008440 19.810003 2 1
-19.085449 69.185257 59.505749 22 1
-63.574150 224.447140 -1.221636 35 1
1.753821 55.442051 -2.171707 0 0
19.016592 235.579590 26.420687 15 1
0.896319 148.207980 64.728836 16 1
59.185131 142.485320 9.781206 14 1
3.121831 73.029167 22.039585 30 1
-3.106451 222.323790 4.998158 41 1
-63.566761 122.314990 4.387441 2 1
24.385504 236.151980 31.298252 15 1
66.153969 110.594090 -16.988449 18 1
-64.218842 186.968570 34.367420 31 1
27.355993 202.305150 -22.809660 11 1
-18.135281 225.276750 -7.880829 38 1
92.889275 178.416440 -46.386269 43 1
-100.242450 201.453030 24.417248 46 1
-29.914951 187.123410 10.043862 42 1
-17.710588 105.462990 58.236969 3 1
63.247036 145.974040 21.764263 14 1
-13.938907 63.280144 17.502600 0 0
30.988735 205.440550 -24.529346 11 1
-10.603374 197.606410 43.919025 12 1
21.541000 148.855210 64.706619 16 1
-24.209982 103.232970 59.768475 3 1
31.381138 102.032840 4.897755 19 1
-55.566242 211.733960 -17.773716 35 1
-4.829658 77.604904 21.379271 28 1
92.539543 193.157520 -31.017365 43 1
-28.803219 63.011425 40.180378 26 1
28.084560 31.844887 -31.962553 1 1
27.566706 108.866430 -21.671133 17 1
-76.717018 224.417140 26.879528 46 1
-19.762270 2.033557 6.554824 10 1
-44.943321 64.806610 33.752567 26 1
44.410549 151.940630 83.050560 44 1
-8.029716 11.756663 2.977983 0 0
-39.473602 117.389120 41.795677 3 1
-99.772995 205.839580 21.280216 46 1
33.760410 105.879160 -24.142078 18 1
-8.203573 222.646760 8.127830 41 1
-20.048267 191.428960 -16.542288 42 1
-65.527824 116.934250 61.691761 45 1
-19.253620 220.638080 -26.603371 38 1
30.143082 202.731570 -18.999800 11 1
-34.477074 229.162730 -13.588990 36 1
-55.431084 220.162260 -17.605453 35 1
24.321613 220.974700 57.467216 4 1
-45.585472 131.446140 1.167439 2 1
5.681961 73.353058 36.978779 30 1
-32.119022 189.896930 14.723018 42 1
-61.252449 207.604610 -7.454945 35 1
42.743908 158.598430 49.517998 6 1
-50.343651 187.443270 24.073359 31 1
-53.792259 129.636830 26.979490 45 1
58.724205 208.278000 -24.482147 43 1
8.459642 198.341980 -14.936350 11 1
-70.536964 177.695020 -24.369486 35 1
-29.985197 122.292430 37.927341 3 1
-29.383465 216.870530 9.688305 37 1
-43.888309 222.403580 28.164135 33 1
66.141129 206.176060 -16.373583 43 1
-51.066082 224.264600 6.062315 35 1
-29.684805 170.402110 49.992367 34 1
-70.646896 188.709960 -20.930519 35 1
-57.412724 212.759140 -8.609843 35 1
-65.773819 122.139130 49.426197 45 1
-70.866783 130.316100 35.234047 45 1
-2.351202 228.196270 9.451581 41 1
-10.438263 58.005924 57.745125 25 1
55.904919 109.200420 -22.070030 18 1
4.668034 115.508100 23.324711 0 0
10.961163 152.599850 56.268265 16 1
16.293022 150.242200 53.618057 16 1
24.767660 200.319960 -11.487988 11 1
-66.779259 182.951600 35.100727 31 1
-51.846882 219.359660 37.815331 33 1
25.497396 23.948114 -18.879993 8 1
27.152405 27.616537 -26.022194 8 1
17.297968 196.829560 -18.484808 11 1
-38.773960 35.137058 66.337135 24 1
-5.609391 142.371610 0.946650 0 0
-24.482630 224.231380 1.347879 38 1
-19.402208 143.522370 62.981724 34 1
-67.754410 106.765240 -23.651491 2 1
80.448944 193.237560 -43.672554 43 1
-39.128609 197.678450 51.558826 33 1
-93.979668 190.619450 34.444946 46 1
16.807714 233.898680 51.466690 4 1
-7.847795 95.327171 1.424907 0 0
8.719122 183.111920 -33.229118 11 1
-46.769650 225.575440 -17.272484 36 1
-25.245615 78.601059 40.309025 23 1
-49.386539 198.836900 47.380428 33 1
-1.286851 222.950150 9.246471 41 1
55.375229 173.978780 16.611168 13 1
68.869164 206.020260 -24.940445 43 1
-31.979103 123.861270 34.239986 3 1
-3.588552 59.280396 51.070229 25 1
-27.415041 203.472090 48.633072 33 1
-14.120047 149.442320 58.090321 34 1
-53.907276 124.442860 -4.502407 2 1
41.898701 111.988040 -28.048828 18 1
33.640572 200.882060 -11.829066 13 1
-21.933901 227.832000 -9.254867 38 1
-28.385828 76.093300 35.831665 23 1
-108.144090 175.653580 33.318653 46 1
86.098251 194.202740 -32.763615 43 1
54.124855 160.606350 39.527454 6 1
56.657494 209.084440 -28.561831 43 1
-34.925011 62.610283 40.305714 26 1
-70.706276 115.443080 60.318630 45 1
45.974171 99.814484 2.190529 19 1
90.580925 190.063900 -40.016415 43 1
50.798512 172.716110 27.930933 13 1
49.486122 181.114270 12.556577 13 1
-33.591637 181.430240 31.154346 34 1
-76.011559 218.969150 22.445831 46 1
-36.012417 217.575290 18.360254 33 1
-3.952706 100.936360 0.544492 0 0
-58.958267 208.015520 -13.497334 35 1
-21.125719 160.122330 54.991241 34 1
59.296894 144.489200 91.049683 44 1
-20.388269 143.945940 5.860074 0 0
-14.316297 173.505660 44.170029 34 1
-68.626610 181.540220 44.052307 31 1
34.947208 223.866520 24.865498 15 1
-6.999778 201.743320 44.065086 12 1
91.070305 184.080640 -47.151947 43 1
-30.086908 219.708760 16.238714 37 1
-6.609036 -0.484197 2.855178 0 0
-56.346531 209.466600 -20.815283 35 1
56.023556 150.835800 15.492173 14 1
-9.338902 74.852951 37.058743 29 1
19.416128 210.630630 64.776825 4 1
24.904873 88.290443 -16.533329 0 0
-55.066772 126.582450 49.571529 45 1
45.595089 156.369750 13.458781 14 1
-84.011215 220.311740 25.324446 46 1
-92.569527 199.199200 27.107519 46 1
25.943748 200.750060 -31.323269 11 1
20.669626 171.814790 -1.956843 0 0
6.256246 72.046455 43.636463 30 1
6.129150 198.443050 8.833183 0 0
-5.902008 10.082986 29.323528 5 1
-99.377281 186.380580 35.158810 46 1
21.140152 237.313630 39.287083 4 1
-46.952038 59.209846 45.605145 26 1
-22.913679 64.736969 3.525587 20 1
-42.186371 224.838070 13.819773 33 1
42.187912 199.016040 4.374178 13 1
10.762403 184.167340 -46.304996 11 1
13.020103 75.268669 25.187475 27 1
-51.850723 224.878810 20.946457 33 1
-18.356394 215.491360 3.443224 0 0
-53.897625 221.410570 8.858255 0 0
19.617008 202.541340 -15.566442 11 1
6.704937 135.507580 77.965126 16 1
36.709385 105.048100 -6.848604 19 1
-13.579267 52.693924 9.761022 0 0
-63.551620 125.203050 50.484608 45 1
66.933807 135.435040 11.760948 14 1
32.961048 155.733180 57.491940 44 1
51.241837 205.985280 -15.312965 43 1
-7.723846 202.604160 3.207362 0 0
63.045628 204.810680 -18.907366 43 1
-22.490442 189.271510 13.697656 42 1
62.978573 207.259450 -32.279480 43 1
-67.197052 204.267380 -17.163456 35 1
5.553788 180.994320 -32.963497 11 1
-59.663258 118.895900 -13.720366 2 1
-5.905821 18.947727 2.465337 0 0
15.352135 32.864250 -44.799843 9 1
-41.273571 37.677547 64.083275 24 1
14.370422 202.996690 -14.708031 11 1
0.427259 91.487297 6.077003 0 0
-60.527592 124.722230 53.078285 45 1
51.745605 191.996980 12.839445 13 1
-77.100777 128.905750 42.691032 45 1
86.983833 193.397840 -36.663509 43 1
-29.484512 230.738200 0.208517 36 1
1.034699 22.897173 -8.934600 0 0
42.337788 157.911160 55.910484 44 1
-45.514828 61.854828 41.774574 26 1
-0.783343 17.074305 14.111626 5 1
-39.294800 188.098450 24.671955 31 1
30.861988 154.453340 36.381645 14 1
-73.010132 171.512410 -16.849594 35 1
-8.816115 89.402046 2.342069 0 0
0.521949 219.101880 49.591961 12 1
35.787312 100.217140 9.363899 19 1
29.966864 193.234120 65.621147 4 1
55.057835 92.382912 4.743540 19 1
33.874340 105.473630 -4.054062 19 1
46.126717 200.583820 -3.173665 13 1
-3.589358 181.879970 4.732914 0 0
40.879421 23.807613 -44.521210 1 1
89.281380 194.856450 -30.133522 43 1
-29.500946 189.561100 -28.962816 42 1
18.339788 108.391700 -47.236496 17 1
17.475739 147.012280 63.277824 16 1
61.426067 145.572710 14.679909 14 1
-22.856157 4.011805 3.308619 10 1
-72.889412 195.290890 -6.566857 35 1
-57.640667 126.078420 19.245129 2 1
-48.212883 190.174150 28.358072 31 1
0.512973 229.146450 6.764932 40 1
-50.635666 215.418930 32.035069 33 1
-1.839872 179.399400 -25.592628 11 1
-10.719192 207.805710 36.306267 12 1
-23.602518 60.918926 46.480934 25 1
23.059923 28.960918 -30.439646 1 1
-15.424606 166.195820 1.389919 0 0
-27.375174 2.050059 -2.450078 10 1
40.881767 213.050800 10.001585 15 1
-43.904217 213.597350 28.349525 33 1
2.496149 26.208057 -48.048008 9 1
-62.228329 124.569500 14.436716 2 1
36.246414 224.734050 18.557304 15 1
-14.255326 77.361069 20.233311 28 1
57.525192 169.753830 17.389992 13 1
-81.227768 222.456890 23.844263 46 1
36.447205 192.023900 63.252815 4 1
2.278666 60.711147 -6.156625 0 0
-1.214244 180.369430 1.267690 0 0
-0.568307 75.156410 34.586475 30 1
43.243156 109.968770 -15.517426 18 1
-13.688606 74.283424 50.066090 22 1
-13.655420 7.581295 2.058075 10 1
-14.001358 66.351707 65.016716 22 1
1.704519 135.152860 3.254698 0 0
55.601185 185.900910 10.844771 13 1
32.209351 205.463180 62.372025 4 1
-70.992737 211.018680 -4.013027 35 1
-57.293053 225.676740 10.693388 35 1
-56.310097 187.911470 37.953819 31 1
-8.098091 62.066582 51.540337 25 1
22.550732 111.137830 -37.034027 17 1
17.794067 34.381634 -38.249310 9 1
-3.339898 136.581390 2.830926 0 0
-24.043642 193.741680 -4.591104 42 1
-9.569435 50.330982 3.334565 0 0
-39.556065 229.238970 -11.474897 36 1
-34.335152 41.343155 68.078552 24 1
53.160194 176.757260 21.355801 13 1
36.265820 200.064820 10.438518 13 1
-11.304097 70.628624 3.097593 0 0
80.657509 92.307625 -37.935547 18 1
30.215216 29.912075 -35.925529 1 1
86.547241 187.787380 -41.544361 43 1
-0.288531 48.118759 -0.946691 0 0
-58.583633 205.870420 -19.806004 35 1
-73.836578 115.476340 55.489964 45 1
-47.303936 221.394320 -15.086534 35 1
47.137955 150.309880 80.689011 44 1
10.675596 144.713350 69.489815 16 1
-11.701475 156.036870 55.979527 34 1
-38.458290 200.209500 5.404611 0 0
-31.437750 108.523810 53.238560 3 1
56.399067 111.223660 -33.440704 18 1
-96.634193 195.876430 26.416046 46 1
-65.402344 204.538600 -4.611342 35 1
-78.758621 218.586300 15.617873 46 1
11.624782 199.944760 -17.090145 11 1
-85.214401 209.439530 35.131435 46 1
54.599403 141.897190 94.862221 44 1
-73.723351 178.687150 -14.251686 35 1
-47.911587 217.752660 37.644207 33 1
-69.273605 222.750000 6.528946 46 1
37.455784 157.737270 22.370016 14 1
-24.502644 223.894620 -12.029514 38 1
5.018916 105.327520 16.543266 0 0
7.715290 234.993240 33.964722 12 1
-72.748344 191.700490 -8.465972 35 1
-59.353706 225.404850 2.314709 35 1
38.735783 26.107365 -31.586964 1 1
-47.088245 188.899750 33.757984 31 1
-16.561481 160.987590 54.401077 34 1
50.252678 209.014560 -23.173071 43 1
-90.458923 214.954820 14.819335 46 1
41.932747 202.429210 -8.466371 13 1
27.672365 94.753334 -16.589569 0 0
2.358503 231.770420 30.671579 12 1
-21.034882 74.570374 51.010532 22 1
75.558472 204.212140 -25.655199 43 1
-6.167950 12.625150 10.047409 5 1
-52.172211 126.869060 -10.940641 2 1
-32.299404 194.705340 -15.048644 42 1
-39.134678 210.088380 32.525921 33 1
22.751169 234.917860 42.237568 4 1
-17.783020 110.195290 52.040859 3 1
-28.434460 206.205080 45.924408 33 1
10.756151 182.635030 -42.589153 11 1
97.043915 188.757930 -40.637375 43 1
-101.736660 204.256970 17.964090 46 1
-23.037329 227.457530 7.579707 37 1
-26.424131 53.648930 63.111214 24 1
-52.300293 63.109142 34.480751 26 1
-8.432660 28.335806 -0.190057 0 0
-17.447416 173.509840 37.463070 34 1
-73.986977 189.787110 -14.177957 35 1
56.806263 167.401960 22.636824 13 1
16.458248 102.278690 -58.178112 17 1
52.906319 113.715060 -35.340168 18 1
-4.174290 167.105620 4.398290 0 0
21.976942 26.804607 -21.132938 8 1
-23.224859 152.599660 55.963345 34 1
-1.347073 11.879110 23.861982 5 1
-60.148598 201.289550 -23.052818 35 1
-19.039804 62.875916 -4.275527 20 1
7.007496 111.029100 20.591721 0 0
17.626890 238.834260 17.600842 15 1
17.863482 32.370937 -30.828407 9 1
-7.836152 102.810380 2.003604 0 0
2.923735 168.406620 -46.074890 11 1
-26.107412 61.726292 43.807949 26 1
-25.144661 122.186740 36.606266 3 1
8.751486 209.760700 12.530873 0 0
31.563192 160.242160 25.738195 14 1
-16.943308 47.776024 24.585117 0 0
-54.448944 125.762080 1.953684 2 1
34.875885 198.031070 -16.519747 13 1
-2.122458 164.212680 3.193760 0 0
-111.215190 178.213520 27.200184 46 1
49.129250 155.073430 36.086311 14 1
-27.580366 61.654938 13.137970 21 1
-11.911210 160.093260 54.162117 34 1
-1.901165 72.525307 48.998081 30 1
-32.072613 231.975370 -7.604748 36 1
18.925455 198.386060 -23.654831 11 1
-29.281458 54.677258 53.229576 24 1
4.986808 188.965100 6.079795 0 0
-60.744709 132.276920 30.806870 45 1
-65.083366 221.966060 -6.004470 35 1
-47.060940 223.255310 11.402181 35 1
-42.185978 191.004820 53.739864 33 1
54.423588 107.194240 -15.053366 18 1
-18.302595 71.891144 52.228745 22 1
84.137917 201.603120 -23.686596 43 1
-43.630733 219.123570 17.883430 33 1
-4.763626 184.873830 2.892148 0 0
-48.632820 204.166350 47.165752 33 1
-16.594812 67.995628 20.290510 0 0
-65.136467 185.490430 -23.287811 35 1
11.002691 223.753510 18.314747 0 0
-7.093214 77.028877 3.281569 0 0
-9.006401 76.309875 46.404549 22 1
-27.663273 63.254116 5.060710 7 1
44.751308 157.226440 35.641357 14 1
-28.517435 178.105640 18.363708 0 0
17.329470 30.001568 -21.055948 8 1
16.932915 114.496140 -28.831461 17 1
-67.276672 179.373520 -24.771044 35 1
20.196093 195.919630 -29.565735 11 1
-9.317047 74.894875 41.680229 29 1
-31.261587 201.382800 43.457699 33 1
-22.726814 161.469890 50.892025 34 1
-22.256130 171.442950 49.871571 34 1
-10.340874 215.283020 35.963188 12 1
38.831642 100.715690 4.134803 19 1
-51.838177 190.519610 33.197884 31 1
17.877296 231.685850 46.367168 4 1
-32.329430 196.373340 51.585442 33 1
-106.713360 196.020860 21.237217 46 1
79.948662 191.910740 -39.202183 43 1
-53.338268 222.114350 35.228474 33 1
-23.187155 189.325910 -25.941000 42 1
-28.266539 59.008583 51.289585 24 1
-34.628349 195.724470 46.453655 33 1
-6.337786 31.333633 2.955629 0 0
33.232834 23.590010 -19.017052 8 1
-27.920910 180.601040 15.713795 42 1
-33.156296 181.014740 56.539833 33 1
-39.816822 225.207930 -9.681121 36 1
17.018177 237.658220 47.577293 4 1
-69.264839 182.670030 -17.553596 35 1
82.709877 187.126540 -45.969238 43 1
-60.190235 119.680370 -6.782595 2 1
-20.749933 224.928220 -5.325934 38 1
32.857433 28.165386 -28.772987 1 1
-44.316692 114.515400 47.153088 3 1
-14.992807 154.113510 55.221386 34 1
60.297161 150.796140 25.238262 14 1
45.307480 192.859770 2.348883 13 1
9.408933 213.525360 17.831650 0 0
32.843353 224.020070 21.381840 15 1
-98.678619 180.295120 37.049248 46 1
-1.477514 222.092380 1.711969 39 1
-11.223835 62.997490 44.010456 25 1
22.938011 30.732502 -35.752777 1 1
-31.853336 48.948254 61.412857 24 1
1.074593 218.526720 37.856243 12 1
-27.313282 178.473400 29.777361 34 1
-2.192186 216.927920 5.046261 0 0
-46.951618 127.629800 22.229580 2 1
25.673044 232.704860 26.501955 15 1
37.158516 107.679700 -18.037600 18 1
-6.940467 33.731373 -1.341452 0 0
-2.562377 127.082850 3.204130 0 0
-89.926544 203.627840 25.705963 46 1
-85.822960 117.182020 52.959385 45 1
68.392540 199.457310 -38.024868 43 1
91.737854 185.895050 -41.417362 43 1
-54.621452 190.844920 23.427845 31 1
10.415932 107.938830 17.625521 0 0
4.912784 188.787090 -18.493601 11 1
-18.197796 224.100460 -12.957203 38 1
-31.876148 185.186280 55.043568 33 1
-39.086815 224.134540 20.574816 33 1
58.485046 108.566430 -15.055948 18 1
36.297211 218.543900 16.386084 15 1
-43.530590 210.681520 8.768292 0 0
-46.511993 192.017200 17.423450 31 1
2.167503 95.491394 6.315182 0 0
-35.047714 187.260670 51.245659 33 1
55.586796 203.541310 -19.297863 43 1
-28.583599 213.979110 19.282207 37 1
40.191963 103.437410 -2.274391 19 1
44.514004 17.361063 -45.009483 1 1
37.795708 198.462050 -6.683478 13 1
4.995070 186.140980 -24.978371 11 1
24.968191 231.908710 17.795795 15 1
49.234089 155.480550 25.563066 14 1
38.460533 159.541240 60.840015 44 1
70.629303 205.537400 -17.596319 43 1
-28.058899 184.673650 3.824107 0 0
-50.189663 203.535680 43.311516 33 1
-14.984290 59.870087 11.196455 0 0
-51.693497 219.666430 26.086288 33 1
-26.431889 192.542470 -18.776890 42 1
54.626076 173.210950 22.913603 13 1
-56.376225 128.969210 32.190247 45 1
-6.890143 153.641590 4.997747 0 0
-51.465771 128.475970 16.655376 2 1
32.904350 30.772369 -43.056347 1 1
-37.634697 214.664020 20.116768 33 1
17.043365 237.601300 39.991619 4 1
-80.004471 215.826070 21.681913 46 1
-38.126057 191.566570 48.377190 33 1
-31.665861 193.093120 1.045355 42 1
-16.856630 180.378970 32.100166 34 1
-6.184509 198.252240 49.451290 12 1
-40.332916 189.843490 16.823534 31 1
-62.462990 185.374220 38.975945 31 1
70.497864 203.401580 -34.855034 43 1
-36.248516 66.956001 34.551952 26 1
21.404894 105.233470 -52.578060 17 1
27.956457 188.875240 69.583054 4 1
-41.673038 203.272170 47.929317 33 1
-34.710606 194.643540 -2.114137 42 1
-18.972916 118.121350 42.198799 3 1
-20.907585 170.145160 2.314236 0 0
-10.913793 14.381855 11.933635 5 1
-1.099097 51.270737 63.680630 25 1
-38.373386 51.464241 52.776459 24 1
-0.937040 214.948210 50.185722 12 1
4.115723 232.229770 42.791359 12 1
-39.456089 56.543930 3.616783 7 1
75.052368 200.556530 -36.341049 43 1
-32.652901 221.414150 8.440756 37 1
-45.404907 226.453250 18.150713 33 1
49.729481 161.204730 48.269329 6 1
-16.731543 194.525180 -14.484695 42 1
-0.144294 14.147196 17.609850 5 1
-7.068093 214.276550 6.336478 0 0
6.376297 32.818478 -35.724194 9 1
24.338497 109.801170 -43.392967 17 1
8.616514 150.016880 57.718220 16 1
63.415199 141.144130 95.152992 44 1
21.833979 178.622360 -2.148516 0 0
-42.988091 48.119991 56.114323 24 1
-64.869186 196.987340 -13.824575 35 1
35.343033 201.464770 2.354595 13 1
-30.235388 214.640350 26.441095 33 1
29.392721 210.872830 58.798122 4 1
2.928314 234.215190 38.748581 12 1
-20.490795 222.638780 -23.862007 38 1
32.299416 201.677930 0.309917 13 1
82.577904 196.774990 -30.485828 43 1
-35.386349 194.433440 -18.021017 42 1
55.719398 80.629272 16.799435 19 1
28.193529 151.235150 56.485783 16 1
48.100845 110.704460 -15.557113 18 1
-0.766273 74.796494 28.407373 30 1
20.521172 129.539990 30.420538 0 0
-72.229263 184.380520 -10.699161 35 1
9.585467 220.166150 19.882961 0 0
7.179740 172.811540 -46.692047 11 1
-28.796480 119.298590 42.428940 3 1
-41.497028 216.729100 34.359089 33 1
-51.045090 190.916460 22.619011 31 1
-113.665710 177.215180 29.650721 46 1
-43.900215 223.400480 -12.796988 36 1
-21.131763 180.941280 28.394188 34 1
-17.706453 187.420550 11.947160 42 1
-58.793709 117.074830 -19.208269 2 1
11.281774 69.176628 13.398074 0 0
-3.129905 126.940860 83.078201 16 1
25.789549 11.521819 -11.004866 8 1
-24.800722 57.608593 57.883789 24 1
39.009003 194.948470 5.420714 13 1
21.473680 233.775800 24.028971 15 1
-55.016712 120.293690 -20.880394 2 1
31.319567 191.598770 -9.198710 0 0
-74.700394 126.108150 45.672066 45 1
-43.432159 130.698880 13.935420 2 1
-19.220020 183.592330 25.283230 34 1
37.433159 106.176700 -13.603319 19 1
26.814522 234.016040 46.793453 4 1
35.555367 162.722030 63.795250 44 1
-57.983925 188.458820 41.082386 31 1
4.311051 236.615570 28.047039 12 1
23.544701 149.055080 60.535515 16 1
-69.579124 192.872250 -11.119727 35 1
46.879780 176.923490 23.403757 13 1
58.202923 142.709630 2.840573 14 1
-13.332850 13.152637 23.064966 5 1
-54.899822 126.199750 13.683759 2 1
-72.576141 180.617610 -19.408373 35 1
-16.999262 192.661850 -2.174953 42 1
62.090244 207.253630 -14.368817 43 1
-35.447674 55.562954 49.538246 24 1
-21.566017 155.936200 11.954334 0 0
-63.814850 118.564000 -7.857679 2 1
-38.470547 227.483060 -5.149238 36 1
-72.275002 223.274440 24.691410 46 1
-54.367123 225.940400 4.545838 35 1
-4.779223 231.916140 29.210014 12 1
17.255301 83.005676 -13.540643 0 0
-65.788506 208.708940 -15.827901 35 1
17.759613 193.652100 -27.718754 11 1
50.027248 157.739230 64.126610 44 1
-28.208508 193.509120 50.584438 33 1
10.217882 112.800550 -42.398670 17 1
-36.123886 198.760070 3.114516 0 0
11.203440 147.563220 62.437435 16 1
16.136539 110.847340 -44.327271 17 1
-34.901558 230.487840 -4.021880 36 1
14.217342 34.257706 -40.466503 9 1
-89.277954 168.211850 44.689102 31 1
-52.502357 187.513750 27.927723 31 1
4.629899 192.322740 10.134356 0 0
-15.680321 59.803062 53.430878 25 1
-1.414362 226.476840 -1.338794 39 1
45.506977 157.845610 57.888889 44 1
28.246025 110.389820 -38.445946 17 1
-45.166965 224.805560 -5.907424 36 1
-18.987051 7.355072 -8.886971 10 1
16.818161 240.584340 23.263063 15 1
76.153450 102.588650 -29.881771 18 1
11.418293 132.310730 78.021812 16 1
34.321285 199.536220 -6.237094 13 1
20.769209 17.712587 -10.916505 8 1
-115.419240 173.683590 31.589613 46 1
-38.565662 62.613541 39.669594 26 1
21.426262 151.092480 58.474693 16 1
24.546072 106.943130 -49.315819 17 1
-29.110678 187.889540 16.294565 42 1
-86.455505 218.895490 23.148865 46 1
7.621280 69.873680 12.892114 0 0
-24.946575 104.921070 56.063263 3 1
40.530087 24.263121 -37.640759 1 1
30.779398 104.065930 -0.568813 19 1
-1.871587 63.836365 47.281185 25 1
-22.143669 146.895600 9.498989 0 0
75.810471 202.598770 -30.021385 43 1
42.068954 108.020710 -12.777407 18 1
40.159946 215.550200 13.647864 15 1
1.309408 57.140678 56.643650 25 1
5.724066 64.643112 -6.950745 0 0
-103.359950 180.728760 33.244171 46 1
-16.634295 218.373280 -25.458282 38 1
-17.648029 188.433210 7.967632 42 1
31.518280 199.194060 -16.318914 13 1
2.425635 222.664520 43.511288 12 1
-16.933968 73.573441 27.854225 0 0
6.633098 69.603241 16.487394 0 0
-0.673037 183.088420 -23.954569 11 1
-46.369911 209.412720 35.194057 33 1
72.986389 104.570210 -24.633333 18 1
53.799164 194.977710 5.056250 13 1
23.871372 237.002110 18.884674 15 1
-17.522579 214.399410 -29.494940 38 1
-49.604206 221.207530 7.138090 35 1
-34.178852 213.015290 19.594860 37 1
42.133595 156.803480 24.893642 14 1
-41.985104 185.120700 19.650311 31 1
-30.761522 70.505249 36.728912 23 1
-23.019894 76.372414 37.085007 23 1
30.862326 103.576430 -20.268299 18 1
66.031502 201.404850 -28.572512 43 1
-62.886448 194.477160 -22.147064 35 1
70.271935 106.311630 -28.265047 18 1
-1.832644 177.154910 -32.044231 11 1
62.152557 111.043600 -26.370316 18 1
-9.571361 49.334763 6.807631 0 0
-52.432377 216.034520 -13.756987 35 1
-23.270559 193.034910 -11.422368 42 1
-26.216406 58.768562 19.401554 21 1
2.036664 229.254390 43.203159 12 1
-49.156502 221.886870 -4.453545 35 1
40.776848 152.873750 77.917892 44 1
59.868446 208.349430 -19.224710 43 1
-79.169968 180.028310 34.026161 31 1
-96.011276 207.964890 23.734219 46 1
58.563606 151.750760 21.721535 14 1
-93.956406 95.645805 65.901085 45 1
19.356167 240.949400 30.205654 15 1
39.984230 108.922780 -23.820187 18 1
-34.062641 217.653780 12.391075 37 1
-13.936834 61.859543 47.749119 25 1
39.352077 200.003370 -0.861259 13 1
0.710907 179.409590 -29.367950 11 1
75.270966 206.651110 -19.431284 43 1
-10.151941 173.713180 42.415699 34 1
83.393761 93.939156 -31.555752 18 1
-49.060112 220.628590 -8.386235 35 1
-10.723021 71.695396 -0.947602 0 0
6.279775 142.731020 69.075150 16 1
-37.177830 194.847430 8.299667 42 1
67.601578 136.188390 7.843750 14 1
13.635383 232.804990 50.134193 4 1
-35.577675 123.439000 33.938816 3 1
7.543023 33.708218 -39.843937 9 1
-30.731426 61.433273 -0.570520 7 1
7.831597 147.399080 65.707802 16 1
-6.646996 84.944427 2.143525 0 0
-34.937744 198.350250 -7.614663 42 1
-5.318001 213.738770 1.548330 0 0
-1.605154 233.026610 35.037876 12 1
-24.494690 228.584030 -2.447944 38 1
29.292749 233.162060 12.937187 15 1
65.354454 207.599460 -21.605186 43 1
-30.473759 179.176060 32.921658 34 1
-50.845448 218.290620 11.872360 0 0
-6.151324 65.148132 2.537847 0 0
-80.681488 118.910110 50.326813 45 1
28.683645 199.395070 -24.865141 11 1
-68.375732 222.015440 0.691381 35 1
39.176727 200.065630 6.142494 13 1
10.454972 76.554047 27.911150 27 1
38.477345 200.370150 62.249874 4 1
-32.189137 58.619438 5.296474 7 1
-34.422821 212.142460 34.506180 33 1
1.276579 231.669450 -1.741049 39 1
-103.335090 188.068240 26.562954 46 1
-65.823051 193.733980 -24.981888 35 1
27.183556 33.237488 -38.533169 1 1
-60.338318 226.268940 14.323437 35 1
-30.327412 187.606890 -26.149776 42 1
60.308437 108.390720 -20.057499 18 1
4.382279 229.189070 9.147300 40 1
4.110454 103.753270 9.012441 0 0
6.348713 109.868390 15.549644 0 0
22.837906 235.332860 15.471393 15 1
-16.573095 72.485977 23.662710 0 0
26.947218 150.855240 61.259098 16 1
-13.624256 76.772110 33.770515 29 1
-25.753937 189.564220 12.377857 42 1
12.741396 191.111250 -42.204853 11 1
5.037355 168.839130 -49.122868 11 1
-10.303735 76.612663 -1.030047 0 0
-14.902047 58.608612 57.063934 25 1
40.573925 200.934270 -16.683283 13 1
-55.392452 193.410960 15.344872 31 1
-26.034351 181.863370 23.143330 34 1
7.356898 238.833300 30.115280 12 1
11.472355 236.614210 31.641840 12 1
36.194492 156.910280 62.868027 44 1
6.458721 99.680061 7.491890 32 1
-7.102777 45.950596 -0.667618 0 0
-74.580620 121.866810 51.225018 45 1
-99.531342 193.943980 25.981876 46 1
47.825661 110.585750 -25.674561 18 1
-88.342430 215.629030 27.052809 46 1
77.142250 193.821760 -41.143021 43 1
-65.045372 110.906420 -17.505939 2 1
-88.336830 212.310810 18.743969 46 1
19.698727 200.296130 -18.795322 11 1
16.412998 76.109169 26.329247 27 1
-4.398422 76.763901 39.465260 29 1
78.764618 196.032260 -33.420761 43 1
45.478981 197.954270 10.109516 13 1
-10.431769 11.052919 28.516485 5 1
21.032755 145.678710 70.256157 16 1
-66.620667 121.939640 2.116959 2 1
16.034058 148.717130 59.830547 16 1
-22.239767 187.636120 -31.244654 42 1
-20.644234 176.171970 37.927013 34 1
57.673550 154.381530 73.246910 44 1
23.204836 155.114840 45.851768 16 1
-66.292915 129.655030 40.789207 45 1
-0.280237 212.830610 47.449974 12 1
-19.355492 175.621120 33.935097 34 1
-31.126921 179.863310 20.663900 34 1
-7.871746 16.609711 -1.413774 0 0
56.413406 203.647080 -25.254776 43 1
9.369460 147.682860 5.732738 0 0
10.347998 183.031400 -36.350323 11 1
49.107948 188.386230 19.451706 13 1
-92.104713 163.217710 42.241959 31 1
-102.925420 195.628230 23.476143 46 1
44.264130 108.903630 -22.133644 18 1
54.553642 153.569850 22.032530 14 1
38.666355 221.256970 19.991261 15 1
9.417336 101.657800 7.149204 32 1
6.459572 177.246400 -38.715302 11 1
-92.771507 194.502200 31.985283 46 1
-54.961559 122.110890 -16.001188 2 1
21.352814 110.673790 -40.278114 17 1
-36.642242 179.384160 56.270199 33 1
44.190102 158.149290 20.615135 14 1
-27.106829 78.175766 33.342632 23 1
-29.958519 179.536830 25.648964 34 1
-1.591898 224.241060 42.441315 12 1
29.183138 30.555559 -28.888302 1 1
23.511181 238.288670 28.523668 15 1
-19.805569 61.111069 65.831139 22 1
-110.083630 178.224090 31.985060 46 1
-78.451431 225.914660 10.210669 46 1
-19.493410 77.256317 37.097172 29 1
-9.210003 14.649023 15.670395 5 1
9.627615 130.096130 81.275978 16 1
32.294823 109.173490 -29.936069 17 1
12.791105 117.642790 21.332438 0 0
-26.304211 57.517174 48.306873 24 1
27.813370 215.107770 56.715805 4 1
-75.395302 167.014370 -18.886724 35 1
49.220913 202.968280 -22.279537 43 1
-17.356472 77.458298 47.399498 22 1
-64.602425 226.083600 10.560953 35 1
-17.751780 115.651860 46.551704 3 1
67.319588 108.166400 -26.838619 18 1
-100.987120 192.180330 30.052134 46 1
12.608977 113.792410 -33.965481 17 1
-82.906914 215.802020 32.627750 46 1
-20.932604 100.685460 61.789734 3 1
-37.769886 200.292220 -2.172673 42 1
19.595913 86.825775 -13.763933 0 0
-85.215202 221.384260 18.227625 46 1
-18.154821 78.721657 40.635620 23 1
-9.523082 39.489048 4.921647 0 0
-17.730793 228.332050 -11.636333 38 1
-70.531815 124.800030 48.912277 45 1
76.308655 103.511920 -26.534716 18 1
-5.171808 215.015720 36.336426 12 1
-73.242592 207.468920 -8.843697 35 1
52.581280 160.114470 46.446514 6 1
12.610543 186.332140 -36.754578 11 1
51.202782 152.919390 13.903966 14 1
-16.072720 68.419731 61.382553 22 1
8.723327 213.087490 13.800803 0 0
-7.993320 39.751217 -0.080290 0 0
-3.331602 88.447769 0.750420 0 0
51.675377 145.337400 94.045631 44 1
36.910725 28.684263 -37.596012 1 1
-19.961952 5.610607 -5.129364 10 1
22.181704 151.493700 50.559811 16 1
-25.230871 191.958480 -27.621763 42 1
-32.601124 115.912250 46.141460 3 1
12.750784 111.510040 -44.757072 17 1
22.498865 237.264560 34.369625 15 1
99.274612 179.382920 -47.978531 43 1
-37.891785 214.328380 26.623703 33 1
-65.894836 127.296690 45.166821 45 1
-51.326004 129.709400 -0.012237 2 1
52.618046 111.195970 -28.538296 18 1
-61.469658 202.195190 -16.268116 35 1
-30.009254 228.934910 -3.882823 36 1
3.206200 172.345920 -39.931999 11 1
1.053071 26.958136 -5.184143 0 0
-29.386517 190.966570 -23.937531 42 1
44.253807 182.466870 21.784515 13 1
2.268770 144.339080 69.502892 16 1
2.841911 54.914368 4.475245 0 0
-84.629707 217.234660 15.362644 46 1
4.772164 29.092764 -44.406025 9 1
-3.619237 69.455154 1.869571 0 0
-53.918728 223.259920 18.090767 33 1
-45.730736 219.708820 34.252029 33 1
-4.369869 54.116306 2.093110 0 0
38.293507 202.202220 14.762267 13 1
47.458645 203.291690 -5.107354 13 1
-32.772781 192.168560 12.189340 42 1
-4.790577 122.337810 2.577940 0 0
-5.046870 49.647659 2.684885 0 0
-11.743956 207.231230 42.537495 12 1
90.202705 191.705340 -36.917923 43 1
61.435024 161.161930 36.853947 6 1
-25.603632 59.469154 41.250381 26 1
-83.575081 220.120880 29.976284 46 1
-58.993477 223.664110 16.707792 35 1
-35.158058 52.436153 53.604321 24 1
-112.896640 166.847460 36.549839 46 1
-89.169563 109.402340 57.505222 45 1
-20.450148 217.389080 -30.521774 38 1
-68.914833 190.386760 -13.903200 35 1
-56.912296 210.798430 -14.659133 35 1
0.165261 135.268550 75.978691 16 1
-22.237524 226.965670 -13.860407 38 1
8.777861 74.078163 24.217459 27 1
-12.069869 77.911659 46.421398 22 1
-79.722412 174.085170 43.999428 31 1
-22.767340 115.362170 45.445625 3 1
1.729919 61.029854 50.776905 25 1
43.373516 207.184340 18.014000 15 1
-58.393040 224.443070 -7.874271 35 1
29.143099 227.795580 16.721165 15 1
38.881645 98.301552 14.974162 19 1
53.943153 152.465680 75.162071 44 1
30.333298 105.655640 -15.234239 19 1
-3.592443 114.172510 3.221113 0 0
-42.274990 42.262417 63.681786 24 1
39.826855 210.837220 56.389576 4 1
-28.098570 77.066284 39.164742 23 1
-104.321950 178.471340 36.705330 46 1
-49.046421 224.403630 23.633337 33 1
-32.988792 44.943283 66.444557 24 1
-42.120003 211.170820 31.217342 33 1
-8.021901 62.976139 45.252747 25 1
-25.240257 179.393340 0.897029 0 0
-67.250572 217.392520 -10.880481 35 1
-19.850885 63.389687 62.554699 22 1
-16.304836 44.331734 19.086582 0 0
-64.067528 122.958850 8.199348 2 1
56.575756 207.497150 -31.604111 43 1
4.961940 228.387990 35.622379 12 1
-78.593071 225.743670 15.546972 46 1
-73.458420 223.692380 7.093513 46 1
-9.979252 34.744217 4.396582 0 0
-31.951298 186.645830 12.898526 42 1
51.100636 200.430710 -0.044328 13 1
-28.947790 115.615490 47.060368 3 1
-37.640430 196.095500 -6.246039 42 1
6.305244 177.567950 -42.715195 11 1
-28.331869 229.301350 3.136796 37 1
70.429855 201.743060 -26.025770 43 1
-10.924488 76.849113 21.060843 28 1
22.950165 203.747150 -11.746489 11 1
-8.275170 216.770660 41.470776 12 1
35.695400 154.554210 38.032745 14 1
-25.913811 164.311110 14.358142 0 0
13.223122 34.688831 -29.393639 9 1
-29.558161 183.314700 -35.217876 42 1
34.661140 196.454090 63.029816 4 1
-35.131107 203.522930 48.157288 33 1
-13.783020 76.170036 28.331823 0 0
56.334442 174.857890 19.781567 13 1
-41.282833 189.454150 21.641521 31 1
41.587379 193.115160 19.139729 13 1
-51.916142 128.029420 29.663948 45 1
69.586487 106.558750 -21.355770 18 1
-7.045641 207.909940 2.625148 0 0
7.777335 72.877785 40.656921 29 1
-72.058372 175.014530 -13.568082 35 1
-60.998066 205.842800 -10.374327 35 1
0.792490 140.345730 72.606468 16 1
-26.707235 224.228030 11.112003 37 1
-12.708694 37.748730 10.251080 0 0
-62.929134 211.118090 -3.343126 35 1
-44.662956 193.652600 48.213364 33 1
-20.179783 218.422390 -24.173908 38 1
78.706688 204.698010 -21.840626 43 1
-80.992332 114.858330 56.289215 45 1
-42.741238 196.872830 51.800957 33 1
-34.256710 66.658897 37.801693 26 1
-20.260473 192.982890 -25.348354 42 1
-49.563389 128.194810 -8.945749 2 1
1.800261 74.380188 43.285812 29 1
66.053497 140.453450 17.318022 14 1
76.200287 99.988335 -35.376278 18 1
21.481833 237.497680 45.699543 4 1
-58.242428 124.917480 7.869480 2 1
81.350571 196.328640 -36.663006 43 1
-32.042049 211.012440 32.123077 33 1
-4.918950 98.046074 -0.988531 0 0
-72.975121 221.676300 13.824306 46 1
-4.995433 14.030897 2.152329 0 0
-50.142769 222.421010 32.575417 33 1
23.216043 152.597440 43.558929 16 1
-45.806877 189.622530 13.682112 31 1
27.051605 201.362010 -19.400805 11 1
-67.499451 224.216550 12.682456 46 1
-5.195008 204.887220 50.243938 12 1
59.245003 139.688600 95.959129 44 1
45.078999 194.704100 21.135782 13 1
-22.754335 226.988200 4.118336 37 1
5.807008 57.315151 54.956486 25 1
6.892516 64.942764 10.710113 0 0
5.099591 75.572281 24.459171 27 1
33.194370 153.696750 40.851273 14 1
-2.347157 24.109629 -3.186821 0 0
-25.174885 221.222210 6.153741 37 1
-28.604885 224.254560 -0.458458 38 1
-11.228271 74.560051 52.431046 22 1
51.846081 208.498150 -28.754202 43 1
-21.973238 159.720790 13.703948 0 0
68.054878 209.134600 -13.598925 43 1
-72.458969 208.171680 -5.144163 35 1
16.638807 231.456800 54.160755 4 1
-22.567841 173.187990 1.950006 0 0
0.240661 207.704610 49.821980 12 1
-68.364723 184.051860 41.205471 31 1
-41.078545 229.234800 -14.661188 36 1
-66.846352 119.218550 58.307705 45 1
-4.854099 148.015880 3.756380 0 0
8.295357 237.225200 24.762136 12 1
79.366814 190.030260 -44.157604 43 1
-2.979418 50.087761 -1.565107 0 0
31.804384 186.776280 65.133781 4 1
-22.021984 58.016293 50.631138 25 1
8.357213 103.543080 13.002226 0 0
53.114555 97.379448 2.333611 19 1
47.186207 187.963330 22.254826 13 1
3.693853 127.280730 83.087837 16 1
-29.705845 125.868130 32.655197 3 1
36.296429 102.263740 6.615072 19 1
-22.993494 186.414780 9.032084 42 1
-3.645949 154.142520 0.991813 0 0
-51.889412 225.182690 -6.565413 35 1
95.729416 183.944500 -46.305386 43 1
-32.751247 196.720350 1.044367 42 1
39.728760 155.166700 34.488831 14 1
31.509741 228.702800 49.825737 4 1
51.023643 112.284070 -32.140125 18 1
29.509979 152.682750 45.710163 16 1
-15.463777 191.900880 7.737646 42 1
50.340588 156.775500 32.024792 14 1
86.143036 191.142820 -41.663387 43 1
-38.875847 197.680860 0.458939 42 1
15.738001 237.067170 35.035568 12 1
54.725983 177.868150 11.870291 13 1
-37.586559 45.100151 63.672237 24 1
1.364657 131.910510 4.142416 0 0
-41.072517 209.981920 42.324577 33 1
-29.968159 177.639450 35.885639 34 1
-41.741077 223.715000 25.454290 33 1
57.815922 111.904270 -23.252926 18 1
-27.101997 167.853230 49.037815 34 1
38.766815 156.036830 43.805016 14 1
58.661282 111.974410 -27.840563 18 1
-15.726724 12.229126 18.873070 5 1
-46.806404 224.524150 -10.151091 36 1
-18.538288 224.666490 -0.843741 38 1
31.934414 199.690170 -2.533118 13 1
-33.305645 178.758590 -39.120609 42 1
22.553165 86.148697 -15.300657 0 0
41.877270 190.530290 15.749940 13 1
-19.677513 190.399150 10.407726 42 1
-17.410299 67.984474 24.999029 0 0
-35.856838 190.995940 9.617212 42 1
-50.993656 223.401550 -14.693090 36 1
47.252163 113.847970 -31.085213 18 1
79.676994 98.845688 -29.784414 18 1
41.985043 107.431550 -17.951279 18 1
-112.786740 183.717590 22.771959 46 1
-81.082832 177.259230 38.562531 31 1
-62.857445 187.202360 25.696325 31 1
-71.247704 217.240840 -3.272053 35 1
-21.723782 106.763560 54.681179 3 1
42.383595 189.589750 9.212575 13 1
-30.166986 49.846542 64.178215 24 1
-29.835493 208.740020 40.812317 33 1
-1.139022 105.105850 11.423887 0 0
-29.542446 192.323530 -10.400415 42 1
-5.030939 14.560341 19.362303 5 1
48.258480 186.727810 8.039473 13 1
-46.865768 131.069950 -4.399279 2 1
-16.135765 84.779160 2.190575 0 0
-3.424370 71.286263 45.152367 29 1
28.870371 33.376534 -35.250721 1 1
-63.982914 200.876420 -6.917682 35 1
-3.739316 84.988998 4.217896 0 0
-39.355675 49.078705 54.935165 24 1
-15.348908 55.633415 9.788112 0 0
-3.033046 194.524460 51.378571 12 1
2.063441 187.992840 -24.391195 11 1
-24.206387 61.026520 8.268000 21 1
39.527569 27.547781 -28.591116 1 1
-50.049850 131.022230 4.352224 2 1
-85.211044 207.278470 28.237856 46 1
-21.841633 92.842354 66.934204 3 1
-71.713837 182.084150 40.088741 31 1
12.301338 150.225590 60.374550 16 1
-57.537071 189.990260 27.242655 31 1
-29.408390 96.744896 12.462504 0 0
-11.505013 205.467160 0.107631 0 0
59.997398 151.215300 77.766052 44 1
-86.018539 103.407940 62.146343 45 1
19.402111 236.298580 18.871372 15 1
1.503565 171.219480 -44.553295 11 1
7.475305 124.487380 83.345268 16 1
6.094989 139.593000 4.882569 0 0
19.265703 25.790134 -16.468925 8 1
12.294955 161.096730 6.071485 0 0
-28.033424 215.615160 12.505252 37 1
82.076103 200.033070 -29.927809 43 1
41.819607 98.982285 9.556418 19 1
-48.292412 131.299710 8.298949 2 1
-22.884258 181.274570 25.514416 34 1
-30.271708 198.825320 45.988819 33 1
-30.769184 231.488270 -11.832720 36 1
39.551807 157.394420 68.452942 44 1
-87.093842 203.905000 39.920746 46 1
-19.353676 122.274800 37.771774 3 1
-75.679199 226.217620 21.365387 46 1
62.551888 108.710450 -37.137604 18 1
-73.250687 201.823650 -5.324864 35 1
35.550964 159.532060 57.524460 44 1
-79.450264 215.084590 28.260750 46 1
32.025444 104.447140 -11.100671 19 1
-32.398529 118.637850 42.813927 3 1
-1.734721 164.220230 -48.852139 11 1
-26.101805 2.851209 3.570390 10 1
-7.673102 198.546880 0.402835 0 0
5.017466 174.735750 -44.535725 11 1
64.424202 201.972350 -33.872051 43 1
-45.614311 64.420425 36.995850 26 1
-88.999893 207.346390 36.438950 46 1
20.465948 33.673351 -40.676376 9 1
17.839752 194.925920 -22.180771 11 1
61.495914 108.163090 -16.954443 18 1
-74.284622 188.481990 -7.866214 35 1
-36.267372 193.264590 -14.809828 42 1
63.810482 110.711560 -23.015282 18 1
-23.484579 4.947030 -9.095097 10 1
57.200722 177.990420 14.522239 13 1
-0.136209 165.810670 -51.745586 11 1
-25.767700 178.455350 20.320679 34 1
-62.974072 113.255430 -16.202400 2 1
-5.526133 110.764800 3.382493 0 0
-4.145835 229.050290 30.915483 12 1
-25.906174 217.324540 17.166128 37 1
46.899460 162.573970 44.494610 6 1
-5.137026 159.374440 3.327542 0 0
-85.275642 213.530790 19.546782 46 1
-11.785707 176.807540 37.246159 34 1
-103.733920 191.768970 24.882774 46 1
-17.776642 61.119064 47.833515 25 1
-24.258444 63.857151 10.256666 21 1
43.925831 20.714615 -42.489037 1 1
50.603542 183.401690 19.785551 13 1
-86.921341 210.457170 38.233593 46 1
56.262161 182.449980 10.193984 13 1
-23.624039 222.963100 14.476850 37 1
-21.814098 193.669270 -21.873741 42 1
-95.552597 204.793000 26.956436 46 1
31.111618 153.080900 50.498528 16 1
-12.448571 168.521220 49.617512 34 1
31.775192 17.477005 -16.114653 8 1
85.566772 185.869550 -44.294586 43 1
7.281627 54.030380 57.940582 25 1
-50.068195 190.074040 13.803667 31 1
-95.009804 213.211910 18.605846 46 1
81.310036 202.250150 -26.220181 43 1
45.853981 98.510475 5.262518 19 1
50.154644 93.638107 7.043555 19 1
57.819744 165.678910 27.264820 13 1
4.404127 185.890930 -31.676773 11 1
-18.204103 225.053990 -22.124878 38 1
-0.931966 77.036530 18.430660 28 1
-11.438040 150.858550 59.508339 34 1
40.599377 105.117900 -15.579089 19 1
-4.944746 3.870733 2.026918 0 0
19.249317 231.731200 51.990593 4 1
-38.954350 54.950787 0.666122 7 1
-6.827767 193.563570 50.528435 12 1
-25.192850 188.361430 -33.148296 42 1
22.594522 235.082640 47.723461 4 1
-51.792019 127.944710 21.709974 2 1
-28.170509 60.395580 3.415696 7 1
-31.276875 190.192900 55.335808 33 1
34.040596 229.008350 23.277813 15 1
-11.434662 78.561943 40.210617 29 1
48.613003 154.901120 15.363136 14 1
-13.960065 113.489750 50.048515 3 1
-15.331371 192.803510 1.551446 42 1
56.672749 147.801380 5.990093 14 1
44.389191 149.007250 86.068802 44 1
-99.818550 189.045970 29.529495 46 1
56.980423 156.113600 70.358139 44 1
-14.241098 177.907930 35.335434 34 1
-79.581551 126.845450 41.992115 45 1
9.857367 194.932020 -16.422913 11 1
-0.198419 228.946930 31.534777 12 1
-2.510112 171.905610 0.847560 0 0
-3.602882 194.042400 1.720168 0 0
-43.490788 133.444790 3.776702 2 1
-73.055046 129.608380 41.237747 45 1
16.320112 120.825930 25.548914 0 0
-13.401779 72.389618 29.676332 0 0
-5.397083 13.166071 24.944300 5 1
-22.610922 119.213350 43.096436 3 1
-40.565514 187.755720 53.114902 33 1
-6.877406 76.915276 42.845261 29 1
26.737717 188.427990 -8.675255 0 0
-10.048138 220.278290 36.724701 12 1
36.467953 217.734360 10.911363 15 1
-83.550858 223.678680 11.289465 46 1
-48.794262 223.466130 27.634974 33 1
-56.067314 222.327210 12.468227 0 0
34.034462 204.165180 -17.868004 11 1
-15.211480 146.810820 61.859718 34 1
4.849745 136.106230 75.318405 16 1
58.655861 206.455290 -14.829150 43 1
56.923370 111.332350 -19.594288 18 1
-40.857250 197.851960 44.540588 33 1
-29.285076 186.860610 5.947482 42 1
4.732760 92.695694 7.312140 0 0
-21.767811 63.722511 0.520258 20 1
-7.698443 12.987701 28.355318 5 1
29.115562 35.667992 -43.634075 1 1
70.705276 201.854060 -41.431801 43 1
-39.183075 66.888824 36.215660 26 1
-41.177536 185.836070 50.135426 33 1
-3.236272 121.010910 -0.158570 0 0
-90.309990 216.680440 20.412798 46 1
-43.187969 185.946820 23.734373 31 1
29.739473 201.830600 -15.509225 11 1
-107.308460 179.467830 30.751802 46 1
-41.058914 46.245270 60.442402 24 1
45.885365 95.860428 10.865906 19 1
-109.606670 187.162900 22.033360 46 1
-9.988778 13.826466 24.699850 5 1
-3.439527 106.644090 0.981034 0 0
8.196292 194.934910 -20.899069 11 1
-46.688374 226.494510 11.056898 33 1
23.163305 217.911620 56.785114 4 1
-7.326024 58.528500 56.048447 25 1
53.149624 109.870800 -23.783731 18 1
47.037464 182.782200 14.146463 13 1
32.421284 102.382550 1.728501 19 1
-2.438285 214.132520 41.390354 12 1
-43.074520 126.336790 25.151226 3 1
26.113640 18.449530 -14.401413 8 1
-9.254326 105.890230 1.675496 0 0
-22.701885 220.199070 -21.613667 38 1
9.209290 33.528244 -32.871029 9 1
-5.065210 78.494873 35.470406 29 1
62.927330 111.136670 -18.879114 18 1
43.010155 157.255310 40.598942 14 1
-5.283517 225.963700 37.202618 12 1
23.158209 226.261320 49.754932 4 1
-32.949909 57.087746 48.075520 24 1
29.593496 24.575550 -21.406017 8 1
-59.546345 205.408810 -16.714357 35 1
0.822424 50.193829 2.257239 0 0
2.880738 233.491760 10.363059 40 1
-53.801716 225.107010 29.020716 33 1
5.191022 131.263240 80.467422 16 1
16.010241 32.113316 -34.417912 9 1
-56.392288 222.856610 34.333408 33 1
-68.981537 114.517400 -7.220684 2 1
-113.300680 180.462360 24.133711 46 1
-22.079760 218.476060 -27.750776 38 1
25.104626 205.528240 65.138222 4 1
31.225157 152.141740 57.314144 16 1
51.387966 150.822010 6.517533 14 1
61.893444 139.131060 3.124333 14 1
-4.123766 228.194580 12.712111 41 1
-65.468155 213.727190 -13.062196 35 1
15.184263 230.385530 47.979843 4 1
-1.638945 171.276090 -35.262981 11 1
-25.174696 227.927900 -8.622440 38 1
-39.430668 212.411960 37.658642 33 1
-52.727646 221.978230 -17.530006 36 1
12.495578 31.607416 -45.927223 9 1
-4.701591 27.711998 0.648137 0 0
-39.908173 181.567870 53.027378 33 1
18.932913 150.883030 51.796013 16 1
-18.580732 145.783460 60.595528 34 1
9.733149 31.077871 -44.164040 9 1
4.626984 95.690361 3.580483 0 0
13.994797 107.746620 -50.192478 17 1
36.155560 102.203480 -0.086084 19 1
-71.038223 213.649890 -8.274370 35 1
41.032043 192.044270 11.472050 13 1
38.569622 99.126411 10.874907 19 1
91.990021 186.539830 -45.205746 43 1
-75.365395 193.807130 -10.257383 35 1
26.481384 225.948550 48.187145 4 1
67.000732 106.649720 -41.162807 18 1
-5.374683 109.658630 -0.583995 0 0
-63.859940 130.452850 31.112787 45 1
-91.235588 100.572430 62.469223 45 1
-21.980505 79.453995 37.062588 23 1
21.080359 135.069530 31.393379 0 0
-44.224045 201.349880 42.820499 33 1
-7.325850 1.057310 -1.010608 0 0
-68.646606 119.695030 52.313580 45 1
-28.521671 171.480900 46.688740 34 1
53.745964 152.889800 16.563637 14 1
16.588415 154.892820 49.853256 16 1
27.595657 225.328190 53.360558 4 1
33.148014 197.829380 -9.959654 13 1
19.167315 153.653500 43.717697 16 1
20.626280 221.953370 59.497177 4 1
51.296432 194.799070 1.305817 13 1
-62.558270 198.964520 -26.625645 35 1
-67.805016 117.477270 -2.354191 2 1
-53.800621 126.526370 10.646695 2 1
13.626942 236.632020 46.719688 4 1
13.533084 191.219730 -25.244005 11 1
42.502869 206.545390 12.925451 15 1
-104.668120 185.142850 27.524143 46 1
5.544125 96.579155 10.023004 0 0
-88.382225 95.146301 68.418617 45 1
5.249731 230.726650 33.002209 12 1
10.217333 139.392960 74.961067 16 1
5.643673 74.901443 30.017570 30 1
-76.389999 180.101670 37.996193 31 1
-6.447446 211.560440 36.892773 12 1
-19.135344 53.815464 32.442329 0 0
57.967125 153.382980 27.730844 14 1
-28.773361 180.626660 -38.471706 42 1
69.586815 132.654970 6.518309 14 1
-6.911024 219.118590 2.218540 0 0
-103.785710 202.906780 20.374939 46 1
-48.053940 194.942960 48.366318 33 1
-14.985727 152.618530 58.095520 34 1
-69.861649 111.652500 -12.895905 2 1
-10.477175 168.456510 45.037975 34 1
-18.813524 227.956940 -5.084411 38 1
-23.346724 5.747066 -2.306844 10 1
-33.398361 188.519230 -30.102774 42 1
-27.043192 230.356740 -3.596009 36 1
32.353844 29.803879 -38.351517 1 1
-4.299246 210.528810 41.943935 12 1
83.972267 196.862760 -33.403805 43 1
7.521691 103.794510 8.668174 32 1
-9.399513 225.773940 32.891602 12 1
-54.221256 223.608570 -10.934383 35 1
-62.213512 224.475520 -4.204396 35 1
12.726168 103.494920 6.237683 32 1
-2.029417 123.719750 3.628065 0 0
-7.791526 159.757810 53.047211 34 1
-28.535074 113.495960 49.464260 3 1
53.438778 170.512450 27.420929 13 1
-65.011559 184.084060 40.484894 31 1
-31.874525 62.225624 41.324867 26 1
95.984291 185.412720 -42.162773 43 1
71.214287 208.221470 -14.670808 43 1
-62.036076 209.979280 -18.149506 35 1
-13.643019 194.107800 -4.178958 42 1
-83.675026 210.251880 29.505375 46 1
-1.322834 219.391890 46.850006 12 1
-97.249886 191.805760 33.678345 46 1
-0.560924 214.972310 44.327023 12 1
0.672999 123.241260 84.276161 16 1
-51.607258 124.827840 -17.095057 2 1
-117.633460 174.007160 29.138039 46 1
8.114933 189.884640 -19.117485 11 1
0.017390 28.004614 -47.029282 9 1
-30.326948 65.527199 37.254646 26 1
21.550577 111.070700 -20.483662 17 1
-108.557550 181.374440 26.715525 46 1
50.826981 109.250240 -19.944523 18 1
-14.800032 75.177689 1.485133 0 0
61.472103 108.929210 -32.592255 18 1
37.099949 197.853100 -2.019340 13 1
56.053192 187.078600 7.877684 13 1
-79.963730 223.937190 7.561219 46 1
-29.587164 59.103642 45.005474 26 1
-27.527416 98.199989 62.241001 3 1
73.089142 205.574480 -23.809256 43 1
-31.454241 192.655930 49.741287 33 1
-41.824284 224.948320 -6.799992 36 1
-38.146439 116.874950 44.687031 3 1
-4.915110 103.811520 -0.546711 0 0
-33.549446 208.853260 18.670685 37 1
-27.249296 117.463810 45.040291 3 1
-2.794326 184.028880 0.486035 0 0
-84.276237 171.456390 45.745918 31 1
-8.768492 11.952240 11.822604 5 1
-108.065360 191.930300 21.970497 46 1
-67.706131 185.309080 -18.572384 35 1
-31.223343 126.500270 29.640106 3 1
-115.470740 168.585750 30.725794 46 1
-57.898926 220.479490 -15.564580 35 1
-67.856644 123.441030 51.505230 45 1
7.434931 200.209350 11.706038 0 0
22.224091 132.018860 32.227554 0 0
-103.658700 184.207260 32.556217 46 1
101.586520 174.141530 -46.421711 43 1
-12.238750 163.099720 49.236504 34 1
1.115218 237.288800 32.164181 12 1
-59.275375 217.501920 4.172489 35 1
-38.175968 41.816235 65.403664 24 1
15.715695 143.222340 72.494202 16 1
7.950153 187.176070 -39.137432 11 1
49.095619 156.094850 19.425699 14 1
-3.369800 141.278470 2.991520 0 0
-3.343776 117.799060 2.956038 0 0
-77.833702 225.495220 18.836056 46 1
12.735359 198.509050 -19.959126 11 1
45.995567 99.785858 -1.255291 19 1
-15.780365 227.967560 -14.484037 38 1
37.362881 205.273250 59.125957 4 1
13.560952 240.117920 21.785828 15 1
76.134621 196.754970 -45.899136 43 1
-1.391366 72.053101 34.642418 30 1
-65.061378 185.406540 28.343397 31 1
63.666748 206.991700 -36.397366 43 1
-83.852455 176.899200 34.585258 31 1
52.650913 154.637500 30.866825 14 1
40.915085 155.777070 30.376307 14 1
