47.782101 139.489930 1.438256 60 1
6.436661 294.132140 89.402260 11 1
9.236908 285.766140 64.116814 15 1
-12.252573 309.656590 51.140652 15 1
-51.068615 274.642640 -13.881803 18 1
-13.704228 180.922130 -18.671032 64 1
-58.831913 196.294390 -52.894569 42 1
-4.569920 173.515460 33.982403 49 1
-32.894524 116.956250 12.447642 0 0
-14.256599 145.152180 8.634496 0 0
49.928215 128.096330 -42.340210 52 1
-77.344818 276.331940 4.943293 20 1
74.909340 133.675380 33.415955 12 1
0.172164 292.399020 59.366344 15 1
-57.508320 267.757080 -17.871199 18 1
-87.269737 146.129180 -13.373432 44 1
78.501228 285.621890 -46.450214 34 1
-56.218155 305.875760 17.984035 22 1
56.373524 121.464920 33.008862 23 1
10.489962 299.525390 52.558037 15 1
-4.294592 266.958770 89.720512 13 1
-36.197815 183.604740 -20.398922 64 1
40.687107 130.170810 -46.159256 52 1
43.305664 123.083530 -57.934299 51 1
-41.603092 181.873630 48.820896 50 1
-27.833242 239.249020 95.350784 13 1
-25.594278 243.842830 6.006680 0 0
-43.792233 181.880360 37.846691 50 1
-80.038506 289.359740 6.381978 21 1
-29.159750 251.825120 86.384995 13 1
12.150125 159.935580 -2.806691 0 0
50.856720 188.577880 29.246552 29 1
-86.646088 127.522640 -49.524639 39 1
61.987106 273.905060 -53.090488 34 1
-51.700848 194.459920 -67.301186 42 1
-56.092457 186.267590 -65.090218 42 1
-41.572201 290.353550 -26.222282 18 1
-8.480214 302.651000 106.095330 11 1
-58.043503 296.625890 20.215740 22 1
-28.600395 269.186680 134.727450 11 1
-23.019821 306.025150 -10.558066 19 1
-42.480640 289.579930 55.685417 14 1
55.786068 274.428860 -66.448380 34 1
64.701553 130.955060 13.731246 12 1
2.068622 305.843380 18.785200 17 1
-13.044612 157.607240 9.502691 0 0
-54.594711 300.774600 39.303856 22 1
-38.356014 135.697200 -74.572639 48 1
-30.440689 224.781630 -10.665747 31 1
-90.687302 282.434360 62.950935 10 1
55.378654 125.916990 21.498594 23 1
20.502153 272.730380 0.165488 24 1
-22.217560 222.476430 -13.847099 31 1
5.384558 179.152340 -4.988731 62 1
-10.021860 259.067380 90.345566 13 1
-34.847561 275.938020 -40.806995 18 1
28.906130 198.659000 25.757528 29 1
-6.774368 302.170810 -24.880398 16 1
42.591381 122.481190 51.856152 23 1
11.066080 296.542880 34.425545 15 1
-12.124546 93.178062 3.548691 0 0
-93.076126 279.149080 51.922832 10 1
-12.103384 170.633960 50.061050 49 1
20.767427 177.198030 -11.460655 55 1
-23.765965 93.716682 49.630512 72 1
-25.943718 79.482307 0.740967 0 0
-13.588374 51.956299 1.898746 0 0
-20.993477 251.223180 90.141617 13 1
42.433987 123.162380 -20.782764 58 1
-53.729904 291.050480 58.398399 14 1
-92.302567 276.487090 -2.427217 21 1
-19.415243 166.496840 84.190872 73 1
-14.806689 165.797550 10.837652 0 0
2.503097 281.127690 78.889076 13 1
-87.157303 145.157610 3.454641 44 1
8.762739 247.792720 -62.533607 25 1
49.300194 124.263840 -13.349434 58 1
-12.549807 298.614410 -52.258217 45 1
-6.979650 100.332790 -17.249573 0 0
41.696331 262.917910 16.158859 24 1
51.175850 187.422090 38.067993 29 1
-80.391251 184.347230 1.332624 36 1
-47.954075 288.437900 -2.763507 18 1
-49.647518 296.582150 -1.627858 19 1
-63.039085 194.993840 -77.398087 7 1
-4.568601 233.663990 19.310862 0 0
30.885971 145.250400 -22.725332 59 1
28.072929 158.897260 -14.146756 59 1
-45.751202 173.015790 49.198929 50 1
41.515854 196.147960 20.846430 29 1
11.069184 105.826900 -13.151524 0 0
-2.548417 180.699390 77.008011 27 1
9.338293 122.217440 -5.665109 0 0
-26.991970 196.158420 -16.174231 64 1
-21.548630 288.492610 -51.209084 45 1
35.625290 190.249730 33.069435 29 1
21.024191 149.894490 -59.356968 53 1
-4.069667 211.057850 -36.955261 33 1
19.569410 175.499590 -1.672013 55 1
-7.906979 291.438540 95.634560 11 1
-9.497713 295.974330 16.097425 0 0
-6.446102 158.428160 4.353482 0 0
-12.962166 281.465360 73.980148 13 1
16.623840 189.281920 19.915762 28 1
44.276443 189.831020 14.096303 29 1
24.279289 256.709440 -25.458843 25 1
63.796379 126.175760 0.479928 58 1
-19.283087 228.792760 -34.592617 30 1
-33.720177 177.364490 38.494225 49 1
-100.207240 117.994930 -56.210037 2 1
-4.638315 227.882400 -25.136433 30 1
3.161219 255.892720 -63.296043 25 1
-24.964609 179.875560 -88.786781 38 1
-10.573739 47.902248 -4.868808 0 0
-75.038498 155.905270 -11.520962 44 1
36.101841 142.014180 1.110825 60 1
-12.883571 306.976990 14.546163 17 1
-49.893215 192.982040 -50.102081 42 1
-73.547737 294.624850 40.965286 10 1
-9.487045 205.330870 -3.829135 0 0
48.987568 251.898060 -10.284584 24 1
6.043104 174.853580 1.981141 62 1
-18.571892 276.452700 70.742294 13 1
-29.534515 143.017030 -81.907402 6 1
-21.708334 263.008510 27.618319 0 0
0.118547 241.378890 24.766994 35 1
-80.990067 282.558010 52.952190 10 1
39.666725 262.026860 -6.547272 24 1
-86.520340 189.044880 -21.320000 41 1
-93.281433 276.953030 32.561497 20 1
-68.710281 130.555660 -48.047905 39 1
-7.566535 240.733610 15.182253 35 1
-1.373545 313.012240 7.705741 17 1
-11.705247 273.343960 14.789615 0 0
-31.161009 267.189210 79.222168 13 1
-46.231571 188.985550 -7.524747 64 1
86.893188 132.182190 40.051903 12 1
-14.199759 294.206480 -3.064604 0 0
-85.628746 289.242400 57.122211 10 1
-4.100512 215.708150 15.458694 0 0
-24.169441 164.933840 -14.784801 64 1
51.356350 127.184610 -60.930733 4 1
-6.179735 179.430270 4.749243 0 0
-62.614185 296.320220 44.813522 10 1
-16.402830 213.935380 -41.020744 32 1
20.414719 237.660890 -53.565304 25 1
69.132744 133.159130 27.401896 12 1
32.800964 246.122210 -27.587505 25 1
-29.994822 276.629700 30.665918 0 0
-15.013882 101.349500 -5.669407 0 0
-29.793278 169.265260 -35.753418 47 1
-62.859730 268.147710 -4.125085 20 1
47.112030 135.243790 -52.109692 52 1
-17.527937 139.319030 -75.094559 37 1
-92.036835 181.973530 -32.594460 41 1
-24.753136 308.448490 -39.079319 45 1
-44.398552 286.608370 64.504219 14 1
8.318708 90.020744 -11.817802 0 0
58.089714 207.922150 62.104313 1 1
-53.352863 195.297820 -22.135406 46 1
-94.105057 137.226850 -14.856862 44 1
-12.164163 283.969360 94.328308 11 1
-9.010117 141.513720 2.520526 0 0
-9.425501 168.498700 -27.632532 0 0
-80.467514 286.406310 -1.471120 21 1
69.730148 272.952030 -65.229195 34 1
-32.982613 290.341490 -29.676748 18 1
-18.715765 197.559080 -78.013069 38 1
-31.533882 309.638890 -13.297456 19 1
-5.839543 198.727040 -61.783314 32 1
-43.494904 287.299770 -10.395159 18 1
-21.919487 267.089660 92.802658 13 1
29.114498 248.192400 -57.352360 26 1
-14.891230 119.879770 10.846073 68 1
13.665959 141.420490 -9.758716 0 0
-15.656882 297.211730 50.447422 15 1
19.266594 190.706210 73.008942 27 1
-39.116352 200.794100 -65.119652 42 1
1.913169 168.611040 45.402649 49 1
1.001752 288.184840 90.412323 11 1
-87.258629 261.496890 7.193710 20 1
-33.283653 299.756130 75.016159 14 1
41.064461 253.381380 -8.968404 24 1
40.316906 200.600660 63.540737 1 1
-32.234699 124.960370 13.090162 0 0
-36.619518 177.858540 -44.619728 46 1
-13.425750 296.578860 28.629885 0 0
-49.255516 305.076660 29.669136 22 1
39.369461 247.779770 -45.022377 26 1
0.823603 305.425510 -5.285172 17 1
81.300240 207.844330 57.113949 1 1
-8.015531 285.734280 102.464730 11 1
19.969135 241.182890 -37.175972 25 1
8.736137 205.127490 -42.908325 33 1
-40.377384 190.477220 -67.240410 42 1
46.898254 205.374570 72.440262 1 1
-34.842342 173.428150 -29.571022 46 1
-14.572439 318.061550 28.395903 17 1
15.413548 136.643970 -30.359455 0 0
23.706638 199.301270 35.233738 28 1
-97.733589 272.354520 44.723259 10 1
42.675629 309.372220 43.972404 15 1
36.319008 160.661300 -36.186913 54 1
-88.029152 281.896730 -17.497669 21 1
-18.175074 199.500790 -2.809769 64 1
32.602371 160.427490 -20.471397 59 1
34.928242 126.997200 -58.436115 51 1
-14.336798 136.491490 -24.746426 0 0
-21.729290 188.755400 -18.395363 64 1
-8.079740 221.130110 9.141379 0 0
-80.051895 278.945950 24.313475 20 1
-101.482480 124.815770 -44.797955 2 1
-7.280527 77.231934 14.688516 70 1
60.954838 205.640550 78.410652 1 1
-102.359910 155.024840 -32.294724 41 1
9.057784 296.627080 -14.332025 16 1
-39.622536 82.520531 37.073517 67 1
26.948631 102.153550 -27.411726 0 0
-14.108010 188.012800 -4.825613 64 1
-15.992492 90.998871 46.696178 72 1
-53.636730 142.662450 -58.738567 47 1
-17.804008 300.315670 -44.251633 45 1
7.001318 191.433640 -26.833412 64 1
-6.861909 171.625520 15.432656 62 1
73.171715 205.325230 47.176659 1 1
-24.150122 283.744450 130.970030 11 1
-53.829597 181.198900 -56.276814 42 1
-20.349682 246.807710 96.611313 13 1
6.987328 124.854960 -24.047068 0 0
-9.760756 266.159790 95.301140 13 1
-12.176800 281.196530 108.454410 11 1
-48.773151 141.102490 -24.702679 0 0
56.815556 108.041380 -74.264008 4 1
-7.051822 239.394790 0.594180 35 1
-20.261106 268.847230 119.144850 11 1
-31.738592 273.040130 89.296516 13 1
-100.229950 123.978260 -20.122990 43 1
-64.498451 305.230130 7.543927 22 1
12.767714 306.240390 64.529976 15 1
-10.621274 154.457120 -6.411455 65 1
-14.771751 283.566250 121.638620 11 1
-27.525208 181.823970 71.236183 73 1
-13.460548 248.320190 24.695972 0 0
-9.366904 313.098300 -10.485644 16 1
-78.430267 151.410080 -24.543720 44 1
-50.352776 294.244780 39.863400 14 1
-53.299221 173.213840 -1.453219 64 1
-9.197851 254.599930 98.891876 13 1
-20.973373 108.384160 4.331066 0 0
30.898653 115.593180 -55.178375 51 1
19.303507 266.610320 -17.996542 24 1
17.360594 199.634340 42.428291 28 1
-107.834290 147.303770 -70.665947 40 1
-94.218033 166.769010 -1.143012 36 1
-68.517471 267.555330 1.192003 20 1
5.507056 192.772770 72.669022 27 1
60.734550 250.283650 19.706442 24 1
-83.896423 279.122710 1.805547 21 1
-19.050430 208.331300 -36.118755 32 1
9.645767 194.488750 40.300117 27 1
-35.266426 89.949303 45.578217 67 1
0.117616 235.974260 -23.705362 25 1
-68.542213 187.144210 -41.118786 42 1
28.845627 254.416810 -42.926670 26 1
-80.109390 143.483080 -15.781694 44 1
-40.549049 300.248690 48.509666 14 1
-110.682920 121.160170 -44.020245 2 1
-32.821079 151.193050 -64.955620 47 1
-33.455795 184.943010 62.831238 73 1
47.596745 153.604550 -35.605774 54 1
-37.436024 282.770140 -32.163349 18 1
-0.425415 231.574260 -37.334949 25 1
45.658195 131.479290 26.531672 23 1
-33.224350 303.952580 -23.837605 19 1
-23.737535 222.354310 -23.839754 31 1
-14.087119 219.707260 -49.670418 30 1
-24.808365 88.694710 38.267212 0 0
-4.994098 305.751250 28.493502 15 1
8.659488 246.125140 -54.709545 25 1
-25.945667 273.233980 95.326859 11 1
14.639939 190.555470 -41.404045 33 1
-11.544055 213.399430 -35.002071 33 1
-68.147720 148.168300 -35.584099 44 1
81.457573 129.742920 34.518673 12 1
-57.313557 148.276930 -43.582825 47 1
-5.908319 288.249760 69.488853 15 1
10.681764 247.449280 -74.508743 25 1
-3.184910 175.575520 44.376057 49 1
16.784964 192.726430 29.523829 29 1
-55.183006 174.695910 -33.199314 46 1
41.619164 190.968800 39.343597 29 1
17.577887 310.375460 37.293694 15 1
-12.404131 63.809273 -4.618747 0 0
35.390160 130.092440 -7.904639 58 1
-0.821966 159.476240 -21.007631 63 1
-1.014105 70.604637 -24.984642 61 1
-21.897673 176.909970 67.787842 73 1
-74.413315 295.532750 54.130169 10 1
-35.253262 291.054110 -47.351181 45 1
-76.969391 179.719300 -85.613411 7 1
31.677845 114.887530 -65.485428 51 1
18.524183 262.980650 -37.854561 26 1
10.061498 249.640900 -40.379482 25 1
-59.771011 183.329280 -24.910940 46 1
1.638993 304.860530 -18.009062 16 1
-95.956764 159.264740 -62.748840 40 1
-37.850483 297.123170 -11.531330 19 1
-65.051178 123.866330 -57.435955 39 1
-22.565573 217.234800 -60.572186 30 1
-11.526456 221.862170 15.937645 0 0
-17.726877 181.195770 81.793022 73 1
-32.122448 105.755360 6.092087 0 0
-71.437820 191.204190 -8.707879 46 1
-34.574127 246.371350 88.382530 13 1
-51.594788 290.459960 69.771309 14 1
-7.287157 295.914730 63.916267 15 1
-30.263460 230.004010 -21.593840 30 1
47.101578 161.912950 -44.321301 54 1
36.581562 130.021420 36.677433 23 1
-9.359863 309.718510 2.267044 17 1
-9.110997 68.805244 6.013524 0 0
-20.729675 132.588040 -47.250683 0 0
-24.576031 203.209750 -47.997982 32 1
31.806118 244.626270 -39.825771 26 1
52.475067 116.139760 48.065483 23 1
52.208660 252.167050 -3.261305 24 1
-104.197530 273.522460 -40.404182 21 1
55.413990 267.772520 -60.635170 34 1
11.962592 232.447810 -43.037819 25 1
98.347130 128.749390 27.964069 12 1
-30.522409 189.789080 -79.136040 38 1
-99.420082 275.047090 -12.463896 21 1
38.060066 249.575030 -20.941656 25 1
-25.159912 125.808710 -98.118217 6 1
5.774685 194.512500 53.106792 27 1
52.331108 169.193190 -50.318581 3 1
-14.470221 308.339260 34.019501 15 1
44.956703 143.115720 7.680573 60 1
-20.215446 277.250090 102.314330 11 1
-34.592907 291.558870 78.064117 14 1
7.062025 243.223330 27.538134 35 1
46.818356 119.211960 -70.324059 4 1
-38.039989 277.688390 -26.109091 18 1
-91.071365 181.135130 1.458672 36 1
-70.980171 281.534060 -6.885281 21 1
-5.144687 63.930676 -7.750321 0 0
36.061790 159.400830 -50.257637 54 1
8.315684 262.043430 -54.299179 26 1
-30.764042 138.935270 17.988388 0 0
-10.765539 165.319020 17.223886 62 1
56.949570 122.640740 -40.004601 52 1
-82.926910 191.507050 -0.711388 36 1
44.382034 192.755890 29.078695 29 1
-112.554180 270.266690 -29.957283 21 1
-26.276783 312.285460 -24.800797 45 1
-60.947395 159.114750 -28.521389 44 1
-54.233299 276.065460 -5.280329 18 1
11.999550 218.270660 -11.805416 0 0
-17.690855 139.406950 -66.476402 37 1
46.477871 154.174220 -13.748776 59 1
31.715878 174.541960 -6.195390 55 1
-6.459032 55.361805 -56.806435 5 1
-7.652005 128.713780 -5.778000 66 1
-10.947704 91.773651 -20.385366 0 0
-16.545866 251.732830 14.363138 35 1
31.930664 267.992980 6.586977 24 1
-48.791859 182.914350 43.356899 50 1
17.085218 175.787490 10.106320 0 0
-41.217335 141.131700 -59.836716 48 1
-43.638737 158.308810 -57.787117 47 1
-73.797028 166.924040 -8.592265 44 1
-60.403336 309.763400 13.123944 22 1
-3.642666 152.848680 -0.358153 63 1
7.808081 228.755550 -50.672966 25 1
-32.902275 296.008820 63.703800 14 1
72.498215 149.773510 -68.383339 3 1
56.432480 126.358020 -52.792274 52 1
-6.290170 126.111630 6.739820 0 0
-115.301340 109.115460 -49.095448 2 1
-8.243306 229.244580 -7.967661 35 1
-72.426010 130.169430 -30.173542 39 1
-48.900166 176.079990 39.286407 50 1
-4.063281 23.362530 -2.270521 0 0
-6.014802 192.381670 -13.039189 64 1
-12.549704 194.096120 -0.009673 64 1
-16.951319 280.802430 136.339510 11 1
-30.375868 198.668700 -68.973518 38 1
-66.478905 281.861020 4.610091 22 1
-31.195099 91.010124 59.339367 56 1
57.673431 118.069640 -20.459148 58 1
26.859612 171.516650 -13.870750 55 1
1.593251 264.707150 53.341900 0 0
-83.078423 281.242340 -11.276306 21 1
-30.775223 151.464890 26.014757 0 0
-38.539570 179.202590 2.411740 64 1
37.547733 130.040590 5.288612 58 1
-69.906387 185.638020 -90.865097 7 1
5.244771 266.089080 -40.389576 25 1
-33.859974 307.579130 64.294838 14 1
-81.993141 160.414730 -62.332397 40 1
-36.606766 189.900730 -15.765892 64 1
20.790281 247.676300 -29.936533 25 1
40.215389 167.673970 -34.531570 54 1
-11.741590 236.029910 -5.608935 35 1
57.980068 145.587160 3.276699 57 1
-18.049572 175.092330 10.436008 0 0
21.356071 256.573150 -50.796528 26 1
-91.520340 166.881580 5.782770 36 1
-90.212601 137.887920 -29.928328 43 1
-56.755489 187.698620 -87.312363 7 1
-25.822361 132.546430 -84.710945 6 1
-93.602341 278.161010 -25.647209 21 1
-16.308838 260.235690 85.196861 13 1
-25.417706 175.812190 -41.187344 46 1
-39.976433 166.671430 -55.058609 47 1
-23.840891 187.781010 42.155613 49 1
-106.361760 258.446620 25.183891 20 1
0.825565 164.656890 12.866518 62 1
16.899557 162.247670 -58.050419 53 1
33.298992 191.961840 23.745600 29 1
38.422718 190.520520 9.199028 29 1
-10.687802 103.705120 6.306599 0 0
32.861557 163.119610 -56.003742 53 1
-33.911968 135.253510 -94.677849 6 1
66.024513 285.308750 -36.004910 34 1
32.446117 261.019290 -17.497375 24 1
-4.703606 253.592650 22.747309 35 1
-9.656151 280.652890 80.574203 13 1
-49.972778 171.679380 -37.619247 47 1
44.322498 165.711380 -2.648315 57 1
-35.087055 272.364720 75.614380 13 1
-37.039581 161.960690 -60.353470 47 1
-44.543850 149.814560 -62.048286 47 1
-12.845234 285.044650 8.838068 0 0
24.758644 243.017580 -74.747368 26 1
-81.155899 144.681690 -28.561495 44 1
-38.326748 288.886660 70.076302 14 1
-15.193810 109.138410 -6.611518 69 1
-1.587374 256.927730 42.865532 0 0
-36.878540 173.888080 71.889236 73 1
62.158062 201.817760 50.239281 1 1
-31.146624 302.739750 -43.958466 45 1
-26.070704 265.217220 105.524530 11 1
-16.164782 305.614810 -13.725128 16 1
-38.825764 73.789574 60.740517 56 1
-69.063187 178.172210 -95.306839 7 1
-8.227944 118.190800 1.718132 0 0
-11.816591 174.704540 34.213860 49 1
-11.414228 188.972270 12.057081 0 0
93.072975 129.406600 16.685198 12 1
-3.493558 231.689210 -18.109432 35 1
38.615078 262.729680 8.543247 24 1
-0.435823 221.005540 -46.426369 30 1
-8.039588 208.193500 9.292255 0 0
-47.250668 289.774570 79.698669 14 1
-16.786577 181.958340 45.269329 49 1
-4.835342 228.911530 -60.049129 25 1
-49.694569 182.412810 2.717296 64 1
-56.486710 160.782730 -42.141197 47 1
-27.355835 277.110200 142.036130 11 1
62.117107 132.344180 29.296906 12 1
10.507298 188.855000 76.312035 27 1
-83.755310 161.589750 -72.097206 40 1
9.579699 196.463060 65.443024 27 1
-6.065765 52.640011 -1.277061 0 0
30.165562 300.910830 63.412189 15 1
-21.019915 241.835590 0.546523 35 1
-1.818298 307.630460 12.609709 17 1
-43.840767 307.020810 -10.888313 19 1
35.762146 303.883760 54.176609 15 1
48.235569 256.858370 13.852098 24 1
-47.882824 163.294630 -33.710091 47 1
-86.927689 274.739380 25.602983 20 1
-65.379181 188.076660 -98.191177 7 1
39.273483 149.746570 -24.952013 54 1
63.107048 122.685870 -47.513493 52 1
31.535179 262.803990 -3.994777 24 1
-30.192139 175.506820 76.653625 73 1
59.791798 180.869060 10.046116 29 1
-7.714684 181.694140 -23.171385 64 1
39.725014 259.986360 -28.901119 26 1
3.243119 180.296980 9.414658 62 1
-9.052994 109.517530 -19.796179 0 0
-8.139438 147.462450 -2.581081 0 0
-104.435520 262.632080 31.400633 20 1
51.790874 278.468570 -28.893192 34 1
-64.747032 182.138840 -86.081589 7 1
-70.685226 175.616910 -48.251682 42 1
6.689269 235.235430 -64.735657 25 1
-60.651035 185.942320 -59.319725 42 1
-76.088112 263.060120 -4.282652 20 1
-4.994742 275.701750 76.162331 13 1
-106.441020 271.648380 -19.651348 21 1
14.510062 231.671980 -67.576332 25 1
-0.773135 229.628680 -48.691101 25 1
-45.259029 295.644680 32.574699 14 1
-5.323140 303.514160 -1.455057 17 1
-53.583694 291.743260 -19.934103 18 1
7.493167 197.964600 -37.565548 33 1
-38.079681 148.507280 6.775958 0 0
8.111509 152.788070 -10.352340 63 1
-26.538250 263.370820 88.436798 13 1
-7.964237 302.061740 59.835411 15 1
-25.213451 87.352112 69.262016 56 1
28.647470 311.387420 40.095001 15 1
70.919792 210.319320 58.105133 1 1
20.107300 312.353120 45.756958 15 1
-70.499222 189.180400 -18.267326 46 1
-110.571110 115.082760 -50.548279 2 1
-19.398073 275.664670 -59.960571 45 1
-99.955101 274.247770 -30.926291 21 1
-67.364014 277.771180 14.423909 20 1
40.836159 161.818970 5.563044 57 1
-90.910980 131.272990 -25.350155 43 1
-92.294884 264.945500 11.058641 20 1
27.776482 190.258420 63.196281 27 1
-84.653099 138.527890 -18.800486 44 1
-16.701374 199.117580 -10.327776 64 1
-1.402427 165.872590 0.668235 0 0
16.949379 199.836560 30.513975 28 1
53.698570 199.737240 50.286411 1 1
9.594010 314.068120 45.155003 15 1
-10.856405 302.989410 -18.958000 16 1
36.399464 251.541780 -14.242301 24 1
8.828209 156.176590 28.543467 0 0
-86.356674 137.843000 -4.748507 44 1
-13.464489 197.577740 14.416543 0 0
-30.270132 142.133270 -65.239647 48 1
-20.946692 222.089320 -55.212200 30 1
-94.668945 267.959500 19.758678 20 1
-78.372200 162.582900 -48.556583 40 1
18.731157 303.518100 46.885460 15 1
0.577847 309.082490 62.081734 15 1
-65.156219 298.490840 19.215675 22 1
24.824680 145.054400 -63.123627 53 1
-3.858455 74.401176 1.421111 0 0
-26.716244 186.983640 -2.186320 64 1
-0.164486 254.012800 30.224621 35 1
-62.046272 151.285220 -37.646297 47 1
-8.998259 183.853300 -1.754491 0 0
-85.839561 181.478260 -29.068026 41 1
-27.087423 267.851900 127.682620 11 1
5.192832 145.166930 22.096296 0 0
54.252609 155.245570 -22.663448 54 1
-82.398979 148.926880 -3.304604 44 1
-57.904865 293.647340 27.563589 22 1
-7.752325 204.257800 -25.314503 33 1
-29.953953 267.912630 142.045780 11 1
-19.099276 228.990590 -22.825502 30 1
-1.385706 275.681030 61.809746 0 0
2.195104 232.586000 -3.401325 35 1
-4.919492 78.357941 -18.633770 61 1
-23.098845 161.595640 87.902870 73 1
11.008851 153.003540 1.270619 0 0
55.577374 141.091720 -1.688529 57 1
0.584625 288.641780 72.576584 15 1
-73.581055 135.948360 -47.026455 39 1
-23.620722 294.765170 -44.964329 45 1
-30.822941 270.329960 -42.496918 18 1
80.622734 279.775090 -67.498734 34 1
-27.506273 166.740250 74.619720 73 1
-2.033460 67.323334 -42.972748 8 1
5.907597 169.770480 12.511295 62 1
-18.643127 237.492000 -4.860826 35 1
20.097143 293.644680 70.642601 15 1
29.236876 146.271180 -15.517872 59 1
-42.517960 170.931950 4.215566 64 1
-63.423138 297.706480 51.712673 10 1
-38.484016 258.455230 80.553474 13 1
4.732109 244.687260 19.562141 35 1
-48.876476 174.154860 -26.225296 46 1
-40.296177 192.312710 -10.238169 64 1
-101.182140 129.750260 -39.464180 2 1
3.053611 58.753242 -54.824020 5 1
3.010679 309.847440 -10.331219 16 1
36.050201 247.232560 -33.827702 26 1
-2.824549 312.459230 51.260311 15 1
23.917774 165.617870 -54.485508 53 1
-6.426446 191.415630 -24.929987 64 1
0.583799 171.196270 18.161779 62 1
-8.457460 80.174034 -2.199903 0 0
-19.688810 225.569820 -41.655170 30 1
-32.785347 179.572530 54.562935 50 1
18.116421 237.540600 -79.376961 25 1
-41.757626 298.942690 -22.256855 19 1
64.163551 206.939620 70.565964 1 1
25.288391 175.949250 2.776463 55 1
0.076268 318.123690 45.427017 15 1
36.805794 128.921390 -51.930855 51 1
-18.618670 172.049620 79.115875 73 1
-10.254170 177.609970 -32.135605 0 0
-79.344780 290.027100 60.451138 10 1
-18.001268 306.073180 -40.110649 45 1
-75.495926 158.876480 -21.085999 44 1
-1.559564 78.716293 -9.095763 0 0
45.447624 167.897720 -51.346119 54 1
13.865808 193.013730 53.699387 27 1
-31.307390 227.197190 -38.873859 30 1
-61.753765 286.487610 17.247765 22 1
-10.286558 106.910080 -0.959584 0 0
54.801575 126.523110 1.420782 58 1
95.887665 126.297480 34.058670 12 1
-37.208569 175.180450 49.017387 50 1
-44.676998 181.662380 -37.631645 46 1
-2.518196 83.109085 4.602744 0 0
-26.767723 224.921590 -51.311646 30 1
-5.482031 39.978100 -0.161974 0 0
-76.737297 296.920780 46.932468 10 1
25.620169 238.921130 -65.471214 26 1
-1.785851 177.057070 -2.530051 0 0
-53.592358 185.411710 -32.589306 46 1
-93.429794 280.194400 -39.881855 21 1
-1.048783 75.130005 -30.467440 61 1
84.140442 131.130230 28.121014 12 1
19.728647 243.304430 -20.398592 0 0
-0.414663 298.501250 -24.462431 16 1
-80.392387 126.298460 -46.260769 39 1
-22.388199 189.746840 -7.301134 64 1
-14.026774 240.987760 18.845310 0 0
-31.979807 158.012910 -66.274048 47 1
48.214264 127.365390 19.321251 23 1
-11.995581 146.363220 -62.973961 37 1
-44.784733 181.818800 -27.026419 46 1
23.236029 250.346560 -22.708319 25 1
-82.868942 142.926800 -8.984075 44 1
15.426449 234.235140 -30.290379 25 1
-92.325592 133.000150 -48.102875 2 1
-29.334953 281.232090 -54.212322 45 1
43.615128 262.733060 -42.324558 34 1
68.479424 112.098300 -75.041443 4 1
-4.495388 85.925461 -11.904390 0 0
-68.083565 265.457490 -11.516788 21 1
-57.431751 182.276670 -1.671790 64 1
53.585888 184.407780 24.358810 29 1
-32.456043 229.064180 -28.333920 30 1
-25.398222 263.744260 81.130684 13 1
-18.034122 56.384449 -39.049915 9 1
-73.732697 274.771850 -1.893145 21 1
16.613585 261.047240 -47.355072 26 1
-88.370926 131.993120 -39.393272 43 1
1.004390 177.358570 35.604469 49 1
-33.859116 193.451830 -73.911942 38 1
20.596149 140.913270 -10.176423 0 0
54.187313 162.180680 -56.860859 3 1
-0.624237 244.739290 11.763737 35 1
15.016807 251.670780 -68.845581 26 1
-11.152473 316.438750 40.718239 15 1
-56.786621 151.834500 -49.899014 47 1
18.629858 229.949420 -16.104813 0 0
-54.737667 195.038620 -79.117241 7 1
50.914906 184.886400 6.771011 29 1
5.028482 61.800770 -7.773570 0 0
-52.090992 284.115480 0.806394 18 1
26.718166 198.474820 18.525068 29 1
-9.381082 65.399971 -52.351906 5 1
-73.977478 116.210780 -59.328087 39 1
42.978622 129.403000 -1.077093 58 1
-90.353531 284.361050 55.704639 10 1
8.654262 301.454190 39.237377 15 1
45.385769 266.614650 -34.809921 34 1
-63.352032 282.017460 -20.834892 18 1
12.916582 237.293170 15.602583 35 1
-21.802574 70.426414 6.080162 0 0
57.217052 161.494870 -68.950928 3 1
23.056557 265.624420 -11.990496 24 1
-43.087757 298.038210 60.667385 14 1
-105.444910 113.614120 -57.918682 2 1
2.243340 235.621280 -57.886662 25 1
-2.987254 279.642210 69.020706 13 1
70.747574 284.680790 -47.000477 34 1
-34.784672 312.847170 -7.788200 19 1
-45.760670 308.759120 -1.224381 19 1
47.892159 258.134610 2.564456 24 1
-34.855824 291.175230 -22.184166 18 1
-28.812555 275.215940 -48.288551 18 1
-34.209019 287.559690 31.148716 14 1
-113.516040 103.619150 -56.708088 2 1
18.750492 190.668500 10.357393 28 1
-67.956146 285.358520 24.514942 20 1
-0.922041 303.177490 -11.566319 16 1
8.553436 180.819030 4.360553 62 1
-16.125648 186.763110 6.345047 0 0
-12.798603 182.728440 69.481918 73 1
-8.601953 270.237000 80.388107 13 1
47.644348 265.541470 -47.320099 34 1
-31.454943 148.618550 -71.489685 47 1
12.957053 174.759220 2.066278 0 0
3.338780 185.575420 -3.104119 0 0
-21.398031 243.560760 12.631482 0 0
-20.390051 137.878850 -94.395607 6 1
-95.060989 129.230590 -56.488823 2 1
-30.759924 199.628010 -77.132027 38 1
-20.000898 267.524930 126.295350 11 1
-80.366051 136.626310 -37.585060 39 1
-105.459920 155.965990 -51.772747 40 1
6.333490 311.242580 19.244852 17 1
32.853252 250.135360 -46.496132 26 1
-33.774780 168.181320 -10.595536 64 1
-40.077694 226.536300 -6.109786 31 1
-32.475990 149.431560 -58.206505 47 1
-89.535225 261.396640 0.722403 20 1
44.421791 157.460820 -1.720445 60 1
-29.538240 78.563164 64.761414 56 1
-57.594143 271.600890 -1.306552 18 1
-22.154583 282.123230 116.495530 11 1
15.975878 295.034850 57.961479 15 1
-79.389458 286.817200 12.984890 21 1
-12.417290 221.259200 -31.669292 31 1
-74.906807 171.726910 -90.104393 7 1
-27.957708 276.171050 -59.178108 45 1
53.542286 202.934510 61.035278 1 1
63.247349 118.496490 -65.529686 4 1
-24.160948 301.276860 -46.955902 45 1
-65.538902 155.830760 -24.594158 44 1
49.921700 150.035510 -23.510345 54 1
2.665308 157.092740 -8.783107 63 1
-55.526485 172.273510 41.730846 50 1
-42.961170 148.804440 -44.947968 47 1
-29.962019 276.583130 -36.013779 18 1
-44.773659 195.608220 -68.939041 42 1
-54.147984 175.382710 7.044343 64 1
-8.881071 59.512493 0.314661 0 0
-39.276154 284.768130 -18.961079 18 1
-85.967140 163.192790 -49.895493 40 1
-96.902504 267.216830 55.183865 10 1
-2.645528 267.561310 96.329613 13 1
59.730694 125.024020 -8.193466 57 1
-55.566235 291.206940 51.843189 14 1
-21.203821 313.429900 -33.089752 45 1
-30.443645 160.724290 77.329926 73 1
-5.846972 212.091050 -48.426865 32 1
-52.441978 297.030150 25.178984 22 1
-10.255029 74.818352 8.958949 0 0
39.544186 124.795030 -63.334476 51 1
-7.735399 72.196144 -42.071205 8 1
-3.474902 138.472000 -72.449135 37 1
12.387670 234.580960 -1.038404 35 1
-26.791103 105.362010 0.320642 0 0
-16.595615 225.767430 -15.759811 31 1
-13.882978 244.987530 97.739204 13 1
-80.383240 283.908870 29.700945 20 1
-33.753838 166.237370 -51.023495 47 1
28.745665 191.089780 37.888298 29 1
-18.379192 299.264220 -1.361597 0 0
29.951242 115.644710 -30.666180 0 0
-91.532448 176.651350 -4.022536 36 1
-0.854537 113.506290 -21.137335 0 0
54.185562 152.370830 -36.564861 54 1
-20.238716 268.249450 103.731610 11 1
-99.304703 257.689150 12.499419 20 1
16.299028 85.592522 -7.762112 0 0
-42.595863 189.003480 -52.456680 42 1
51.473938 163.761260 -62.922478 3 1
-57.931927 300.056300 32.082554 22 1
24.098137 303.789460 62.624256 15 1
-96.863846 123.437270 -53.389091 2 1
-14.455146 130.825550 2.536956 0 0
56.832024 149.763840 -27.332226 54 1
-42.030975 188.602020 -27.241074 46 1
56.095547 270.341030 -52.866505 34 1
-12.173608 154.181520 0.154954 0 0
-9.827870 223.882200 -44.152248 30 1
-15.746094 309.764470 21.754587 17 1
37.538128 162.476150 -16.039469 59 1
-24.874954 266.011470 98.771400 11 1
6.237329 228.166030 -13.472648 35 1
53.266422 161.513310 -1.227509 57 1
-17.399385 289.330690 123.940920 11 1
-9.449064 243.951250 5.198169 35 1
60.089321 180.856000 27.930683 29 1
-58.820442 165.414170 56.177570 50 1
-40.915836 276.432620 -35.222488 18 1
-29.533073 185.586750 49.189648 49 1
-66.632904 186.084580 -47.858173 42 1
-66.844734 295.522250 33.154747 22 1
-30.391233 164.446620 31.776278 0 0
-43.778969 285.596830 88.548134 14 1
-36.533802 83.681786 43.068489 67 1
-25.465443 277.616270 79.472198 13 1
-38.935329 142.697710 -53.605301 48 1
55.600189 208.837080 73.369270 1 1
11.320188 190.712300 26.157103 28 1
-53.414787 172.705690 51.021244 50 1
-26.106869 270.857270 116.512480 11 1
-37.726017 224.961870 13.951601 0 0
62.929756 118.951180 -11.834795 58 1
-5.517035 89.934509 3.222166 0 0
-86.782303 187.310610 3.855443 36 1
12.253843 293.629880 -19.416620 16 1
-93.606071 132.138870 -19.264633 43 1
-22.055759 207.893510 12.993947 0 0
-69.664169 297.088750 14.100327 22 1
-18.529453 100.865350 0.076550 0 0
-38.870502 310.729800 52.853909 14 1
-24.061520 190.697710 -80.960022 38 1
-85.690895 150.867600 -8.813566 44 1
22.064493 249.613220 -65.076279 26 1
31.045555 131.537690 33.218586 23 1
14.709399 149.591490 -61.711548 53 1
-82.014748 180.088680 -5.837568 36 1
28.460588 310.385620 46.710949 15 1
2.814091 181.274520 80.971542 27 1
-0.991015 235.999800 1.526851 35 1
-12.199815 63.687553 -40.300400 9 1
29.893064 122.693910 -59.324436 51 1
-10.542173 296.386930 109.241430 11 1
34.523640 255.014940 -32.712723 26 1
37.235867 168.870940 -11.436401 55 1
-3.549149 308.591400 21.129404 17 1
-16.393644 281.507840 -58.207333 45 1
-41.100998 143.947570 10.596352 0 0
-76.580200 189.828430 -2.184983 36 1
-1.395255 145.001750 -61.939632 37 1
-60.127586 263.558650 -22.805368 18 1
-11.958211 158.926540 -18.613708 63 1
27.102127 241.144150 -49.338104 26 1
-7.336699 148.418880 -21.138477 0 0
-25.657837 226.276230 -44.645252 30 1
-97.175079 152.473690 -74.849724 40 1
-84.530296 283.597560 43.314445 10 1
2.176889 306.556550 7.386046 17 1
-43.778885 283.834350 80.315201 14 1
-15.736239 165.123200 1.726192 0 0
-15.335665 309.358640 -1.465010 17 1
34.217869 160.978640 4.691538 57 1
-11.775019 183.853410 41.331696 49 1
-63.119709 189.864200 -86.774307 7 1
-74.499489 289.461120 22.449657 20 1
-75.249222 167.022190 -99.101089 7 1
-82.229713 188.149830 -33.300995 41 1
-15.626406 255.069760 89.318527 13 1
-97.323593 179.688540 -27.178684 41 1
-91.460960 284.969180 44.183949 10 1
-58.331059 201.232040 -44.748177 42 1
-98.633255 185.843000 -19.282103 41 1
-44.861385 179.133410 -16.754211 64 1
35.562546 155.747100 -5.070787 59 1
-102.363150 154.651260 -61.007286 40 1
-24.479324 98.170418 44.772903 72 1
-84.395439 280.858400 -31.835917 21 1
-0.513238 247.456150 31.125591 35 1
30.207615 192.068340 29.605946 29 1
-27.461185 143.663470 -75.648285 48 1
39.998466 189.668170 46.166374 29 1
-65.706566 277.880520 -16.079493 18 1
-12.300298 224.160640 -20.536476 31 1
-26.840273 233.832180 99.131569 13 1
-5.148717 306.269930 -19.665697 16 1
-35.706680 166.871720 -38.129070 47 1
-73.102493 298.712460 2.280095 22 1
60.424767 278.173160 -48.252541 34 1
-95.315781 175.929290 -32.408764 41 1
57.135723 210.879290 79.714035 1 1
-12.779795 307.027220 -23.995770 16 1
51.112259 150.219890 2.034413 57 1
-1.949957 288.356450 64.199959 15 1
-25.409550 184.634490 55.360725 73 1
64.132683 205.687450 60.112331 1 1
-94.194588 126.490010 -39.449558 43 1
-85.826736 185.097610 -11.790421 36 1
19.565714 319.544530 35.684986 15 1
25.664173 157.727420 -47.406200 53 1
61.891102 178.068920 4.456978 29 1
-73.016418 273.261510 12.604155 20 1
-111.641560 140.713520 -70.414719 40 1
-58.938171 285.886570 -0.115183 18 1
4.736413 137.253340 -66.400116 37 1
-34.547947 226.850400 -17.165108 31 1
-59.304260 270.771030 -24.167925 18 1
39.326870 163.125240 -54.664150 54 1
-74.985390 282.180850 -16.046549 21 1
15.457403 233.488630 -56.889305 25 1
39.306683 130.734390 24.957962 23 1
3.313732 233.872420 -30.929321 25 1
11.710052 245.226700 -26.963802 25 1
-118.288280 263.564180 -38.593285 21 1
-2.098929 134.955670 16.843737 0 0
-23.289164 199.907620 -73.777931 38 1
1.154605 77.657394 4.250736 0 0
-30.208775 199.116420 -7.545315 64 1
-7.045239 84.832253 45.374371 72 1
-4.502027 156.580050 -16.381636 63 1
-39.017601 195.945450 -59.626820 42 1
-49.120289 193.984820 -87.734192 7 1
9.566359 311.489900 54.333946 15 1
-43.016834 298.388760 40.824917 14 1
43.072784 165.035870 -39.834789 54 1
49.705338 270.589230 -58.995853 34 1
-15.963927 194.025890 -24.777361 64 1
-32.499210 300.754460 68.567581 14 1
-45.089066 199.482570 -60.496601 42 1
-12.712329 293.236390 61.355721 15 1
-35.593033 189.659040 0.995269 64 1
-50.506317 151.025680 -39.421879 47 1
45.281605 196.502080 52.129433 1 1
3.775281 209.028760 -41.094063 33 1
-84.080734 283.608950 60.692116 10 1
50.778530 132.565320 -47.066422 52 1
-5.696822 187.435350 -61.370918 32 1
9.626912 250.299800 -49.499496 25 1
5.786211 244.597380 -39.289398 25 1
45.494671 185.311890 27.119606 29 1
-75.576500 162.519330 -55.600502 40 1
-79.540932 265.424130 4.608290 20 1
-21.133070 182.379470 62.972797 73 1
-36.840229 179.614850 -26.296734 64 1
-1.980350 64.015121 -28.350077 0 0
-28.835381 274.847840 72.668289 13 1
49.778763 154.606640 7.781241 57 1
61.230530 276.681790 -59.250790 34 1
25.240196 243.563310 -40.506458 26 1
11.660652 252.269560 -30.347446 25 1
-23.785521 186.748120 -24.338070 64 1
-9.147942 192.997990 -62.067795 32 1
-17.198944 272.724270 114.360530 11 1
44.027721 144.157360 -23.583332 54 1
-45.241711 135.378360 -69.728958 48 1
25.778090 152.480210 -13.060505 59 1
23.462900 197.016510 41.936310 29 1
-61.689659 262.495270 0.847368 20 1
8.510704 237.134920 -19.038734 35 1
-109.345580 265.477260 -42.760166 21 1
-88.538795 176.060520 -31.669165 41 1
-46.086369 188.147050 39.177048 50 1
-18.029987 189.768220 -56.993900 32 1
44.456039 156.602480 -41.287300 54 1
-1.971860 217.374400 -51.599716 30 1
-56.601807 295.256070 42.215561 10 1
-29.370045 174.310780 42.239403 49 1
-60.488548 193.512770 -40.073303 42 1
-34.176052 267.825780 85.402199 13 1
-22.035980 291.040100 115.057090 11 1
52.844425 255.618120 21.858496 24 1
-24.371502 175.559100 -13.318792 64 1
7.735043 317.461880 35.728817 15 1
24.620007 301.776950 50.290943 15 1
-16.703373 310.667820 46.524689 15 1
-10.831939 304.506200 5.844689 17 1
13.412215 191.959260 62.698669 27 1
24.284462 177.909870 -6.054874 55 1
-19.178143 289.938720 130.281650 11 1
45.085983 129.301640 -61.597095 51 1
-59.634285 289.366060 -12.488196 18 1
-52.344849 269.593780 -35.131088 18 1
-7.758914 286.829220 90.527840 11 1
-38.002148 179.817290 -38.596619 46 1
40.363220 125.532300 46.455883 23 1
0.214422 302.824490 47.676624 15 1
-88.917961 183.384540 -23.362139 41 1
-22.782726 208.304110 -72.167160 38 1
-34.884377 306.664090 -17.971811 19 1
-13.533477 284.780670 113.673140 11 1
22.036116 194.373520 16.747662 28 1
33.026344 156.691700 -63.256939 53 1
-73.309570 281.298310 22.806711 20 1
-44.919464 234.371920 12.642210 0 0
-98.183212 275.055880 -37.095318 21 1
-16.777796 142.647690 -24.962828 0 0
-52.185589 198.842240 -52.304890 42 1
79.432503 212.072540 61.723076 1 1
-90.105797 272.862880 20.298380 20 1
-16.611698 171.765490 45.576042 49 1
-61.188759 274.630620 3.540506 22 1
43.572361 261.577940 -54.893398 34 1
58.006012 152.812810 -7.270349 57 1
24.394274 260.083100 -36.707832 26 1
-24.089151 281.666810 137.581860 11 1
-0.032951 225.721680 -29.592430 30 1
64.121124 178.775100 18.071329 29 1
-10.459554 116.605690 14.277698 68 1
-54.620403 167.342100 -36.068874 47 1
41.681053 149.328750 -13.348268 59 1
-17.824173 295.916200 111.794980 11 1
-96.767982 159.206240 -51.340775 40 1
-66.752998 180.161470 -51.619694 42 1
-72.294785 125.694810 -50.323063 39 1
-62.375877 189.670150 -24.962683 46 1
-22.578846 312.731960 -9.587132 19 1
-55.827808 300.544310 -10.402257 18 1
17.819090 235.185680 -43.848690 25 1
-19.467590 241.081670 6.739905 35 1
-46.202801 167.489530 -47.802742 47 1
-8.459408 122.817760 -20.555433 0 0
5.738640 293.372890 37.517216 15 1
32.825108 151.951100 -23.632074 59 1
-19.580166 275.475280 139.839040 11 1
-17.260460 47.079884 -0.110175 0 0
32.231876 163.290080 -1.189760 55 1
-26.560850 93.301201 55.453384 56 1
-4.176390 17.913656 1.376472 0 0
-13.112461 227.543260 -32.805832 30 1
-91.040466 274.252500 45.247715 10 1
2.145703 240.433850 -45.266125 25 1
-11.796812 312.242460 29.612968 17 1
14.179229 258.487090 -40.398426 26 1
-69.385429 164.356690 -22.043442 44 1
72.964020 279.520110 -65.017487 34 1
-28.330328 228.097240 -33.136940 30 1
55.344913 128.705310 -38.715263 52 1
-37.709072 308.265810 -12.305241 19 1
-3.550481 157.037690 10.037261 62 1
-24.242109 177.622480 12.497637 0 0
-51.628571 145.886950 -51.256687 47 1
28.969404 122.165980 -52.874222 51 1
-26.367815 278.121220 128.758120 11 1
-45.216496 289.338530 49.907486 14 1
-10.013945 228.962510 17.937809 0 0
-40.280445 160.752640 -46.932178 47 1
-44.755894 274.674190 -22.059355 18 1
-89.367790 281.480900 23.125988 20 1
-75.539375 195.868270 -10.206259 36 1
-53.765297 180.621440 39.240807 50 1
32.691326 157.862460 -45.058910 54 1
-40.179153 269.951350 -33.441269 18 1
92.003555 127.178410 27.653975 12 1
-90.346313 273.314910 55.332020 10 1
32.981682 150.341200 6.065590 60 1
-48.463139 286.044460 59.619431 14 1
25.593937 155.020020 -55.568127 53 1
-6.920146 160.302690 19.986372 62 1
-76.147621 149.410310 -15.533520 44 1
52.105145 206.708970 68.307472 1 1
-7.945443 3.769493 -2.351625 0 0
-82.349991 188.188510 -16.149258 36 1
-7.675850 299.414920 27.565815 0 0
-66.731438 159.141710 -31.490503 47 1
6.129910 298.289310 30.104759 15 1
-18.288422 131.348370 -95.674179 6 1
-13.020119 302.420200 46.693604 15 1
8.241530 258.566500 -60.541302 26 1
-6.031849 168.470140 -20.948490 64 1
-5.113732 199.177230 -28.443722 33 1
-1.951752 315.770810 33.653141 15 1
-36.550690 273.942230 84.907204 11 1
33.681065 244.355560 -59.638931 26 1
-3.262253 301.567870 35.632519 15 1
20.085844 192.878910 23.861961 29 1
-9.408685 81.405746 9.020510 0 0
13.440219 117.872330 -12.131685 0 0
47.483082 264.315220 -62.595310 34 1
-75.668076 294.918210 7.125138 21 1
-19.679848 268.721770 135.774350 11 1
3.320430 299.177310 -15.703199 16 1
-44.210632 173.876920 -5.665998 64 1
-41.444111 131.658630 -18.765602 0 0
-27.970860 133.264330 -96.098381 6 1
-76.922417 281.097560 -9.719964 21 1
42.208176 141.303820 -1.003556 60 1
-64.449417 178.686970 -57.449200 42 1
-50.474323 200.084790 -19.122019 46 1
0.749538 197.780960 61.941906 27 1
14.537692 181.499310 8.766974 0 0
-24.910234 178.583450 51.589451 49 1
-10.121616 218.552440 -54.481262 30 1
-79.749832 134.558410 -46.571796 39 1
-85.061249 176.743610 6.171776 36 1
1.264905 293.751620 -28.310066 16 1
1.129024 163.170880 23.018921 62 1
-23.683487 81.104836 26.727736 0 0
-16.107426 293.712830 -54.145950 45 1
-48.892506 306.646850 -6.430505 19 1
5.203294 295.843570 68.941566 15 1
-2.887289 278.192230 94.710022 11 1
-62.479240 191.987990 -13.757139 46 1
37.497112 162.820280 -26.883265 54 1
-4.868762 315.989650 39.668312 15 1
31.447741 164.180880 -38.163223 54 1
-22.376446 192.646670 -86.903915 38 1
104.567340 127.364700 27.960564 12 1
-0.330216 286.757630 79.417084 15 1
-11.888082 276.211240 103.233920 11 1
11.830402 191.011470 16.053501 28 1
-54.236279 266.856600 -25.020140 18 1
9.593468 199.577790 44.277069 27 1
28.601618 270.168550 1.496876 24 1
-107.774950 270.981690 -25.882530 21 1
-38.293175 298.979610 70.363014 14 1
-18.015465 270.478700 76.339249 13 1
-13.344064 117.029350 5.239080 0 0
-103.654560 261.870240 60.209709 10 1
14.466495 286.483370 67.586845 15 1
27.383860 259.946140 -13.876908 24 1
35.504284 307.390290 48.411469 15 1
-16.328630 207.747250 -45.398365 32 1
-16.192873 187.982790 -89.084541 38 1
37.727592 166.495240 -1.932455 57 1
29.892195 162.345290 -9.191759 59 1
-31.033890 183.574980 -24.723318 64 1
-12.833834 138.625460 -1.573617 66 1
53.737915 255.458510 10.197147 24 1
-94.619438 280.064640 -46.952412 21 1
-46.491695 182.439970 -9.638039 64 1
-103.716520 118.379930 -21.464970 43 1
-59.434998 190.652440 -93.900970 7 1
49.288540 128.105410 9.737847 58 1
-101.761680 167.949890 -25.711422 41 1
48.832760 127.792140 -2.747281 58 1
-35.713970 183.546740 50.292610 50 1
-37.804928 182.297450 39.743496 49 1
33.745228 247.627780 -52.627167 26 1
56.251244 143.557770 9.125421 57 1
-6.594119 73.744141 -24.930605 61 1
64.436737 155.547330 -61.887115 3 1
-94.945274 278.744930 -8.037873 21 1
-85.347939 133.811940 -30.162472 43 1
-11.874418 260.167880 96.278419 13 1
18.985302 256.053190 -30.951796 25 1
-43.188225 187.234620 -61.300545 42 1
33.211372 188.842960 57.952221 27 1
-102.602260 276.911010 -18.685942 21 1
47.361916 127.350120 33.077610 23 1
-85.296242 291.857850 45.916847 10 1
-51.981640 184.162320 -19.290565 46 1
-10.031558 193.660050 7.901225 0 0
61.174732 146.314290 -2.726782 57 1
-16.275644 198.225130 -53.786366 32 1
38.807140 255.526660 -23.040310 24 1
-2.344635 164.000640 6.665331 62 1
-24.378288 196.400380 -2.259107 64 1
8.807385 256.744230 -50.989288 26 1
-89.893005 141.420210 -16.843145 44 1
24.878502 298.928340 66.500877 15 1
-4.264611 88.302582 -20.759741 0 0
26.804148 156.285750 -65.082764 53 1
-1.561185 291.555300 95.125206 11 1
-37.663052 155.215160 -56.690914 47 1
-18.469963 217.468960 -13.542889 31 1
-6.638645 133.909670 -10.007755 66 1
-26.296810 165.333470 -8.635104 64 1
-94.891685 170.415800 -36.004707 41 1
-5.970285 67.778267 -37.984554 61 1
-48.877811 157.661040 -53.482262 47 1
-26.231436 292.816160 -51.220249 45 1
-55.608242 285.075710 -23.368174 18 1
-45.219715 175.050540 55.365673 50 1
-15.501162 138.138410 -90.127449 6 1
-28.769745 304.091640 -37.093563 45 1
-11.136910 190.240330 -10.176014 64 1
-30.409513 180.938310 -85.917084 38 1
-19.003622 148.334730 -27.844660 0 0
-26.261789 309.442500 14.081416 17 1
-51.100082 184.159770 -61.537312 42 1
68.924126 277.494810 -53.862431 34 1
-58.901432 171.839310 46.959141 50 1
-30.030949 168.174870 -41.910675 47 1
-64.874802 189.553100 -74.961082 7 1
-11.694116 201.555440 -42.503075 0 0
-8.953407 160.563130 -5.616780 65 1
-23.122091 157.504120 -34.486958 0 0
-18.941353 169.081310 -16.636425 64 1
-52.219616 201.062470 -70.395134 7 1
2.725041 226.959140 -19.336117 35 1
50.329990 159.214650 -36.934925 54 1
-15.142948 187.007280 -17.249229 64 1
44.858501 159.744490 -11.481640 59 1
-8.583070 277.533840 71.068832 13 1
14.496607 190.486820 -32.929562 33 1
-18.301651 277.610960 86.111382 13 1
-12.010836 299.457180 -5.964374 16 1
71.756195 212.027830 64.245529 1 1
-56.888741 178.862090 -12.631407 46 1
21.737490 200.831700 46.690140 28 1
-104.611210 144.269010 -79.934013 40 1
-35.539249 300.996030 58.747299 14 1
-8.174041 113.411870 6.272182 0 0
-29.822264 216.835920 13.542783 0 0
-62.285252 184.888490 -19.121220 46 1
-62.798023 185.676540 -29.810381 46 1
-32.533703 89.087265 -0.574133 0 0
-87.851654 142.080140 -22.960396 44 1
21.013666 271.539310 -5.967153 24 1
-26.177689 137.755650 -91.808472 6 1
26.374298 256.645900 -19.074467 24 1
-35.140270 78.637497 59.505352 56 1
-48.295914 245.954030 11.046551 0 0
-46.235420 292.227420 72.633919 14 1
-82.413589 277.216340 13.903908 20 1
53.323421 118.643060 -25.060459 58 1
83.084877 131.820180 21.387514 12 1
-90.040550 141.447530 -9.610439 44 1
-75.705589 161.000260 -8.062943 44 1
59.303291 124.910510 -60.981960 4 1
14.699431 238.891850 -74.360130 25 1
8.026009 292.265620 -25.475029 16 1
-48.342571 274.687620 -32.294838 18 1
62.701130 114.656810 -23.432451 58 1
56.334682 277.706300 -39.561691 34 1
-10.648427 41.185631 -3.894618 0 0
-23.342812 257.642730 91.017166 13 1
-6.956496 239.654040 9.119725 35 1
43.239353 124.673250 -14.527154 58 1
59.340775 269.379880 -66.837090 34 1
-7.862847 305.582150 11.215118 17 1
-42.284412 201.040760 -70.638824 38 1
-39.741192 287.105100 76.572418 14 1
24.256849 170.966830 -51.404442 53 1
-50.061497 284.115540 78.533691 14 1
-38.576794 198.376400 -78.335770 38 1
-15.268633 312.783260 -13.543592 16 1
-12.786000 172.691620 -1.019811 0 0
-45.574520 137.095700 -63.808121 48 1
5.563326 241.012570 -53.181004 25 1
11.663998 147.142230 -8.353849 0 0
-3.333656 310.918270 1.727429 17 1
24.152786 191.521530 50.910046 27 1
-21.674797 199.642960 -14.947007 64 1
-7.087912 70.130234 11.680518 71 1
-82.512100 188.088210 -25.900604 41 1
-21.481352 61.071159 5.510282 0 0
52.130909 159.495480 -11.049511 59 1
47.450859 272.383790 -35.397095 34 1
-0.021945 200.274410 -33.537243 33 1
-117.883880 98.196014 -56.312656 2 1
39.866180 154.754440 -31.169983 54 1
-10.585946 296.886870 -26.095963 16 1
-86.135300 276.407010 -4.517177 21 1
-17.894297 160.895220 -8.760688 64 1
66.431572 283.543150 -42.752117 34 1
-53.258678 158.367740 -34.732635 47 1
-96.566902 271.725590 31.369453 20 1
-12.321673 290.240840 102.246890 11 1
-79.129761 195.682450 1.759214 36 1
19.133331 200.949750 24.673159 28 1
-2.834886 167.823560 -5.619205 0 0
17.471813 237.659000 -24.968260 25 1
-16.993450 291.368680 4.555140 0 0
47.624260 184.847410 12.805904 29 1
12.660919 302.842650 47.515804 15 1
-16.343067 199.660030 9.260607 0 0
25.278521 163.707730 -48.737984 53 1
-60.631130 182.545380 -47.023869 42 1
51.239441 273.436460 -41.677559 34 1
6.651753 228.752150 -64.589371 25 1
5.569807 241.930010 14.130615 35 1
-18.031872 157.577220 1.731280 0 0
-23.317869 65.643951 -1.914794 0 0
-30.446548 209.398440 -70.081627 38 1
-27.061211 176.763760 -24.275375 64 1
-13.918526 143.090820 -71.875977 37 1
-17.392160 143.203550 3.638380 0 0
-2.294197 59.653877 -17.749144 0 0
22.983850 237.592930 -70.891632 26 1
-40.093536 293.852110 50.093853 14 1
-22.397869 142.950180 -64.650520 48 1
-76.966293 172.228790 -95.851379 7 1
0.446941 197.455570 50.578453 27 1
-34.783138 123.349120 -14.274274 0 0
-95.996613 270.694790 63.657028 10 1
-88.301178 192.522830 -16.619232 41 1
-83.128181 160.589360 -1.074089 44 1
-86.103836 163.165180 -58.743317 40 1
-10.714808 135.151920 7.404468 0 0
-8.750780 11.805752 1.178611 0 0
-56.184746 193.784010 -16.938148 46 1
13.138635 231.408980 -74.275040 25 1
3.232108 53.014545 -10.823355 0 0
-102.390180 125.298160 -14.406459 43 1
14.982502 96.183624 8.950998 0 0
35.646755 262.961360 -11.041284 24 1
10.971084 194.034900 46.687443 27 1
33.372807 166.150160 -46.028847 54 1
-83.524719 285.012820 3.909698 21 1
-18.468828 188.118180 64.697388 73 1
8.358871 288.551390 77.895859 15 1
-14.610050 287.407140 24.145243 0 0
6.960510 179.014420 14.073379 62 1
20.351070 199.988490 13.380857 28 1
-38.853050 136.847210 9.103980 0 0
-93.202049 279.278320 58.009808 10 1
-88.080742 172.053220 -1.134733 36 1
-47.078358 179.240880 48.408436 50 1
29.103378 300.743770 54.279652 15 1
-17.426773 177.705250 4.972950 0 0
-75.136513 289.818150 2.803349 21 1
1.683484 282.669340 72.180641 15 1
43.284843 252.805390 -19.785307 24 1
-15.312024 296.743290 56.664967 15 1
-68.067558 157.566990 -44.240219 47 1
-5.534819 45.780457 -1.976500 0 0
4.408800 288.457490 61.587685 15 1
-24.600746 265.513490 137.577990 11 1
-59.455791 172.848310 -2.146810 0 0
-39.644341 174.982680 -17.382208 64 1
-67.026543 309.680390 4.274450 22 1
-21.150494 306.694640 -18.271603 16 1
-25.507023 271.457700 109.076290 11 1
-69.285019 151.160340 -25.774111 44 1
-17.973173 141.233980 -82.990356 6 1
43.120682 128.467640 -51.447254 51 1
38.256111 124.433360 38.392307 23 1
26.969986 116.750560 -61.492760 51 1
-16.336193 107.648320 0.399109 0 0
-9.220198 74.291245 -13.088342 0 0
-81.376381 289.674770 41.624012 10 1
-31.569212 67.881966 1.634875 0 0
-31.550350 297.001130 -41.969437 45 1
-76.790649 125.559720 -54.471878 39 1
-30.735603 303.674930 -13.969274 19 1
48.057083 132.834260 -57.582108 51 1
-31.443995 165.630280 -56.705696 47 1
33.461151 251.506730 -24.910572 25 1
61.398064 151.239000 -75.294502 3 1
4.533332 191.847840 66.657967 27 1
-102.040150 159.466370 -28.204634 41 1
-24.345800 139.962160 -82.598167 6 1
-24.297148 289.402770 120.417400 11 1
-111.764340 273.040370 -16.664919 21 1
-6.299720 145.189700 -65.583145 37 1
