119.958210 176.658330 48.398308 1 1
-14.458106 120.067840 23.079109 0 0
-22.218796 136.479290 22.541664 49 1
35.130104 171.280500 33.372406 0 0
40.426975 244.995380 126.401940 20 1
-14.054131 231.368150 81.408302 11 1
-37.335453 311.033570 -35.573162 6 1
-76.257088 237.364670 15.092829 52 1
-2.761650 205.544690 -24.155138 39 1
49.107590 172.576970 51.829784 23 1
45.459862 278.243410 36.450378 25 1
-64.397301 211.274980 1.901572 40 1
86.108521 254.703670 51.733185 5 1
23.365227 294.544370 24.918894 21 1
-33.534927 140.192400 6.201618 49 1
-36.158081 290.552340 22.041817 13 1
57.083302 188.786580 25.657930 30 1
26.279856 260.951900 74.567581 20 1
54.527229 283.937900 30.857367 10 1
-40.725166 109.449880 12.999092 0 0
-49.327957 167.997060 -4.194602 29 1
-44.419151 106.839070 -25.356606 44 1
-20.526154 274.710300 -50.302158 7 1
16.527466 237.086030 10.417735 0 0
-20.449249 108.596790 60.679070 36 1
28.009590 254.097350 19.865923 0 0
-42.753311 130.819020 21.048790 49 1
34.983032 294.871520 -37.219784 9 1
10.099744 271.402800 -83.884636 53 1
-42.723705 276.572570 -28.947981 8 1
-26.608009 160.251020 66.843086 31 1
-13.467909 286.037350 -42.356781 7 1
-10.542832 139.276980 -15.974808 38 1
49.193855 283.106570 -32.501568 9 1
-41.169666 302.411190 -41.972065 6 1
71.748749 265.226170 5.705378 10 1
-45.025303 293.197020 -32.745995 6 1
1.203372 99.730888 11.148266 0 0
5.084317 282.185180 19.209711 18 1
11.108349 297.576900 31.274916 21 1
96.947685 236.135710 50.930759 5 1
-7.419664 110.976230 26.608398 0 0
9.214969 296.737730 49.787094 24 1
27.127325 121.471360 63.020847 45 1
45.557934 193.502170 65.063332 28 1
-8.191611 83.900360 -5.958127 50 1
6.958708 143.835330 -11.928623 38 1
50.739643 272.020290 44.320133 25 1
-12.870478 190.649750 25.373291 41 1
-39.613094 166.010930 -12.343678 29 1
-37.623604 184.289150 50.409039 31 1
-59.821472 103.205940 -32.863312 44 1
12.692932 277.749390 -73.947510 53 1
1.476914 245.612110 85.389442 11 1
3.703724 104.173700 -1.980444 0 0
-40.409607 271.416560 -58.506897 7 1
-29.493626 100.621930 1.967375 0 0
-107.599760 240.601460 18.975048 51 1
96.715538 189.434780 33.012791 1 1
-20.600550 158.449080 -23.835646 29 1
-5.168088 296.890320 33.795135 22 1
83.846710 244.099350 52.902355 5 1
-26.452330 109.706380 69.715935 36 1
6.071290 125.840680 5.189508 0 0
75.908897 198.400020 21.421799 27 1
-24.273230 95.800362 -9.425135 50 1
40.624702 188.293670 23.606524 30 1
-118.830310 249.401670 16.624340 51 1
19.549238 136.202450 -20.315378 38 1
-89.134293 245.962710 22.267591 51 1
-19.884037 86.726868 34.214825 0 0
-2.564226 160.073090 75.407143 31 1
45.525963 282.473850 -42.836002 9 1
34.302155 291.703610 18.939344 21 1
69.220695 209.295810 -10.355998 27 1
-65.345718 259.333070 -11.164586 8 1
-13.305603 110.250410 -10.164760 50 1
-3.330240 136.885220 2.268871 0 0
-24.355549 137.846270 -0.715855 49 1
-116.421680 259.636750 19.749434 51 1
1.106123 250.857330 -8.046448 0 0
33.605122 246.746020 118.048430 20 1
14.920920 256.276610 72.851959 11 1
-67.542053 236.103090 21.295450 52 1
-43.914917 258.287350 -59.815235 8 1
-2.174629 309.480590 -23.364622 14 1
6.098995 208.739410 20.324547 0 0
11.072193 240.649140 45.004471 0 0
14.401093 306.707150 -31.477947 14 1
-50.605026 209.441860 -7.534702 40 1
-7.640105 258.031310 71.855309 11 1
-3.145175 286.815860 -75.372696 53 1
-28.435337 125.785700 24.098398 0 0
-26.427761 195.962110 20.770611 41 1
38.908249 271.333560 27.058929 0 0
-28.080229 172.536250 83.096214 54 1
-27.610716 85.246780 2.162285 0 0
-33.251431 134.404910 15.714042 49 1
34.533897 114.058460 59.652260 45 1
-55.253803 247.267320 -5.037851 8 1
-12.686737 165.361180 78.026505 54 1
7.634289 291.589200 -63.508003 53 1
-36.326366 303.871730 -27.934315 6 1
-127.386510 240.643860 27.743931 51 1
-18.898277 175.706530 52.020924 31 1
-9.083795 196.025970 -10.053354 39 1
-2.430553 310.837710 -11.578411 14 1
-13.759398 136.608220 13.335176 49 1
30.969236 288.347080 -45.234882 9 1
67.000343 276.724240 7.322349 10 1
-8.432150 25.369995 -2.078809 0 0
-14.362794 196.303940 4.307322 39 1
72.135323 155.877040 53.422001 12 1
-87.694626 260.729550 6.787198 51 1
56.426510 272.483460 11.205466 10 1
-17.777142 166.531310 62.840866 31 1
-47.202068 110.750170 68.839722 3 1
-3.519759 290.795780 43.704414 22 1
-68.682251 224.007260 29.816727 52 1
7.997865 225.063930 31.775703 0 0
35.660496 165.846620 62.739452 23 1
-27.515608 313.000730 -17.366650 6 1
53.334816 169.208400 61.158947 23 1
67.699974 279.429870 34.690086 5 1
-33.985855 100.209880 41.296589 0 0
4.750017 255.263750 71.324905 11 1
7.705332 142.136920 16.636236 0 0
74.858780 196.868270 34.258789 1 1
123.209900 169.275220 41.185780 1 1
-56.629414 242.405810 6.326219 52 1
-52.836399 263.240810 -68.644478 8 1
38.365791 264.741150 61.687096 25 1
-53.456299 236.063950 32.082554 52 1
-10.327194 131.999510 -5.814216 0 0
-22.184444 176.061360 -2.482364 0 0
-23.383911 148.363590 -9.334406 29 1
-5.529797 153.174010 -3.510353 0 0
-86.435936 254.161240 -2.927676 51 1
-46.103104 174.872280 -24.158449 29 1
-101.841260 249.657090 11.314466 51 1
-11.313313 191.192230 36.030872 41 1
-32.190876 204.267560 -1.616164 40 1
-40.961231 284.135350 15.565991 13 1
16.043213 139.101960 -29.761110 38 1
31.517769 126.321930 -32.723793 38 1
4.317024 302.057950 -13.422518 15 1
22.591089 296.595950 -2.274816 19 1
-20.755430 225.752980 75.593620 11 1
0.715684 107.402100 96.623215 34 1
-57.328354 95.541634 3.027961 32 1
8.165233 265.289950 61.262234 11 1
44.233204 181.990130 35.035297 0 0
89.757568 137.326900 54.844307 12 1
-39.192509 99.969177 7.690378 0 0
3.164104 281.673370 -69.317657 53 1
-2.125851 159.861620 38.749695 48 1
-5.023986 275.705960 -84.773697 53 1
-72.579376 247.608120 10.870803 52 1
89.638008 198.283160 42.438824 1 1
33.983379 274.568270 45.724327 25 1
85.413162 191.409760 48.384453 1 1
-36.106213 277.583310 -43.885452 7 1
23.211622 286.904820 55.156391 24 1
36.833645 197.695650 62.606876 28 1
50.711643 250.417070 122.421650 20 1
79.406700 266.325290 44.758179 5 1
-25.965557 103.525490 -15.885610 46 1
-16.390991 244.345600 70.339561 11 1
2.054455 146.098040 -31.596842 38 1
-77.687698 200.335100 11.765244 40 1
-22.999830 73.570831 -0.491014 0 0
-34.933552 99.606178 71.143776 36 1
11.613836 131.185120 71.162285 34 1
-40.651077 299.100830 3.077517 13 1
46.473186 261.654300 114.464160 20 1
29.710329 301.759800 22.528843 21 1
4.349534 202.683060 -4.538303 0 0
-11.921859 102.738210 0.816106 50 1
50.424755 193.609620 45.576107 28 1
-21.049837 97.836899 42.406746 0 0
-58.868080 106.421170 -13.667676 33 1
-6.289007 79.896767 22.504662 0 0
-14.897051 207.354950 -34.087738 39 1
19.693825 289.918400 -40.111256 9 1
-10.482947 274.665500 49.765457 22 1
-26.449545 190.713210 40.930679 41 1
-47.003925 284.591770 -37.904747 6 1
56.121277 202.059300 20.939657 27 1
60.860767 270.138890 42.482494 5 1
-9.050889 129.052840 36.872898 0 0
-5.687721 45.428150 -1.347186 0 0
-33.719986 113.955680 64.452492 36 1
-13.604243 282.330540 -59.702553 7 1
-35.811943 213.368190 -7.977937 0 0
-46.449368 106.300210 55.349277 37 1
17.232569 254.998410 -92.933395 53 1
36.711605 183.529530 79.401100 28 1
-45.439331 266.067440 -41.152363 8 1
38.836166 282.378690 72.012444 26 1
-30.673023 274.240810 -57.183735 7 1
-132.069460 252.473770 28.681211 51 1
-21.350260 96.847076 32.769802 0 0
-24.089783 308.463530 -7.909133 13 1
-57.414516 174.432630 -18.410555 29 1
-19.643990 172.345050 106.877430 54 1
-36.086014 88.665398 -0.983980 0 0
-29.659002 105.782420 21.315498 0 0
7.324835 111.216540 88.530891 34 1
7.402321 105.885370 6.801709 50 1
-17.641701 309.106570 6.875081 13 1
61.005230 191.398220 39.506252 27 1
48.065132 270.471410 53.999805 25 1
-2.413635 86.194389 1.533870 0 0
-44.266113 205.260190 6.898862 40 1
-59.174152 109.637840 45.455055 37 1
2.984405 262.106540 -93.043274 53 1
-4.865127 111.664420 -2.488461 0 0
38.892017 174.979750 24.859343 0 0
21.683655 148.669020 37.567944 0 0
-22.574940 156.541810 -14.248498 29 1
33.197296 161.989760 42.894447 0 0
53.301746 178.419280 45.458641 30 1
48.270512 278.291050 69.660744 26 1
81.472107 259.939820 59.754799 5 1
61.670296 162.528580 61.167130 12 1
-51.830982 260.553590 -50.941807 8 1
25.919161 298.066770 33.572628 21 1
-91.345810 249.996170 13.980792 51 1
12.045834 132.170170 54.819649 45 1
-1.537493 56.806206 7.151307 0 0
-51.264526 123.391330 19.071672 0 0
-109.555560 255.190190 9.319260 51 1
-1.013254 160.449710 48.097931 48 1
56.242607 286.470520 18.663769 10 1
-56.535904 262.691130 -30.248074 8 1
-82.077599 95.563606 2.761168 35 1
-43.363712 172.882640 61.609806 31 1
-62.328392 115.989270 66.642532 3 1
69.194328 203.944210 4.606814 27 1
-58.767166 236.503430 17.380077 52 1
-53.811459 106.417730 -25.477707 44 1
-35.508183 169.125380 -20.255808 29 1
3.267659 178.733460 23.615068 42 1
23.712570 169.972400 49.606865 48 1
44.065235 155.052800 69.690674 23 1
5.077996 289.041960 -42.004108 7 1
-5.909417 294.071170 -4.334179 0 0
-5.000062 173.558460 35.952652 48 1
66.399864 173.813280 51.724205 12 1
-0.882012 141.573590 -16.552837 38 1
-12.168447 142.139420 -6.371673 0 0
-7.713087 114.950970 7.238268 50 1
69.675888 251.886610 -6.526577 10 1
-58.359585 95.369766 17.774855 32 1
-36.166054 306.960910 -2.691777 13 1
-34.660183 199.292660 12.121841 40 1
18.683029 260.071170 56.635891 25 1
-9.710469 188.696080 14.118093 41 1
-10.111063 190.424900 -2.519131 39 1
-32.297020 295.787450 9.141691 13 1
-15.285638 57.581532 -3.974063 0 0
16.210327 273.282260 68.523392 24 1
-99.161316 259.333440 2.812966 51 1
-59.599831 240.153760 -10.421310 8 1
51.668037 280.136780 48.477798 5 1
-21.395395 186.892680 8.211239 41 1
-0.767845 162.586780 63.185219 48 1
15.792276 263.980650 66.515694 25 1
-63.751995 248.279660 8.678858 52 1
5.815336 122.268530 24.576786 0 0
-17.205753 198.725980 -13.176504 39 1
-68.161674 100.391970 8.206576 33 1
68.991554 199.777860 27.943417 27 1
-78.902420 259.745360 -8.429033 51 1
-17.644331 107.638900 5.955507 50 1
19.084827 264.497530 -84.014320 53 1
-32.329308 191.784410 1.417968 40 1
63.053535 268.670470 5.865411 10 1
26.920771 265.168030 90.560829 20 1
-17.579746 102.123410 -12.449713 50 1
46.638130 184.206150 17.692108 30 1
22.161419 125.787090 56.767761 45 1
-105.632130 265.088680 5.423861 51 1
-12.049159 315.951390 -13.315462 14 1
-5.718430 285.903840 -56.607048 7 1
-21.789070 163.484470 55.347183 31 1
6.147723 159.962070 78.027100 48 1
-46.281940 227.834490 -11.641459 0 0
101.839440 190.632190 48.122635 1 1
24.025644 257.352230 106.141780 20 1
-59.098396 261.217250 -61.291039 8 1
25.249523 266.196440 54.520844 25 1
-5.393968 287.131230 -46.151291 7 1
-2.928987 102.595500 54.564342 4 1
4.560154 231.612010 -0.737377 0 0
-14.464590 130.364410 56.004795 2 1
40.620872 269.573090 49.098419 25 1
-54.394478 205.972500 11.604046 40 1
-32.882530 161.642670 -8.118051 29 1
-47.737228 266.444980 -11.764619 8 1
-49.736034 126.219460 7.207561 0 0
-0.179062 129.622560 66.326630 2 1
-1.690766 127.313950 9.270572 0 0
5.295592 289.403690 46.185822 22 1
2.142390 295.331570 5.096739 19 1
-78.535980 104.110710 2.386464 35 1
-40.268093 103.692590 -17.312679 44 1
-31.803341 304.812500 8.584488 13 1
-18.126419 283.147220 -49.258133 7 1
0.988981 210.202650 -37.260479 39 1
102.830220 189.427200 39.455692 1 1
-60.668991 121.862270 21.042053 0 0
-2.552698 103.777000 4.292972 0 0
20.734268 281.527310 -73.497147 53 1
6.833097 283.804470 1.350470 19 1
-4.046416 33.837559 4.861702 0 0
76.966217 155.534770 60.733803 12 1
-18.317350 184.005250 -0.682963 0 0
8.451643 255.266360 -95.536224 53 1
-32.112885 167.261080 67.142815 31 1
17.392410 299.686430 48.061661 24 1
-0.778136 123.193160 81.637695 34 1
-14.287745 158.467960 50.955257 31 1
44.354698 167.178730 56.886959 23 1
-3.225214 76.689819 0.521887 0 0
90.231720 252.775180 43.710762 5 1
14.253305 164.664520 67.595909 48 1
-63.944309 177.179460 -25.817581 29 1
2.191035 110.970950 22.930885 0 0
-30.374275 171.792720 51.960213 31 1
-3.465240 6.967724 -0.328684 0 0
61.500713 196.239520 24.425695 27 1
52.169724 208.242840 25.542078 27 1
-11.371962 144.518200 46.101925 0 0
-4.716615 174.372390 25.576958 42 1
21.944767 170.437770 21.928066 43 1
61.720997 185.627300 32.576141 27 1
-68.055542 87.598755 19.491728 32 1
5.407872 215.699970 -3.960186 0 0
-58.684986 209.594020 -4.338874 40 1
109.567660 180.342580 37.162266 1 1
-33.940701 120.637220 12.186120 0 0
-7.531003 119.900470 -4.146825 0 0
60.557896 274.946260 50.397575 5 1
-58.383507 254.659990 -13.390285 8 1
-50.047371 268.958130 -51.239960 8 1
0.752474 180.275410 -3.923490 0 0
2.729181 275.939390 13.813570 0 0
-22.687756 113.877060 37.211121 0 0
32.744308 254.601460 114.546240 20 1
-38.986328 106.112150 64.542679 36 1
-19.719849 96.499763 75.755745 36 1
-122.336200 246.752460 24.211826 51 1
42.377537 193.549220 57.114536 28 1
28.269215 160.822140 60.936909 48 1
42.795429 155.339320 61.238995 48 1
-65.736305 211.112530 37.597572 52 1
-44.015339 268.316410 -31.545309 8 1
-17.343218 162.985440 70.597748 54 1
-50.836002 111.068240 46.966557 37 1
-16.946209 96.515396 -5.130614 50 1
-21.950991 286.799040 -42.398499 7 1
80.889175 204.234920 3.620729 27 1
-5.038897 199.874560 -17.847860 39 1
7.017530 298.925720 -0.874669 19 1
-14.207550 129.083740 -12.793956 0 0
-65.202950 104.015210 -4.940357 33 1
-61.847332 251.187070 -1.387677 52 1
-21.410049 190.160080 24.418549 41 1
-51.803528 241.225010 13.595675 52 1
9.301146 164.673710 46.825180 48 1
-38.716766 298.622010 -34.787277 6 1
-40.999256 271.363220 -46.897926 8 1
-11.915216 144.382310 -22.712029 38 1
-13.349322 160.853620 -5.796167 0 0
-10.994777 316.585270 -23.757805 14 1
66.141205 261.331700 0.707549 10 1
81.535530 193.571820 30.309471 1 1
112.324510 180.019090 50.175350 1 1
71.325890 205.188540 12.648824 27 1
-22.817261 109.972950 16.569414 0 0
-43.512856 103.686910 71.685318 36 1
40.630558 187.653920 41.744484 30 1
-25.944448 140.398160 -10.104854 49 1
5.512107 205.618910 -22.695507 39 1
-19.104652 140.777820 -16.982847 38 1
-10.694979 158.563170 63.272617 31 1
-108.451500 262.483000 15.560882 51 1
46.395535 282.564030 54.935562 26 1
4.287823 262.687500 -0.378779 0 0
-63.063377 106.437570 73.968369 3 1
-47.186531 174.758560 53.615303 31 1
2.172190 271.316040 -86.500580 53 1
-89.937744 95.575645 -0.050963 35 1
88.807396 246.846530 59.081074 5 1
-30.560139 203.186540 -9.852799 0 0
-59.784550 173.726030 59.265499 31 1
27.272675 127.632760 49.134087 45 1
-25.153652 269.999540 -62.041706 7 1
37.187191 115.584440 51.786396 45 1
51.305237 276.793520 -40.608582 9 1
30.770741 280.990480 41.533741 25 1
-0.196253 167.364590 -0.720186 0 0
-35.187481 191.805880 20.863617 41 1
-13.765725 104.226640 63.049801 4 1
-117.478390 256.459840 11.451511 51 1
3.762307 248.497700 76.028366 11 1
-49.196991 134.269390 17.127424 49 1
-8.552407 65.909584 -0.934012 0 0
7.548308 272.551360 7.720285 0 0
-48.988419 168.446610 66.435707 31 1
28.698307 290.487950 -34.020935 9 1
47.291904 177.098220 79.600594 28 1
-22.162968 169.199080 99.652817 54 1
-7.117802 88.273666 8.016991 0 0
9.953564 122.826520 75.060699 34 1
-79.142288 250.296200 -2.091007 51 1
33.042137 265.577820 75.609848 20 1
-65.098839 205.738600 17.628178 40 1
2.401998 247.184780 -0.434655 0 0
-54.020283 103.073910 2.308440 33 1
69.640312 277.682830 42.560711 5 1
-21.210869 122.514630 36.631336 0 0
44.532368 271.300660 72.447731 26 1
-15.089486 171.753860 -4.183553 0 0
-26.395647 188.008560 -6.221076 0 0
-92.047943 260.311680 -1.366412 51 1
80.301559 258.234800 47.139576 5 1
23.819433 129.698270 -42.624046 38 1
-12.422762 170.322080 91.799049 54 1
66.241386 192.745770 48.971439 28 1
43.354603 196.748380 48.549332 28 1
-48.012970 308.659910 -25.305920 6 1
6.111153 307.501400 -19.299639 15 1
-61.491814 227.464970 33.609394 52 1
-29.826193 171.243030 75.222855 54 1
-1.456836 107.423720 11.756059 50 1
-51.421185 275.649960 -39.460125 6 1
40.388241 255.584850 111.226980 20 1
18.691319 302.197420 -10.051113 17 1
35.697136 159.235020 57.979122 48 1
-35.826694 169.341800 59.606964 31 1
-70.444443 250.476300 -6.056189 51 1
-26.416431 110.280720 -3.139860 50 1
21.518917 132.848850 -27.611000 38 1
-48.658012 114.764130 54.928707 37 1
72.910172 188.293840 34.998962 1 1
-18.332150 209.237200 -21.633228 39 1
-6.142191 243.480060 82.038643 11 1
52.674477 183.074580 74.533005 28 1
-7.011983 143.717760 -0.317985 0 0
47.735680 192.407100 38.025467 30 1
18.656229 298.579650 -42.342243 9 1
-21.340384 109.412450 -10.756839 50 1
-58.447159 237.393200 25.644945 52 1
-48.369240 203.773650 -1.534809 40 1
-52.701241 301.196900 -28.473951 6 1
-44.390259 208.311230 -16.625389 0 0
74.622635 271.554840 48.963696 5 1
-57.226379 266.777920 -37.542202 8 1
-36.049675 113.899700 8.155021 0 0
90.004898 239.017350 54.045452 5 1
32.712254 279.958250 -39.932213 9 1
-63.318615 264.348450 -17.320433 8 1
9.064443 284.933650 -74.156845 53 1
-3.580831 202.802640 -9.235565 39 1
21.615507 271.139620 74.079811 24 1
4.538014 308.670620 -27.717007 14 1
9.361616 167.339540 30.424021 43 1
-128.315510 255.220470 21.321218 51 1
2.379644 182.606320 3.643429 0 0
-41.391521 140.433120 4.543025 49 1
-6.507654 52.377773 2.594280 0 0
38.315216 286.005220 -42.991821 9 1
-0.303953 120.950910 4.313882 0 0
-27.259258 139.783780 17.228809 49 1
53.637802 277.350590 35.361603 25 1
-31.592815 185.693070 44.892704 41 1
38.660816 280.201510 40.397495 25 1
-50.381153 121.922230 29.186872 0 0
65.124168 161.642850 54.029339 12 1
3.927299 116.694060 31.323423 0 0
-4.987004 102.366040 -3.167940 0 0
8.098873 261.952060 68.567749 11 1
-3.588949 283.491910 38.982731 22 1
53.164787 272.304470 -34.221760 9 1
76.926254 165.778200 54.141285 12 1
13.683169 134.115020 32.145996 0 0
-3.501175 302.988280 -12.280717 16 1
-102.605670 246.929240 18.782166 51 1
-20.733826 315.491300 -9.865581 13 1
80.235596 151.661120 53.397026 12 1
14.357986 285.467410 -36.247402 9 1
46.123699 172.103380 62.968597 23 1
18.804935 295.285340 31.369846 21 1
-25.476641 106.722400 42.320930 0 0
-3.406353 69.201714 19.306707 0 0
-51.330948 291.197020 -37.223640 6 1
14.682703 301.279020 0.130613 17 1
13.399837 254.263690 54.729099 11 1
52.245228 158.421630 63.914799 23 1
-8.753891 19.772749 3.521449 0 0
11.043162 147.971740 35.995285 0 0
-13.400194 90.564896 79.145058 36 1
11.379898 294.400970 39.184322 22 1
-51.279003 202.182080 21.519436 40 1
-13.414981 307.350010 -12.537558 0 0
-35.289425 265.289760 -53.365135 7 1
7.799649 224.478910 2.574217 0 0
-12.388797 249.997440 76.809799 11 1
-95.437950 90.178993 3.491003 35 1
-54.109127 105.781230 78.908096 3 1
56.689938 211.555680 10.412464 27 1
-24.699472 169.959760 67.322563 54 1
79.482323 250.743550 53.238926 5 1
55.821075 191.732880 61.266121 28 1
-54.587364 107.980640 67.003632 3 1
-86.947639 243.399000 12.992994 51 1
20.994438 258.267520 68.271683 20 1
-54.264915 177.993360 54.706097 31 1
-50.379452 261.607730 -25.393814 8 1
10.173960 163.930470 60.921177 48 1
-4.258131 103.077820 62.290863 4 1
1.990667 170.112820 37.427353 48 1
-15.561579 283.499790 41.369289 22 1
7.562773 281.604800 -37.169666 7 1
-41.909424 90.462914 4.470395 0 0
-32.046295 194.974470 35.470406 41 1
-3.019985 207.935150 -43.582710 39 1
-113.178620 246.475010 21.170879 51 1
-51.544376 260.443420 -15.938053 8 1
-12.962709 168.401370 107.665940 54 1
-43.619591 100.279040 -11.095484 44 1
-66.372360 106.115190 -19.130432 33 1
48.249706 188.710770 70.994614 28 1
1.474072 284.425960 -59.900681 53 1
-34.537518 118.942880 35.584835 0 0
112.560880 175.859770 43.076965 1 1
-136.647920 250.546510 22.693371 51 1
6.357242 247.533780 -96.442787 53 1
-34.937431 177.737850 47.187752 31 1
-10.333704 102.324950 -9.327893 50 1
31.372990 259.306270 93.249008 20 1
8.897297 294.044130 8.688437 19 1
-13.552233 164.475250 56.037701 31 1
1.623384 196.139400 -1.400255 0 0
1.474826 258.478910 -6.335495 0 0
31.165951 267.572140 62.042576 25 1
-62.025276 104.056050 2.121065 33 1
40.054104 264.272770 87.727028 20 1
77.711304 192.003040 46.291466 1 1
0.634263 303.310420 13.258187 19 1
53.142967 183.161030 29.204771 30 1
-13.964495 87.312462 28.420370 0 0
14.891649 136.187000 -39.062141 38 1
-37.715282 292.201780 4.968625 13 1
-15.042255 122.533350 65.629929 2 1
41.174061 278.208650 29.717094 25 1
56.815491 284.133360 -31.982613 9 1
-8.211438 205.237500 -29.786118 39 1
-9.705126 309.232450 -21.797676 14 1
1.141241 136.312150 56.847240 2 1
-24.793476 195.827680 13.196337 40 1
55.676216 193.563060 34.323048 27 1
-68.291840 177.241300 55.201351 31 1
-24.105999 199.706630 -2.029073 39 1
-50.988567 261.054530 -61.035393 8 1
79.474510 198.656130 40.114906 1 1
-32.936264 105.691380 -18.241684 46 1
5.955625 139.956940 -29.215820 38 1
-25.450003 279.013550 -54.275909 7 1
-23.524410 167.191020 113.017110 54 1
12.547289 309.264070 -23.056904 15 1
-70.441238 202.621110 12.529340 40 1
-14.995121 102.419430 41.596085 0 0
42.758450 266.881840 97.837692 20 1
-74.206787 97.957191 3.651057 35 1
-41.186619 197.806380 16.256351 40 1
90.270439 191.096130 36.873516 1 1
7.264296 291.374630 28.593525 18 1
7.720001 288.195100 -56.693180 53 1
-10.697935 290.271670 46.422253 22 1
12.661478 282.845790 19.480042 18 1
-94.339966 258.005830 9.299808 51 1
72.500732 262.980830 52.402176 5 1
-9.854676 237.272870 78.562645 11 1
63.325516 276.072450 13.940282 10 1
-2.833602 264.367220 71.406929 11 1
-35.161053 276.267550 -51.398960 7 1
-25.055170 269.989810 -54.348801 7 1
18.418472 288.015170 0.549658 19 1
95.048111 190.323650 51.492195 1 1
-9.653927 171.473400 41.566772 48 1
-59.953197 205.249970 3.065519 40 1
-13.811667 272.248780 40.805058 22 1
56.401302 191.567700 50.430664 28 1
-0.700313 229.587200 -14.566806 0 0
-20.522381 140.165820 5.627656 49 1
-0.236264 204.231610 -31.661964 39 1
22.090918 272.883000 52.449997 25 1
15.905784 279.175960 63.783951 24 1
35.073936 167.510930 47.703518 0 0
-58.871330 274.866700 -37.963322 6 1
-22.356407 103.565160 71.349640 36 1
12.561661 290.541350 -42.526054 9 1
3.349411 144.057630 -22.881277 38 1
-47.316528 97.060013 2.690206 47 1
-56.504559 221.458690 41.374901 52 1
-16.663183 106.351880 13.385577 0 0
-67.475433 227.512420 22.688921 52 1
-38.350227 262.470250 -62.707531 7 1
-5.265161 160.703540 -3.506701 0 0
-35.200058 95.617920 1.880451 0 0
-4.077176 52.275677 12.605109 0 0
46.333828 286.156220 47.165356 26 1
-92.552490 267.955110 -3.303361 51 1
-25.633108 304.695040 -1.541584 13 1
-33.787777 310.617250 -22.730850 6 1
-30.775324 198.160140 26.503328 41 1
9.882220 285.249790 62.697327 24 1
5.665849 159.609650 33.652592 48 1
1.502580 295.844240 12.564337 19 1
18.676889 293.856630 -33.194008 9 1
-13.145491 293.543670 -42.403088 7 1
11.236598 290.286250 -2.142002 19 1
72.257294 272.457700 3.801192 10 1
62.272537 273.433230 -31.790174 9 1
74.611504 203.139160 -10.149786 27 1
-16.658144 267.524690 47.688812 22 1
13.440870 290.848540 57.998333 24 1
27.222187 165.196910 23.140289 0 0
-46.291031 298.504270 -37.869797 6 1
51.838181 274.384770 19.784760 10 1
49.028934 271.793090 79.831436 26 1
75.930626 141.654750 63.033566 12 1
-12.904990 78.539124 -3.770083 50 1
-66.475594 202.371830 24.143892 40 1
-22.879591 169.598310 50.392025 31 1
56.897583 174.194870 50.561760 12 1
-24.849916 106.333470 4.268712 50 1
-43.948830 273.355680 -22.148809 8 1
-42.462360 171.298140 -18.712332 29 1
3.369317 194.045410 11.827293 0 0
-62.077026 96.288986 10.445576 32 1
12.248693 129.369370 61.715469 2 1
-1.303587 309.947200 -32.150105 14 1
-1.690248 20.064039 0.143349 0 0
12.613910 121.908370 83.844612 34 1
53.362244 281.864990 23.740664 10 1
-75.600578 250.971950 4.969266 51 1
44.238384 247.191130 120.219330 20 1
107.008190 185.593640 52.179134 1 1
-83.269684 94.772728 11.264935 35 1
-66.478287 108.408230 80.260063 3 1
4.244812 158.363110 42.255905 48 1
-0.279942 284.242680 3.430383 19 1
41.296036 276.115810 -42.752529 9 1
-50.129566 264.229830 -34.264053 8 1
9.521619 302.309660 -35.037598 14 1
-24.328098 199.028000 -10.941606 39 1
48.974514 257.309170 119.916630 20 1
3.646071 280.868530 32.669041 22 1
-44.913944 272.639400 -37.624588 8 1
-4.234046 280.555760 -79.240974 53 1
68.107788 205.616960 -2.731677 27 1
6.516768 125.631640 43.382198 0 0
-52.288380 251.038650 10.605319 52 1
45.476532 172.772080 45.397778 0 0
19.670084 267.567540 60.070919 25 1
38.391403 261.002500 101.389660 20 1
-84.138519 262.232730 0.483467 51 1
45.163811 186.068220 28.969576 30 1
-43.143421 114.956730 6.481524 0 0
-67.215088 208.981770 8.305621 40 1
-46.559372 268.417210 -61.215511 8 1
-56.545589 263.857240 -46.360378 8 1
-51.309124 271.935820 -18.730406 8 1
11.809916 280.226780 -66.919907 53 1
-20.324036 99.993546 26.204401 0 0
10.110087 135.868870 13.548952 0 0
67.997864 270.881930 40.315506 5 1
86.484604 199.531220 51.666473 1 1
43.782505 274.411440 43.073036 25 1
-25.731100 126.384380 30.988649 0 0
-0.740181 92.475662 -1.867621 0 0
52.156704 281.499180 41.291142 26 1
82.309235 144.790420 59.648281 12 1
-1.134781 92.832687 9.263493 0 0
55.454372 276.843960 69.747925 26 1
-29.431875 103.339380 67.648346 36 1
-62.425102 242.805150 16.760349 52 1
15.242250 243.678340 13.294787 0 0
-7.638886 96.950226 16.479464 0 0
-19.824839 170.838390 92.935112 54 1
50.440647 184.653840 42.762684 30 1
-46.100121 131.762300 27.964285 49 1
-24.490543 189.802750 17.356838 41 1
30.595556 298.874450 -32.994106 9 1
-58.524071 201.041630 15.344517 40 1
43.306431 175.763120 30.601368 0 0
23.701672 164.224290 55.838512 48 1
21.312643 264.803040 78.246841 20 1
5.144589 130.228520 56.106640 0 0
-1.363755 255.278530 75.557259 11 1
-7.760577 261.883090 65.687782 11 1
-26.723375 112.534400 10.845864 0 0
-17.034563 103.218370 76.950523 36 1
-63.829559 203.321530 43.295227 52 1
-83.672699 254.681170 6.555065 51 1
-18.926231 142.664310 -9.956802 29 1
3.861096 297.111390 32.672485 22 1
-12.176491 42.103821 -0.294422 0 0
42.562817 281.693480 65.738701 26 1
-57.385025 287.380920 -33.138790 6 1
116.765820 170.463390 46.423294 1 1
-37.920464 136.318660 20.978086 49 1
-51.163761 202.389620 6.215106 40 1
37.669209 276.034970 51.864693 25 1
-43.442402 207.885090 -8.747132 40 1
12.896862 141.497860 -16.079048 38 1
-8.868282 127.680450 59.829315 2 1
16.500107 155.939100 21.908945 0 0
-99.633102 266.967560 9.409846 51 1
42.712742 203.827650 47.321171 28 1
38.755409 267.470670 81.382210 20 1
40.295868 269.156860 56.285236 25 1
-27.069818 275.588650 -45.872402 7 1
-64.402374 125.090480 11.258402 0 0
-19.009510 111.588550 -3.355411 50 1
35.703114 151.353450 71.022369 23 1
10.576796 304.125430 -10.477770 15 1
-19.880604 315.899780 -2.736026 13 1
-28.303120 188.911820 34.188427 41 1
-8.012858 114.953870 -11.352466 0 0
0.359336 130.111830 2.985248 0 0
-53.842052 90.606842 20.756540 32 1
-5.759047 306.410160 -6.397283 16 1
28.771896 275.458470 52.169289 25 1
-31.616678 200.118880 5.689783 40 1
2.750688 276.896360 -33.940281 0 0
-27.905272 289.704250 -45.467815 7 1
-38.963387 129.929410 27.054810 49 1
-33.527428 103.560120 76.926033 36 1
29.692242 256.141570 101.903510 20 1
25.474968 258.286010 89.210304 20 1
39.981819 187.860520 74.516777 28 1
-7.650574 282.404390 -7.111673 0 0
-24.659039 163.367650 -20.656857 29 1
-50.715050 99.708832 -10.185641 47 1
-31.493483 186.790330 6.429293 0 0
39.327652 160.801240 67.098030 23 1
-12.502399 125.081380 -5.753139 0 0
9.191542 272.189850 68.932777 24 1
-71.982414 218.657350 26.324450 52 1
-42.951904 179.145630 49.395737 31 1
5.570805 258.213590 62.989605 11 1
57.902214 206.404850 15.287271 27 1
-54.406406 97.666351 9.138149 32 1
21.763052 291.544370 60.389050 24 1
0.143168 316.178130 -23.202545 14 1
-15.431380 111.042180 65.067101 4 1
-3.465047 30.411650 -1.311674 0 0
6.880651 266.530000 -88.744492 53 1
-4.442694 155.697920 52.061806 48 1
-46.404831 285.424900 -45.031818 6 1
-17.117004 277.514530 -55.804359 7 1
14.884609 165.935100 50.972755 48 1
-35.548306 193.025830 7.843536 40 1
-18.297920 156.697170 -2.714415 0 0
-58.346123 255.328200 -6.377200 8 1
-0.319177 255.754200 3.366223 0 0
6.186918 105.452820 92.651390 34 1
-65.262344 173.923310 -11.362022 29 1
8.576782 267.637600 2.740304 0 0
2.136869 290.422970 39.276131 22 1
-118.984790 253.667890 22.439121 51 1
-79.481987 203.736310 18.593721 40 1
19.713217 162.122850 73.635048 48 1
9.740860 241.958280 -99.431854 53 1
95.100349 193.486220 27.063780 1 1
-2.872235 39.245693 0.361113 0 0
-34.147678 82.759315 2.511060 0 0
3.999030 265.231200 -29.635477 0 0
-39.426052 100.915730 -5.530682 44 1
-69.152580 253.617570 -12.494005 8 1
-9.038191 205.007000 -20.797640 39 1
60.763012 279.375920 33.819126 5 1
-28.689495 133.615650 20.952963 49 1
15.204960 293.176610 50.345535 24 1
-10.465250 202.909420 -7.184947 39 1
-4.422117 153.766080 3.364579 0 0
26.429543 131.095870 -32.360542 38 1
-18.257277 309.559480 -0.074666 13 1
37.244904 297.578920 -31.194965 9 1
59.671444 271.082790 17.222729 10 1
-34.912739 294.010710 16.001223 13 1
5.660207 285.387270 25.365219 18 1
-16.179346 203.022290 -18.605556 39 1
-0.434521 270.667570 -9.166177 0 0
65.539238 168.843380 56.574989 12 1
49.869556 264.547850 50.845211 25 1
-24.587015 88.780098 -9.813060 50 1
-1.296188 147.665360 -3.350031 0 0
17.611263 303.567840 -36.782127 14 1
-56.289474 266.642880 -53.569225 8 1
-30.696247 307.528140 2.288394 13 1
-29.866339 95.968994 -24.170521 46 1
69.007355 196.796890 21.671143 27 1
-61.829384 245.256520 2.713907 52 1
7.998912 286.743040 -47.868664 9 1
-62.074379 110.477520 51.707298 37 1
-18.155050 140.066710 -3.538646 49 1
-52.886196 170.673070 -9.827726 29 1
-27.962576 136.193620 5.184705 49 1
27.082054 260.708400 81.696640 20 1
-9.558856 205.550460 -42.856594 39 1
-25.776558 103.146300 -8.968881 50 1
-71.004257 241.929350 14.495717 52 1
-50.719009 127.938130 13.890654 0 0
-12.688391 89.408943 -5.390844 50 1
-102.702990 254.926210 6.790807 51 1
-0.668462 207.428630 -4.797594 0 0
-36.148403 268.942020 -63.705784 7 1
7.968513 274.494260 -77.845253 53 1
0.967150 284.524690 -45.508030 7 1
65.636520 262.515500 7.624508 10 1
47.118759 148.866590 69.909904 23 1
-53.679115 265.844180 -21.058474 8 1
60.275597 211.079330 4.473153 27 1
-0.233561 253.028720 -26.037405 0 0
65.266998 195.851180 42.596706 27 1
92.502693 195.857090 48.220398 1 1
53.761387 273.932400 52.268570 25 1
-0.433941 163.936980 69.999107 48 1
-26.565830 135.754010 27.970646 49 1
41.972225 188.276030 67.943718 28 1
18.154024 131.254140 58.209972 45 1
66.113480 271.445530 47.485600 5 1
-30.670431 95.334419 44.829063 0 0
-38.137993 287.522710 10.295375 13 1
20.287607 283.011440 46.368664 25 1
-34.319847 197.742400 -1.693684 40 1
-36.893631 135.432970 9.852005 49 1
-42.733219 199.177380 9.680348 40 1
-48.782841 112.392300 62.193020 36 1
-28.997032 156.251170 -10.360202 29 1
-11.798135 76.236023 24.285824 0 0
-44.423012 84.614098 1.346591 0 0
49.899517 163.535540 59.459663 23 1
-1.033359 130.289840 59.572460 2 1
3.092293 164.916380 43.967323 48 1
43.872169 287.461730 -34.922550 9 1
-37.396603 107.434880 53.260895 0 0
26.106667 135.224210 -18.657610 38 1
-10.168285 110.929670 12.641680 50 1
29.998751 292.617610 24.163504 21 1
21.692705 256.318480 61.763977 25 1
-65.815887 217.973130 31.397385 52 1
-14.367376 190.537030 9.434444 41 1
14.987717 170.527530 22.798126 43 1
84.543633 195.126340 24.388884 1 1
70.663475 148.457810 62.447731 12 1
-36.837276 274.939060 -31.961081 8 1
35.273281 275.558290 64.021240 26 1
14.055514 166.878230 40.857624 48 1
-14.168384 116.233730 -6.911705 0 0
-5.702203 62.036163 4.162713 0 0
6.176328 116.284180 21.292847 0 0
-16.694294 236.589660 77.923347 11 1
70.609482 270.305970 10.046790 10 1
38.282001 290.836940 -32.707787 9 1
-48.338448 126.797780 33.892578 49 1
-25.450500 94.830093 78.954254 36 1
32.614624 287.323580 -38.546417 9 1
-41.529499 308.199710 -27.792953 6 1
-48.377277 269.755100 -26.316912 8 1
-35.838474 132.448840 32.499599 49 1
90.009338 232.234410 60.714432 5 1
-26.760391 97.264305 38.833523 0 0
-20.243570 103.796240 45.623756 0 0
-76.461639 242.109850 10.279881 52 1
-19.249790 195.487460 8.900688 39 1
-22.257200 280.130830 -44.285328 7 1
5.734694 299.100740 -7.516519 16 1
-23.083549 167.994140 81.495132 54 1
-20.040493 159.530650 65.447342 31 1
-7.419871 230.323260 82.087883 11 1
-23.989109 102.517280 19.656782 0 0
36.726933 290.390810 25.866835 21 1
-5.150462 194.707370 -4.737907 39 1
-38.032791 204.419070 2.213394 40 1
81.447227 261.643430 52.839516 5 1
-37.644516 205.080320 -5.793891 40 1
-46.591663 166.939940 -10.260876 29 1
-33.088879 100.693110 48.120541 0 0
-84.806747 249.702440 2.160116 51 1
57.230221 279.021090 13.683647 10 1
2.648421 104.346680 16.118603 0 0
-0.205825 250.681200 81.011978 11 1
10.553757 311.861570 -28.940416 14 1
32.819302 171.576080 26.952419 0 0
-11.258821 156.018660 56.444889 31 1
75.333801 205.563890 7.256768 27 1
71.726952 170.036560 54.024300 12 1
-36.705769 140.720400 -0.265557 49 1
87.393135 248.287090 48.999947 5 1
-25.642639 194.187670 28.485291 41 1
-9.413142 281.693300 48.948586 22 1
43.078918 287.357640 58.381966 26 1
-132.716140 243.779480 25.130722 51 1
60.235088 198.028550 30.769588 27 1
-16.963999 114.311790 5.726593 50 1
5.947433 124.716840 80.186211 34 1
62.951683 205.235170 2.512319 27 1
37.199223 163.709080 53.170574 48 1
-23.214510 313.396510 7.839561 13 1
25.277205 301.373380 27.533197 21 1
-61.270489 216.639390 42.616913 52 1
-2.315315 288.540830 -39.858582 7 1
-49.665806 270.558650 -43.749733 8 1
49.995708 188.701860 62.541027 28 1
-72.281021 232.471970 17.307449 52 1
-5.158660 296.688350 41.018970 22 1
1.741030 119.512460 86.609665 34 1
-8.165707 72.248192 1.208853 0 0
-68.484879 243.763720 6.874331 52 1
-112.960630 250.853150 13.731214 51 1
-9.221032 243.965190 76.134941 11 1
-54.045551 246.312970 1.581054 8 1
-63.094582 108.933170 -8.917326 33 1
-6.236935 27.335758 3.912002 0 0
2.040609 240.632920 -21.765146 0 0
66.184853 189.523760 35.620319 27 1
-85.260406 248.243710 17.357096 51 1
41.509449 161.882340 60.093914 23 1
86.680176 196.488330 35.356495 1 1
-42.427074 299.906430 -29.405724 6 1
-11.378206 199.857590 -0.650876 39 1
-6.842309 165.806240 74.888611 54 1
63.704586 278.409580 45.460636 5 1
-5.743921 108.465130 20.696548 0 0
-24.767792 186.049240 45.337681 41 1
-29.428701 110.449810 16.540541 0 0
14.827591 275.602780 -80.147011 53 1
49.149879 279.909940 30.772720 25 1
2.761723 216.393980 -13.765557 0 0
20.355024 169.472720 42.721127 48 1
-13.895793 258.897430 69.527443 11 1
2.056975 305.482700 -35.699074 14 1
59.906376 186.700470 62.607346 28 1
-3.697531 282.901030 -50.947540 7 1
98.961067 193.911440 55.568752 1 1
9.663803 289.088130 4.164509 19 1
34.914650 297.839630 21.311825 21 1
-14.154498 188.897740 18.998873 41 1
38.093609 249.738660 122.086110 20 1
-13.203945 224.924360 82.544144 11 1
11.680405 104.772000 16.816067 0 0
-7.645205 10.951867 2.851917 0 0
38.217964 250.599500 115.343120 20 1
-28.156715 70.438103 2.152189 0 0
-103.263890 254.743770 15.244299 51 1
43.540810 280.357330 -34.746147 9 1
-54.257282 244.878890 20.418118 52 1
16.104723 260.783230 78.154747 20 1
-19.833937 135.486020 16.074194 49 1
-56.151695 230.216830 30.740623 52 1
27.899643 157.150340 67.052856 48 1
73.586029 267.716980 41.734184 5 1
-75.957985 255.645710 -4.193108 51 1
71.126015 207.521030 -16.384193 27 1
-15.933362 209.138230 -27.855553 39 1
6.306838 129.903440 67.299789 2 1
10.885171 162.235520 73.759140 48 1
55.728958 194.526950 41.830761 28 1
69.159096 265.866820 -3.211010 10 1
-42.184032 288.760350 20.189400 13 1
-18.900898 106.761830 54.533588 0 0
-51.747921 255.729060 -11.398349 8 1
-31.313574 171.199600 -25.098387 29 1
-48.706093 262.080380 -45.184528 8 1
123.880090 166.304820 47.176796 1 1
0.755474 201.147900 -20.837009 39 1
16.253635 301.583830 31.693687 21 1
-57.179325 257.778530 -54.577518 8 1
42.633514 275.496120 67.796806 26 1
125.406920 174.086070 51.007412 1 1
-57.450069 102.520140 -8.525091 33 1
14.968689 294.920200 26.104084 18 1
-53.290253 241.240190 -9.052246 0 0
-60.637981 110.137600 69.072472 3 1
-35.459518 310.401700 -29.030178 6 1
-18.728966 183.882420 -7.312543 0 0
-30.261292 307.723600 -5.817321 13 1
-26.767210 78.877136 -0.109409 0 0
30.911182 252.834270 107.551720 20 1
46.216198 179.972140 40.965302 30 1
-17.084637 53.760277 0.978261 0 0
12.299229 286.367000 -63.375965 53 1
-6.991378 81.525726 2.705577 0 0
-12.543028 166.547300 85.049049 54 1
71.563614 162.434450 52.599873 12 1
-25.530554 162.940120 60.909035 31 1
12.144971 298.601440 44.288063 24 1
72.748276 203.697810 19.379154 27 1
44.888935 176.676740 54.743046 23 1
43.066093 273.513730 83.352280 26 1
9.758308 101.835050 96.683861 34 1
38.550144 265.493870 24.083441 0 0
50.495205 277.797670 57.040005 5 1
97.023888 192.389390 38.774395 1 1
-23.534115 223.234760 80.875610 11 1
-36.947201 300.223240 8.331479 13 1
46.843994 246.259720 126.508380 20 1
21.010561 267.912380 66.394196 25 1
-5.827160 118.419300 2.093752 0 0
-17.989140 92.484299 29.234577 0 0
-26.149111 314.303040 -6.059065 13 1
47.909309 157.032440 57.670174 23 1
3.565493 111.403240 10.926268 50 1
50.120831 270.921420 12.402107 10 1
63.592812 274.680080 37.515465 5 1
107.504330 178.857280 46.043293 1 1
-35.347473 271.111660 -42.878330 8 1
-7.618849 65.343597 16.315754 0 0
-30.287752 140.397920 0.637139 49 1
41.713657 261.769530 109.840900 20 1
46.555546 276.317990 51.747356 25 1
-94.489372 247.084260 18.846947 51 1
-48.363487 210.234570 -1.546998 40 1
-52.372120 174.430880 -22.405834 29 1
27.293821 127.151760 -37.724030 38 1
-2.539344 205.558820 -16.103460 39 1
1.899624 217.372300 1.146993 0 0
55.748520 273.554780 40.616257 5 1
0.210163 141.906740 0.429208 0 0
24.856997 252.177720 14.622171 0 0
33.155415 268.534760 27.489922 0 0
-25.805029 307.462460 6.823995 13 1
-53.274445 103.573790 -19.621334 44 1
-28.173542 190.508180 23.649776 41 1
-41.735699 306.448120 -36.397137 6 1
-50.736488 108.428110 74.089447 3 1
-18.882181 99.966324 -0.098676 50 1
71.399727 158.675060 61.009106 12 1
22.687796 288.347170 -34.480011 9 1
-15.713779 278.420350 48.100330 22 1
-50.463375 115.964450 42.873444 37 1
-30.150890 100.018660 -19.208048 46 1
42.737022 181.531950 80.263840 28 1
-43.200771 269.921360 -52.911327 8 1
-63.825542 102.695120 -12.143731 33 1
-35.872173 303.824430 2.996456 13 1
-39.839085 261.691070 -56.026104 7 1
-0.091360 101.165710 97.709450 34 1
31.491863 257.917570 23.630671 0 0
-21.945478 105.085600 9.916040 0 0
6.523774 287.076230 -67.873955 53 1
-0.106510 161.093830 55.943184 48 1
-47.806034 125.097080 24.148254 0 0
-69.440468 106.358630 74.915276 3 1
-56.845676 169.234860 63.036793 31 1
0.927368 297.125210 -1.686298 16 1
17.557962 259.665010 -88.611076 53 1
-75.846878 206.230220 13.307203 40 1
-8.317169 159.325700 48.554279 48 1
-124.842270 251.270160 17.518816 51 1
0.803637 284.752170 45.274555 22 1
-63.490845 92.018433 19.652290 32 1
-15.550592 204.596830 -11.400474 39 1
-10.589882 105.005240 68.776955 4 1
22.062996 138.570040 -14.988811 38 1
-30.299574 95.572784 -11.670852 50 1
-24.313900 169.464080 87.670441 54 1
46.837753 196.746320 53.951008 28 1
69.024933 195.167480 36.068913 27 1
30.839808 279.797240 47.752144 25 1
-0.994647 257.231260 69.531807 11 1
104.455890 184.127380 36.279236 1 1
9.378721 257.025510 75.803398 11 1
-20.385757 190.726360 39.140305 41 1
29.889153 118.173170 58.178532 45 1
-45.858757 126.347850 17.657660 0 0
47.427521 251.576680 116.980060 20 1
0.347034 109.044410 0.228710 0 0
-53.870205 105.091260 -31.802361 44 1
-97.292458 253.694310 12.990458 51 1
-58.314247 262.532410 -13.936440 8 1
-68.461708 207.395370 32.866276 52 1
-5.354367 300.087310 -6.143026 16 1
-58.105171 239.351750 11.796719 52 1
50.573246 184.589130 23.630802 30 1
18.606060 262.678770 72.168770 20 1
-23.565910 105.276150 65.407562 36 1
-4.747037 279.085570 44.845985 22 1
49.708096 289.285520 -31.427219 9 1
2.563747 269.720700 3.137891 0 0
119.354110 174.564180 42.423233 1 1
-39.981705 295.929690 -40.401638 6 1
-48.944016 257.978000 -55.894386 8 1
-23.643135 164.444020 70.460312 54 1
13.733229 262.820950 59.732059 25 1
62.971508 202.625730 14.394626 27 1
-92.708351 264.051150 8.563685 51 1
-28.319544 303.721250 13.716986 13 1
-11.058934 200.053570 -15.871633 39 1
-6.952597 295.536900 -10.378990 0 0
2.842151 261.443450 72.128624 11 1
-33.934509 158.488980 -2.813934 29 1
-13.680406 284.010040 -53.626987 7 1
29.544430 296.832550 -39.611839 9 1
19.926226 299.201570 2.838873 19 1
-13.303277 161.608890 45.505196 31 1
-108.782990 246.493450 16.373764 51 1
-21.746223 173.399730 45.562668 31 1
-21.515356 58.045013 -2.617756 0 0
-8.070134 138.961070 -10.246706 38 1
-23.678902 182.579850 -3.732156 0 0
1.882815 265.833310 61.054962 11 1
76.545189 190.031310 39.829533 1 1
45.220795 280.624480 42.385262 25 1
26.999451 150.204540 34.682182 0 0
20.928659 164.519360 61.924805 48 1
50.350948 283.738190 35.551563 25 1
70.532021 257.479400 -2.908189 10 1
-43.236298 165.908630 -5.108094 29 1
-51.602024 297.325470 -34.100403 6 1
-30.554840 137.267070 10.883575 49 1
21.741463 284.043150 66.835411 24 1
-80.021294 249.072710 13.911981 51 1
-34.733044 275.695250 -37.958324 8 1
-9.384706 150.569900 1.387699 0 0
28.180515 124.246230 57.144547 45 1
-128.111250 248.230940 26.430378 51 1
-82.899994 203.697280 12.273637 40 1
15.569094 269.186190 -81.909714 53 1
11.274786 115.226070 84.560509 34 1
-31.371500 197.575870 17.115200 40 1
-6.270992 291.318080 38.095425 22 1
-62.172779 232.406330 20.572876 52 1
-51.246307 281.783420 -41.467308 6 1
5.489927 141.041790 -17.493530 38 1
48.704796 178.602020 49.766914 30 1
-7.702054 163.871380 62.083717 48 1
-42.556526 176.175700 -29.081118 29 1
-37.308254 124.856200 9.130856 0 0
-8.004347 313.350770 -17.463287 14 1
-30.761215 165.283570 -22.045315 29 1
54.203045 170.986070 55.284641 23 1
-12.136651 151.940520 51.205498 0 0
94.320358 233.494290 56.097607 5 1
9.070660 169.721150 43.196579 48 1
100.274260 187.999310 28.149824 1 1
5.910157 262.256930 81.384834 11 1
57.777809 280.472170 50.559177 5 1
-9.382027 285.097780 40.433342 22 1
-38.005402 106.695990 7.852166 0 0
-6.837576 142.937730 -19.300104 38 1
-23.822775 192.904920 -9.080056 0 0
-34.550488 101.317330 64.088669 36 1
1.684909 109.760430 90.743950 34 1
-89.496628 265.056150 1.673914 51 1
74.288040 262.354490 46.530148 5 1
56.810780 271.035060 47.049603 5 1
76.305428 161.127700 58.189781 12 1
79.745796 268.421170 38.969093 5 1
-47.049255 261.747130 -65.725121 8 1
-14.477205 125.099440 59.845085 2 1
-9.456947 84.072601 25.756058 0 0
39.704273 192.324920 63.503223 28 1
9.867761 291.353820 52.806416 24 1
13.664069 110.733860 89.033554 34 1
10.327555 256.219850 68.733818 11 1
55.154846 180.916670 69.288162 28 1
-15.021310 191.812450 31.159117 41 1
53.233284 281.412480 -36.817909 9 1
-36.125908 101.653810 2.562380 0 0
-10.452014 137.210210 -2.520442 49 1
84.019630 243.011830 59.133457 5 1
-21.720877 111.235150 66.068314 36 1
38.527897 168.694490 58.057880 23 1
34.166332 263.536990 89.800209 20 1
-58.091820 246.480290 -10.415646 8 1
49.628551 276.025910 75.192314 26 1
-62.292992 258.319950 -16.382143 8 1
-41.082821 110.717580 68.001228 36 1
48.879929 277.041720 -33.924698 9 1
6.472319 245.766220 -4.790467 0 0
85.135422 141.692320 55.170750 12 1
-49.252441 177.831240 -28.498161 29 1
-45.058617 104.034940 -30.928797 44 1
15.137733 283.867980 -74.292267 53 1
21.358837 123.751940 62.566483 45 1
12.843393 144.353760 -9.288279 38 1
13.547964 235.707380 42.252541 0 0
-9.610475 117.223190 27.752605 0 0
-23.538786 91.533058 36.132614 0 0
-65.654236 232.716430 26.019886 52 1
14.644518 137.019490 -23.872936 38 1
-23.915718 154.174120 -7.425951 29 1
-43.663765 289.845890 -37.781132 6 1
60.818676 195.182940 52.580334 28 1
-0.033208 281.212740 -74.637894 53 1
-13.692542 240.197140 74.031441 11 1
7.727908 209.313690 26.167831 0 0
19.376152 299.173220 26.194778 21 1
8.199780 307.383940 -39.104126 14 1
73.870247 196.285520 40.398552 1 1
27.322386 266.152340 77.622620 20 1
61.620365 280.036500 -31.727276 9 1
11.846925 234.780930 7.149271 0 0
69.888420 152.794170 58.165806 12 1
5.161990 208.650760 -3.417201 0 0
-18.662239 155.089420 -18.838793 29 1
-18.763397 199.133030 1.211605 39 1
27.085184 259.166500 68.812920 20 1
71.127037 259.241390 6.565894 10 1
88.056656 190.838500 42.527454 1 1
60.657990 267.835600 11.384212 10 1
-8.581426 194.879880 1.419264 39 1
46.214664 186.388430 38.769867 30 1
61.441990 274.173740 8.241413 10 1
-36.514107 194.132770 15.045468 40 1
-40.754082 133.911270 16.128391 49 1
84.122543 254.281680 57.470371 5 1
66.833672 167.555650 50.794777 12 1
-64.876755 235.317310 15.748627 52 1
-81.631432 254.540250 -6.602942 51 1
-31.177235 107.274800 72.753899 36 1
61.237373 191.577300 45.557491 28 1
-6.403926 46.637360 4.594830 0 0
-11.491628 284.837620 -48.051319 7 1
-17.357241 246.691040 75.827354 11 1
50.348267 181.594850 34.477409 0 0
-1.611149 49.114880 1.210581 0 0
-17.125622 230.900540 75.953705 11 1
11.691875 227.244310 36.021400 0 0
-2.529321 113.153840 9.752631 50 1
91.666924 244.814060 54.125004 5 1
-5.176540 289.670470 -70.466393 53 1
8.977048 299.394350 36.610855 22 1
32.348698 260.947360 99.422012 20 1
-7.488305 167.540370 80.622459 54 1
-48.887943 131.595460 22.625818 49 1
-57.715729 249.584500 8.395054 52 1
6.158697 278.143280 -73.412849 53 1
13.886661 167.009140 34.378574 48 1
-21.098427 108.600330 74.390884 36 1
-41.319500 213.751510 -10.361762 0 0
-89.164917 254.206020 8.951480 51 1
10.654607 219.724960 30.799206 0 0
-5.005609 97.119980 63.050869 4 1
55.739391 194.936940 26.154337 27 1
12.006428 136.559630 -33.402184 38 1
-51.935719 93.946182 5.120463 0 0
-27.625731 170.554180 101.726260 54 1
-95.498169 249.144040 9.522654 51 1
-57.625782 260.848540 -36.134457 8 1
-14.289387 135.418230 -13.306037 38 1
-1.713712 98.896271 0.453489 0 0
78.584801 256.426150 54.888500 5 1
25.507521 292.493440 -38.805527 9 1
-5.313406 58.143650 11.696505 0 0
5.800848 286.321010 34.501022 22 1
38.142960 278.106080 -38.078594 9 1
30.471968 264.250920 57.120720 25 1
-37.632957 187.062930 45.114281 41 1
28.491220 293.958740 30.074993 21 1
2.223399 289.703670 3.093386 19 1
-8.272369 312.120940 -10.718042 14 1
1.934856 112.171540 16.867767 50 1
-5.708446 313.815250 -25.455135 14 1
10.510803 166.657070 55.624485 48 1
-16.749771 312.309480 -13.800120 14 1
-39.399960 107.204730 -22.157280 44 1
7.635658 103.229820 12.135919 50 1
-3.722337 144.661380 -30.454515 38 1
-71.714958 110.783580 78.186775 3 1
-25.441141 102.940480 25.440989 0 0
7.781893 294.325160 43.940659 22 1
-88.076393 248.582810 7.322255 51 1
14.401290 295.568300 -2.268992 19 1
-55.107693 124.559560 4.889298 0 0
113.303920 181.602360 44.440380 1 1
-62.301018 178.092700 -20.174164 29 1
-3.842012 69.415573 -1.879800 0 0
-33.926857 208.084030 -10.028051 0 0
86.847816 256.949550 46.254639 5 1
-33.803833 176.565170 53.001991 31 1
29.068359 166.970430 48.306499 48 1
-53.834908 206.560940 -2.727504 40 1
-18.846127 166.929200 109.190440 54 1
-59.533352 108.234730 78.385574 3 1
-26.756607 188.518260 10.164716 41 1
-19.863607 120.480130 62.699596 2 1
1.844323 293.932950 44.401516 22 1
46.932350 269.647800 48.194054 25 1
-43.634480 202.225630 1.676857 40 1
0.124326 274.809020 -81.980820 53 1
65.677452 158.160400 59.083794 12 1
-17.360313 168.446330 80.047203 54 1
-30.678854 279.066380 -42.042709 7 1
-5.951394 286.555570 47.040951 22 1
-61.895470 98.758545 4.971447 33 1
14.750754 302.533450 -5.648734 17 1
-25.283825 105.272700 59.753365 36 1
-64.006927 253.655720 -7.762408 8 1
-48.339432 106.609050 -20.943153 44 1
17.693214 288.877870 53.543835 24 1
0.174192 212.907880 -2.428246 0 0
-1.137145 291.767240 9.198217 19 1
-5.452014 2.167861 -3.128293 0 0
-19.073898 139.367420 11.696679 49 1
-109.394550 260.442350 6.638862 51 1
9.009687 287.329800 -37.895802 9 1
0.069949 176.732160 28.146194 42 1
48.818501 182.811740 69.777107 28 1
48.961987 172.564300 57.827011 23 1
-50.878048 97.613838 -1.967479 47 1
-6.214415 78.605774 -4.168953 0 0
4.384628 166.314770 33.628296 48 1
-57.487938 223.707640 35.713211 52 1
25.513083 268.294950 60.392517 25 1
-122.193040 257.879790 19.885761 51 1
47.599350 194.526370 59.647266 28 1
26.946676 286.850190 -41.190247 9 1
8.973553 280.267430 -78.219681 53 1
-8.141744 288.695040 -41.209190 7 1
54.096119 188.771330 30.706333 30 1
-16.526909 277.756380 42.048130 22 1
