1.955252 26.167242 3.253460 0 0
-7.716972 44.508381 9.744794 2 1
-2.121673 72.132431 4.853671 0 0
-3.191354 55.897938 3.675989 0 0
13.314426 75.118477 -12.714234 7 1
9.360494 77.698311 -11.661776 7 1
-55.651638 77.271278 -26.878403 3 1
14.457345 75.845642 -7.611184 7 1
-5.610537 80.537788 9.040285 8 1
9.973267 79.194931 -1.675428 7 1
18.811647 42.709816 -8.568488 1 1
-13.489363 85.165031 -13.857489 5 1
-15.050776 78.411613 -30.867178 5 1
7.484143 36.031071 -22.972475 1 1
-22.969934 86.387306 -21.022198 5 1
-3.377402 47.428093 1.492020 0 0
5.094352 85.123665 13.227313 6 1
16.012766 32.067940 -16.327053 1 1
-14.474247 43.091034 15.941718 2 1
-14.061730 40.130581 19.647766 2 1
-35.065311 87.540176 -12.273326 3 1
-19.965113 86.881310 -13.073810 5 1
-9.411500 77.306915 17.468626 8 1
-30.185854 80.115761 14.113786 4 1
11.371833 37.296654 -20.788076 1 1
-30.171223 88.245682 -16.657351 3 1
-2.155691 40.543930 11.757729 2 1
0.363069 38.790951 6.088061 0 0
-36.785740 82.760246 -25.680010 3 1
29.751406 77.363953 26.964846 6 1
-1.887620 80.101837 5.659727 0 0
-6.876269 73.333389 4.220797 0 0
9.137232 36.720654 -15.009090 1 1
-7.615564 61.893124 2.301241 0 0
-0.912939 14.992975 2.121482 0 0
-3.125236 76.505638 2.594985 0 0
9.396202 40.213318 14.748940 2 1
-6.372347 79.079666 22.561535 8 1
-12.029203 72.977585 27.413795 8 1
15.209632 35.502594 -14.419881 1 1
-32.544472 83.545357 0.356209 4 1
6.723270 39.633434 -16.913269 1 1
-11.563620 74.339844 23.519917 8 1
-27.235537 80.708969 11.339375 4 1
12.337518 81.851120 23.608391 6 1
-31.691307 86.309311 -23.087151 3 1
-20.117031 86.569565 9.016760 4 1
30.534277 74.010994 30.398445 6 1
5.022194 82.566010 5.004061 7 1
-23.372641 91.775406 -16.042364 3 1
-8.839612 72.869789 -0.316577 0 0
-4.587527 33.365582 21.333439 2 1
-11.506032 81.249649 -24.805960 5 1
-11.277931 33.531544 22.431952 2 1
14.564510 40.566498 -10.432152 1 1
-34.720490 91.433044 -9.812183 3 1
-50.533752 80.202530 -26.198984 3 1
2.753315 43.078377 -20.458471 1 1
-36.057438 79.355217 6.241721 4 1
-6.818161 29.805149 26.197884 2 1
-1.125967 34.322666 25.417536 2 1
-18.843714 83.802933 -7.449360 0 0
-8.960923 37.890190 18.137148 2 1
-8.197189 42.339378 13.227720 2 1
18.468990 81.830910 14.292224 6 1
-23.942419 86.053528 -8.682429 4 1
-42.542198 85.507576 -16.518454 3 1
17.795858 78.647461 21.006157 6 1
-27.848936 80.343521 17.018929 4 1
-1.050234 32.979271 2.519370 0 0
1.081124 3.463965 2.805854 0 0
-4.166991 80.682961 -24.552708 5 1
22.429733 80.821892 19.301668 6 1
9.396474 75.613708 -5.093332 7 1
-29.246973 82.151390 4.754656 4 1
10.078622 77.871819 1.789733 7 1
2.544720 36.265816 24.393297 2 1
7.487396 82.529022 14.264712 6 1
-4.538642 63.687737 3.438202 0 0
-0.357184 9.296386 1.348356 0 0
-4.084003 84.477020 -18.630468 5 1
-14.869061 81.410431 -26.479118 5 1
-5.272571 81.711792 12.511974 8 1
21.244539 38.053284 -12.179472 1 1
13.051598 74.238419 -16.356079 7 1
-40.371494 91.554443 -13.166689 3 1
1.978914 43.339016 -24.641514 1 1
-33.005436 90.448891 -12.908945 3 1
-30.121433 80.994461 9.134055 4 1
7.282728 40.037270 -9.200132 1 1
-12.397310 71.985924 30.976030 8 1
-1.068854 42.031258 1.850395 0 0
-9.301486 80.840202 15.346920 8 1
0.685834 82.936394 6.623195 0 0
2.493853 37.751446 20.941717 2 1
-32.542088 85.882011 -15.406387 3 1
-6.299056 79.159058 -27.491812 5 1
-8.465209 75.566605 24.931526 8 1
-7.147364 69.301918 3.809857 0 0
-4.726064 83.138626 6.575972 8 1
0.220521 80.815041 11.576755 8 1
-2.909107 43.534885 -7.752839 1 1
-53.642769 87.337959 -17.489058 3 1
6.712746 84.854897 7.582023 6 1
-14.779877 34.122387 22.673895 2 1
-0.673569 37.284252 17.566597 2 1
-35.381691 84.965820 -17.846123 3 1
-40.082870 83.039787 -31.359165 3 1
-11.429157 28.435677 24.195538 2 1
-5.649693 78.853867 14.807394 8 1
17.662971 81.006149 27.551031 6 1
-28.825964 90.157555 -12.109674 3 1
1.664085 42.752014 -5.720242 1 1
4.600243 80.292763 -3.327425 7 1
-5.911146 78.460304 1.423200 0 0
-9.551866 74.857620 2.580279 0 0
-10.899467 63.025658 -1.893104 0 0
-26.450008 82.198959 2.661130 4 1
-32.553719 81.089340 2.853267 4 1
24.686424 76.580856 28.554790 6 1
16.172968 81.784889 18.019495 6 1
-6.027208 74.902786 1.263024 0 0
-1.025830 36.647392 2.090665 0 0
-33.108765 79.387390 9.749686 4 1
1.850166 21.233385 3.438534 0 0
-30.061430 94.244682 -8.589100 3 1
-24.167837 90.826279 -8.807723 3 1
10.085046 34.150223 -17.392265 1 1
11.127210 81.505653 19.871439 6 1
-47.040100 83.238121 -21.846254 3 1
7.122908 77.725739 0.041410 7 1
18.686819 72.517281 -9.129107 7 1
-15.521569 83.273453 -19.090899 5 1
-0.961535 19.647982 2.217227 0 0
1.542239 83.833855 2.677991 7 1
-7.327245 47.678284 6.138770 2 1
-17.955915 77.319321 -6.451887 0 0
-12.949731 74.047241 -4.252176 0 0
-39.753922 84.378098 -26.366558 3 1
-4.355689 78.501495 11.458286 8 1
-8.353896 83.037926 11.593642 8 1
-4.777955 51.068558 2.644582 0 0
22.450731 43.122398 -7.459741 1 1
5.591563 80.140221 -7.494989 7 1
-53.287403 81.160782 -21.879210 3 1
-20.233526 80.760002 -7.825587 0 0
-7.903598 33.698318 21.979570 2 1
12.085079 76.583191 -2.284620 7 1
-16.409788 85.883972 -12.360063 5 1
-5.890338 59.956902 0.187009 0 0
-13.377526 68.515404 -3.789905 0 0
-5.056879 67.682602 1.405409 0 0
-6.132694 36.481415 16.499500 2 1
-2.176782 79.065269 25.737001 8 1
27.933714 74.697990 27.938623 6 1
6.706234 39.753761 16.761095 2 1
34.731609 74.574219 31.162527 6 1
8.813998 79.206505 -5.056395 7 1
-29.029482 84.433159 -3.877144 4 1
-35.018406 86.466225 -20.865219 3 1
-1.692866 47.729874 -14.089114 1 1
-40.373493 88.068344 -16.438511 3 1
-10.445500 84.829681 -15.464449 5 1
5.214879 40.551880 10.944883 2 1
12.457150 43.014824 -5.050469 1 1
-44.120186 90.899475 -13.131982 3 1
-4.389805 57.135715 0.889713 0 0
-54.992561 84.714005 -18.901566 3 1
-25.962151 88.576180 -18.297647 3 1
6.084877 42.082401 -14.445046 1 1
-4.532146 40.062786 13.941664 2 1
-45.030949 79.919312 -28.509235 3 1
-15.146908 73.380478 26.210411 8 1
-9.692134 66.041214 0.034815 0 0
-0.387339 81.449104 21.419922 8 1
-0.717869 82.124138 15.449576 8 1
2.219460 43.252327 -14.126364 1 1
-9.529139 79.808388 -27.132168 5 1
-21.743425 86.260918 4.313256 4 1
5.160504 38.192429 -23.798798 1 1
0.708958 83.856201 10.174370 8 1
1.387347 77.685593 5.806587 0 0
17.858162 72.285347 -12.246820 7 1
-32.981316 76.086517 10.143568 4 1
-27.842403 90.847946 -21.690954 3 1
-4.998228 78.256363 19.744484 8 1
-19.508406 84.513191 -17.766504 5 1
12.514081 31.856651 -18.305861 1 1
1.718174 31.486214 3.203031 0 0
-8.733474 79.114594 20.042555 8 1
-25.991596 87.574165 -6.724300 4 1
-48.802845 86.228043 -18.555319 3 1
9.680720 45.057049 0.340357 1 1
-1.758358 47.878468 4.324716 0 0
11.001972 37.220375 -17.602606 1 1
-5.672199 80.398468 5.176400 0 0
8.239994 38.102276 21.239378 2 1
14.801732 80.087212 24.754744 6 1
-38.474327 85.129341 -23.470583 3 1
-10.743631 77.443497 23.394251 8 1
-0.056623 77.753975 14.809305 8 1
23.342890 81.850441 16.419123 6 1
12.441094 30.001429 -21.635746 1 1
-17.208843 44.646976 16.712252 2 1
-1.156927 47.629612 -19.319281 1 1
11.007115 77.357376 -8.064446 7 1
-0.676800 39.227158 9.288035 2 1
-8.724971 79.847809 9.137280 8 1
1.867504 36.870346 0.223652 0 0
19.541512 84.336472 12.089233 6 1
-4.747143 43.055798 8.849230 2 1
-19.623772 86.693916 -9.916951 5 1
-19.924320 82.831055 -26.481045 5 1
8.185985 84.208504 18.981600 6 1
-8.790488 76.441765 28.306383 8 1
-51.473007 77.196007 -26.430302 3 1
0.351565 46.524586 -10.109012 1 1
-13.933695 87.293503 -10.785613 5 1
-11.236686 78.890503 -30.333420 5 1
-1.185616 39.647457 15.523678 2 1
-45.038162 87.024757 -17.722790 3 1
-36.832306 85.840111 -27.018589 3 1
8.394331 82.314537 5.095953 7 1
-50.015755 79.121101 -23.129333 3 1
-39.754932 83.318214 -18.913433 3 1
-23.524841 87.576126 -11.360273 3 1
20.698196 77.854774 24.549911 6 1
-2.596400 43.749214 5.565972 2 1
15.345284 82.525826 11.606506 6 1
-24.140745 85.042282 -16.054871 5 1
-37.343307 86.488983 -14.209274 3 1
-31.159355 88.257591 -20.708717 3 1
-6.055581 30.623331 23.280203 2 1
12.182457 80.526627 14.117000 6 1
-43.181290 83.303482 -23.784056 3 1
-46.951736 81.466576 -26.548441 3 1
-17.378098 81.738922 -21.425709 5 1
-11.761329 75.945465 20.788528 8 1
9.830226 38.585022 -12.293397 1 1
-49.163090 83.267525 -19.631622 3 1
-2.394643 83.659828 4.240252 0 0
12.209673 35.765564 -15.193120 1 1
-44.275665 80.511414 -24.543636 3 1
-2.749444 53.371162 1.969449 0 0
-30.741629 76.260109 13.426309 4 1
-42.483948 82.670013 -29.474007 3 1
12.462083 75.271278 -5.342836 7 1
7.802340 43.179173 -3.507306 1 1
-55.530972 80.170639 -23.709858 3 1
5.152410 82.786964 11.248856 6 1
20.362261 82.628105 16.619263 6 1
6.524502 41.061672 -5.755352 1 1
-32.931492 88.059258 -25.246807 3 1
-21.123352 84.028000 -21.399048 5 1
3.676924 80.797081 7.044243 0 0
-16.832397 39.798553 20.779224 2 1
4.119341 38.218822 16.115652 2 1
13.155596 81.964088 17.589172 6 1
-5.490170 64.740044 0.786837 0 0
10.482883 31.357084 -23.544733 1 1
9.694035 34.857635 -21.290741 1 1
-8.867901 76.420921 -32.356903 5 1
-27.977699 87.167007 -12.690199 3 1
-11.997069 42.407887 14.356917 2 1
-13.523969 45.857040 12.959360 2 1
24.572664 78.543465 24.320520 6 1
-11.362329 46.269047 9.912072 2 1
1.452845 41.665485 -2.945258 1 1
-29.931818 83.253906 -1.059862 4 1
-38.640903 86.119019 -19.555275 3 1
-37.858921 89.251877 -15.186998 3 1
9.623972 85.116676 8.132420 6 1
17.778135 43.620659 -5.937454 1 1
-14.541323 79.366241 18.545013 8 1
-4.893387 71.009415 4.703952 0 0
-22.435677 85.331192 -5.364177 4 1
-0.833308 77.943718 3.867653 0 0
7.156796 80.076958 -1.844223 7 1
4.216602 81.471985 2.380551 7 1
-19.745161 86.558983 -4.024501 4 1
15.979216 78.782486 18.647705 6 1
-33.933743 84.372566 -22.635303 3 1
19.419235 41.175018 -11.008066 1 1
-8.528728 78.014481 14.748669 8 1
12.230207 41.387169 -7.591078 1 1
-4.196052 30.720791 27.403545 2 1
-4.917010 83.361526 9.500589 8 1
-0.941716 26.462626 2.864279 0 0
-38.432240 92.017914 -10.821860 3 1
10.461156 83.159622 13.839986 6 1
27.939590 78.327248 24.727337 6 1
-44.465347 84.267715 -20.896561 3 1
-8.690566 77.713020 2.772865 0 0
-1.602881 2.543160 3.519161 0 0
-25.350828 83.684875 7.564476 4 1
-23.628771 89.022537 -15.109873 3 1
3.324668 40.334400 13.171986 2 1
-6.109617 76.936729 -31.098396 5 1
3.857248 40.425495 7.210522 2 1
-16.310986 74.057480 -5.587537 0 0
-18.962730 83.901962 -23.440752 5 1
-3.761622 77.808693 5.791027 0 0
17.948133 36.798904 -13.858109 1 1
21.913877 77.400146 29.048306 6 1
-32.430923 79.087715 12.573646 4 1
-2.507371 81.883850 11.658697 8 1
7.804808 39.097961 11.430053 2 1
-12.096522 77.698898 18.466391 8 1
-4.016620 73.974617 3.685453 0 0
3.325533 85.138611 10.913285 6 1
3.388176 82.935844 -3.082106 7 1
-29.703421 79.900101 6.513300 4 1
14.296514 72.353638 -12.709801 7 1
-24.230669 84.080101 -1.141172 4 1
20.385130 80.033630 21.189337 6 1
32.255657 74.784935 32.588043 6 1
-28.075375 90.597580 -9.107027 3 1
3.548687 41.673500 -22.925873 1 1
-41.550388 82.451912 -21.004782 3 1
-14.058981 79.927399 -24.177328 5 1
-12.334591 82.550385 -19.786924 5 1
3.282794 43.606953 -9.203169 1 1
-35.761337 94.152451 -9.925376 3 1
-4.638970 77.980865 24.534613 8 1
-11.716445 75.352448 28.950325 8 1
-9.960760 34.556114 20.126921 2 1
-2.012203 47.624008 -11.223224 1 1
-11.998191 38.679577 18.265200 2 1
-46.354130 89.932037 -15.241991 3 1
20.012440 79.701523 26.651608 6 1
-49.491829 77.358597 -28.918413 3 1
9.192033 76.571869 -2.438666 7 1
-3.926672 80.596573 16.219318 8 1
-47.887482 80.516121 -21.895357 3 1
-22.959654 84.755974 -18.712385 5 1
15.264633 37.818077 -12.782517 1 1
-41.464722 81.603020 -25.961489 3 1
-9.519669 68.507896 2.199864 0 0
-34.857178 81.231750 4.466647 4 1
-2.690655 34.791290 22.847244 2 1
-13.534728 77.696068 23.606647 8 1
13.727836 45.602757 -2.819148 1 1
-20.481998 85.110931 -15.187265 5 1
-28.583183 89.546112 -18.559183 3 1
-5.996654 85.572296 -16.308386 5 1
1.568263 14.734437 3.379012 0 0
5.195800 40.654385 -10.950106 1 1
-15.549908 82.605370 -23.906300 5 1
-32.335960 88.649895 -14.927823 3 1
-14.211899 37.811668 21.218157 2 1
13.292687 73.426750 -8.338902 7 1
-10.784799 31.127844 23.952389 2 1
-14.356587 80.346619 -28.994415 5 1
-3.265178 79.180527 3.329631 0 0
6.698342 37.911499 -20.859850 1 1
-29.409821 86.455963 -18.641914 3 1
-10.030818 84.187668 -18.770033 5 1
16.379000 80.523003 22.516788 6 1
-0.351660 40.604160 4.115483 0 0
-50.702187 86.983665 -16.665779 3 1
-25.361210 89.137810 -12.931844 3 1
1.363997 28.524065 1.931617 0 0
5.392091 41.298222 -1.424083 1 1
-1.139697 4.438376 1.475730 0 0
1.214079 43.905819 -11.570026 1 1
-2.188432 37.887177 6.639677 2 1
-11.245889 68.201736 -0.977041 0 0
-37.674553 88.884308 -11.788271 3 1
-3.699826 78.624130 -26.757231 5 1
11.282266 80.063469 0.585322 7 1
-6.548670 27.126961 27.036037 2 1
1.103766 7.997983 3.304147 0 0
-14.775431 84.253784 -16.257473 5 1
12.364490 45.248020 -0.209588 1 1
-3.102409 82.462494 -20.255060 5 1
27.477543 75.624580 33.407288 6 1
-7.975475 28.690720 23.795984 2 1
-26.085140 84.641357 1.419604 4 1
-27.483776 82.793732 9.578606 4 1
-3.591509 39.838345 9.547592 2 1
-2.676503 44.009064 2.809651 0 0
14.470886 75.144432 -10.249177 7 1
-5.861392 55.607265 2.914422 0 0
-15.316806 78.587738 -6.016103 0 0
-13.801117 75.734055 25.979492 8 1
-56.404026 74.827965 -27.884651 3 1
16.644472 74.436966 -8.473407 7 1
-25.726980 90.348869 -16.255308 3 1
-21.296812 84.932610 -7.801323 4 1
27.760796 80.836136 20.252808 6 1
-48.259937 78.537720 -26.816742 3 1
-42.274731 87.172852 -14.354046 3 1
-1.062213 12.287427 2.078486 0 0
24.739157 79.620934 20.027361 6 1
8.300662 81.200432 11.219687 6 1
6.781825 80.268936 0.850531 7 1
-27.488070 80.393059 14.303175 4 1
-8.163580 78.187317 24.459240 8 1
-29.675001 86.452782 -14.657489 3 1
-25.762545 82.203651 5.249277 4 1
-8.399604 42.033234 10.501456 2 1
27.191816 77.290543 27.733057 6 1
-9.794972 74.351875 26.917088 8 1
-39.662762 84.280487 -29.040541 3 1
13.678225 84.489120 10.831865 6 1
0.771382 36.488579 4.829768 0 0
10.823426 75.938774 -13.111120 7 1
-10.159029 79.842384 17.673258 8 1
-58.103512 76.929955 -25.879776 3 1
16.111713 75.789482 -5.455096 7 1
17.123823 83.997139 13.114579 6 1
17.149836 40.916763 -9.584271 1 1
7.999385 84.143463 16.309277 6 1
11.908326 33.976933 -20.146046 1 1
-9.849891 40.770512 14.591680 2 1
4.654052 40.342506 -18.390970 1 1
-40.445858 93.833458 -10.830952 3 1
-14.069093 74.221619 28.598404 8 1
-48.960030 90.304733 -14.816647 3 1
-17.333698 82.417648 -26.743319 5 1
10.872759 84.334320 10.382144 6 1
29.709194 76.358910 29.544132 6 1
-9.065299 63.646217 0.981194 0 0
-19.086784 88.966652 3.134774 4 1
-51.653828 82.610481 -20.418840 3 1
-37.387085 87.437180 -17.293013 3 1
-30.992844 78.544373 8.405585 4 1
-35.153431 83.665543 0.130985 4 1
-5.156778 62.169254 1.384922 0 0
0.617037 40.573063 11.680067 2 1
16.209978 80.920616 15.252693 6 1
-1.555013 74.863052 3.895059 0 0
-0.148185 37.390633 20.190779 2 1
-8.585608 46.081173 7.843211 2 1
-1.396605 77.740219 -28.439032 5 1
-21.935476 85.682800 0.171623 4 1
-2.940905 70.335800 3.104728 0 0
-52.099300 80.906860 -24.232506 3 1
6.575710 82.670120 8.999915 6 1
31.718578 77.883583 25.335373 6 1
-45.928799 82.502335 -24.231876 3 1
7.659830 77.316483 2.584427 7 1
12.634916 73.262642 -10.886151 7 1
15.630846 77.319481 -0.724051 7 1
-32.351696 78.115784 14.984284 4 1
12.575289 79.131210 -2.123625 7 1
-7.781397 81.315178 -22.117716 5 1
-29.030321 77.879730 14.769886 4 1
-7.165595 66.652054 0.265439 0 0
-32.472038 93.005844 -9.809052 3 1
-53.479286 78.831680 -26.359928 3 1
7.869144 79.620117 -12.547203 7 1
1.672313 23.687304 2.462542 0 0
-32.765755 87.529739 -17.383505 3 1
2.621694 81.578979 0.337583 7 1
-41.940380 89.438950 -13.170617 3 1
-23.060305 84.052895 4.210710 4 1
12.486707 39.191170 -11.133008 1 1
8.411941 33.052532 -22.592852 1 1
-2.995795 49.378872 -9.627278 1 1
-46.114571 79.560936 -30.808630 3 1
-1.212248 80.706665 24.003363 8 1
-20.477318 86.057983 6.531718 4 1
-14.904542 42.155792 18.317459 2 1
-26.294155 83.051651 12.090567 4 1
-6.956090 81.149490 14.373497 8 1
-5.089203 66.107719 4.055896 0 0
-48.338737 81.605820 -24.405342 3 1
-1.685144 38.495380 13.212606 2 1
-29.767204 80.701653 11.655111 4 1
-19.287977 88.958153 0.316971 4 1
-22.157749 87.031662 -14.508350 5 1
-32.059753 89.128212 -10.890740 3 1
-36.280056 83.545219 -23.174311 3 1
6.371417 78.633339 -5.598785 7 1
7.486878 78.509415 -10.122414 7 1
17.797651 80.857666 19.741289 6 1
-17.050831 85.142021 -17.935997 5 1
0.941352 5.872210 1.923077 0 0
23.611832 76.687630 25.764530 6 1
-0.539434 47.538464 -16.456413 1 1
29.675201 75.787025 32.012970 6 1
-7.620837 61.323151 -1.067641 0 0
-28.321653 83.537193 0.976796 4 1
-2.171868 32.086250 26.064390 2 1
-43.400890 84.208893 -18.510136 3 1
-29.502743 88.164520 -22.786219 3 1
-8.286447 31.216145 24.308907 2 1
-6.660177 78.617027 10.298872 8 1
-0.070231 17.321423 1.544410 0 0
-0.600212 10.149481 3.708654 0 0
-7.523962 82.511917 -19.901842 5 1
-3.398430 81.177254 7.439289 8 1
8.631668 39.187714 -14.650620 1 1
16.011177 74.090813 -11.966829 7 1
12.416405 78.693199 2.368015 7 1
-35.102749 85.895493 -15.452754 3 1
-5.645955 35.371086 20.216446 2 1
-0.793158 42.510120 -6.861014 1 1
-20.237131 86.830200 -1.302122 4 1
4.577243 39.673702 18.137394 2 1
-7.184902 77.914421 18.453678 8 1
9.148246 41.378880 -8.194375 1 1
-54.051308 75.774490 -28.150240 3 1
-1.706120 45.023819 -9.517111 1 1
1.157593 38.032681 16.028210 2 1
-21.216604 84.642960 10.180414 4 1
-14.594770 76.819214 21.515198 8 1
-4.609434 78.326958 17.265926 8 1
25.265635 76.113174 32.288818 6 1
-55.544247 77.762695 -24.388767 3 1
-15.732459 83.616730 -21.564226 5 1
2.403731 44.043846 -18.180267 1 1
-24.400730 85.525513 -3.170702 4 1
6.679456 34.516888 -24.976799 1 1
-7.754359 58.361404 -0.436549 0 0
1.728061 45.290894 -15.473162 1 1
4.054787 36.380875 22.404362 2 1
0.289813 34.073277 4.332175 0 0
-11.048102 85.840401 -13.270041 5 1
-6.822901 71.658501 0.515616 0 0
-40.628777 84.480240 -22.179893 3 1
-1.978839 79.463936 11.452018 8 1
14.205878 77.221031 -4.801576 7 1
-4.759387 53.439056 3.405935 0 0
12.657610 82.709496 15.173932 6 1
-4.012692 37.748779 17.314499 2 1
11.700294 77.604347 -0.058125 7 1
-11.682051 81.274384 -22.343786 5 1
-42.698383 80.709579 -27.994238 3 1
14.178965 33.804230 -16.077656 1 1
-34.401917 78.061806 11.374830 4 1
-2.569503 50.114052 -14.570572 1 1
-13.396453 71.820526 -3.242201 0 0
16.422592 46.631516 -1.960168 1 1
9.425861 78.373894 -14.023641 7 1
9.330170 76.379959 -9.570804 7 1
-7.821457 79.348259 4.533178 0 0
-35.077583 89.796730 -14.281269 3 1
8.632693 37.955238 -17.070225 1 1
-33.946281 78.916313 7.412572 4 1
-6.549252 59.652176 2.809292 0 0
16.917887 34.336052 -15.729008 1 1
11.883770 76.064392 -10.898973 7 1
17.897408 82.697708 16.549454 6 1
7.053287 41.609280 -12.213925 1 1
-0.207843 33.560921 27.570869 2 1
-30.013002 79.318161 16.468485 4 1
-3.704930 49.000828 3.395401 0 0
-1.084011 80.636971 7.952241 8 1
-27.782001 87.333870 -17.032051 3 1
7.328467 39.345020 19.107004 2 1
-3.615240 81.138535 -22.225725 5 1
-22.028650 87.377518 -9.369784 4 1
-0.058776 30.857553 1.660326 0 0
-29.540068 88.789505 -14.021384 3 1
-27.281204 85.984100 -4.523348 4 1
-1.707352 80.171684 -24.117010 5 1
-0.570538 80.499420 17.253700 8 1
-15.311339 76.255188 -6.672279 0 0
9.474397 80.194450 2.266716 7 1
-2.192963 80.158661 20.253199 8 1
14.619212 44.229656 -5.290424 1 1
-40.888138 86.510658 -18.208170 3 1
0.766972 44.888046 -19.905994 1 1
9.419415 81.247345 14.930676 6 1
-6.939791 31.632563 21.181820 2 1
-51.182308 78.901527 -28.159225 3 1
-6.865862 40.174530 12.736156 2 1
4.865211 35.890255 25.115725 2 1
-10.675106 78.140663 21.090693 8 1
-34.968651 87.223267 -18.581343 3 1
-37.571640 83.694756 -27.818003 3 1
3.531148 41.271347 -5.393965 1 1
1.338306 40.661266 7.243136 2 1
-0.802675 43.039818 4.016855 0 0
-10.623643 76.590500 -30.670961 5 1
18.682203 45.700813 -3.986009 1 1
-6.660431 82.028069 7.476280 8 1
3.211768 37.576008 18.580700 2 1
-9.003170 39.786678 16.605410 2 1
-53.660301 76.615189 -25.469507 3 1
-3.599581 81.646187 5.011570 0 0
-4.790621 57.732220 3.184006 0 0
8.621930 39.928940 9.306464 2 1
-3.338603 80.504387 9.782242 8 1
-10.519822 77.713463 -28.124289 5 1
-33.641342 84.804626 -1.352174 4 1
-57.404129 80.523407 -22.273417 3 1
-39.797001 86.281418 -14.860973 3 1
-31.025248 82.770592 2.068651 4 1
-10.132865 80.497368 13.142780 8 1
25.315655 78.155693 26.550982 6 1
-24.136452 88.471313 -9.226852 4 1
-6.174141 80.819542 1.761826 0 0
-45.175434 87.402092 -15.306679 3 1
-39.064472 82.081711 -25.699043 3 1
-5.367743 37.884762 14.446751 2 1
-53.994812 82.919754 -20.145458 3 1
9.700536 75.350441 -7.461583 7 1
0.400718 80.644676 6.071602 0 0
-30.239594 80.545181 3.311727 4 1
32.012207 73.368507 34.487427 6 1
-12.184017 81.582352 14.980213 8 1
3.227280 39.127327 11.109772 2 1
19.527819 77.986244 22.481327 6 1
-12.891644 35.381062 21.998133 2 1
-7.978326 82.072891 9.466525 8 1
-30.462744 85.997978 -20.754801 3 1
5.216997 79.317909 2.345608 7 1
-1.127208 39.640556 1.848669 0 0
0.146119 34.705807 1.447357 0 0
-37.582417 84.156975 -18.487438 3 1
-19.646460 82.532463 -9.259828 0 0
3.896045 41.637566 -13.706553 1 1
13.309236 83.787888 13.187847 6 1
-6.930368 36.679100 18.743126 2 1
-18.681463 85.427483 -11.744416 5 1
2.668355 82.506607 5.434945 7 1
-6.182650 32.957890 23.518576 2 1
-35.464241 89.480858 -10.884903 3 1
-7.041780 42.538120 8.654262 2 1
-9.182197 70.894188 0.903944 0 0
2.573275 37.390633 2.490479 0 0
-26.776020 83.998314 -3.390316 4 1
-12.975308 77.341110 -30.703295 5 1
20.115505 36.128792 -13.281499 1 1
10.533113 38.782673 16.271606 2 1
-4.329365 39.331722 11.709217 2 1
-0.162235 16.515318 3.737642 0 0
-0.929934 73.843925 5.995900 0 0
11.458325 80.886246 16.329321 6 1
10.283724 43.716511 -4.505414 1 1
4.117241 80.460228 4.571479 7 1
-34.457653 85.821747 -26.140787 3 1
-28.624432 78.982521 12.739000 4 1
-41.594917 83.470085 -27.471460 3 1
-7.825060 75.543678 3.987518 0 0
-4.664967 30.225214 25.106535 2 1
-0.838383 82.590179 13.121791 8 1
1.085992 81.965721 8.828989 8 1
0.509525 21.351320 1.539935 0 0
4.708407 38.292885 -26.241379 1 1
11.081479 83.597305 24.494375 6 1
-12.839681 73.674583 25.347361 8 1
-8.320500 60.097496 1.006002 0 0
-13.403887 70.790894 29.258432 8 1
5.547694 78.418709 -1.516289 7 1
-10.515203 68.619362 -3.139246 0 0
2.510522 39.767784 15.293250 2 1
14.176970 81.620491 13.468256 6 1
5.477583 38.051052 21.426300 2 1
-1.179776 47.211483 2.180290 0 0
-33.756447 81.584366 0.928198 4 1
-2.000738 35.269573 20.691654 2 1
-5.225678 69.747581 2.435442 0 0
-6.935044 81.922859 3.653447 0 0
4.906095 40.637951 -15.884319 1 1
28.697618 79.226997 21.872898 6 1
-9.628113 81.512367 -23.488091 5 1
12.965578 81.889267 21.388624 6 1
-6.949098 77.518700 20.872171 8 1
-28.678303 79.428734 10.017744 4 1
-10.539410 78.754471 15.614223 8 1
32.039009 75.792030 30.528322 6 1
-24.250151 90.088753 -18.002373 3 1
-33.176495 86.848518 -13.392484 3 1
9.425412 43.426575 -1.730730 1 1
-26.066896 90.854477 -10.200765 3 1
11.158223 37.837688 -15.266887 1 1
-1.403362 83.820763 7.000328 8 1
-40.424000 89.788742 -14.915183 3 1
-9.038263 43.911026 11.659275 2 1
-3.599746 49.725822 1.201547 0 0
-26.231812 89.596375 -20.336254 3 1
10.749607 39.530632 13.026125 2 1
-9.133845 86.826218 -12.480244 5 1
8.736677 40.207645 -11.097439 1 1
-18.304079 82.109665 -6.005391 0 0
14.798877 31.864262 -18.261618 1 1
-16.275581 80.035088 -27.766169 5 1
-31.085566 91.025497 -11.707166 3 1
-33.066921 87.385048 -21.614260 3 1
0.070867 24.612896 3.800992 0 0
4.388393 81.311501 9.218742 6 1
-4.402102 78.039536 22.074850 8 1
18.582998 80.086288 22.885725 6 1
-8.181437 84.755196 -15.760719 5 1
-11.706878 48.508030 9.702615 2 1
-19.322165 88.714867 -4.605749 4 1
-23.904915 86.683708 -6.448062 4 1
4.782170 39.403835 9.011681 2 1
-41.574692 81.310318 -31.073822 3 1
-6.349932 55.987942 0.728822 0 0
-25.811155 87.099037 -12.028296 3 1
-0.236263 78.952728 12.807749 8 1
-13.360050 41.283802 16.906898 2 1
-7.914668 71.420212 3.577835 0 0
-35.551788 86.228981 -29.070513 3 1
-2.959188 52.141872 3.857563 0 0
6.784384 83.838921 12.446095 6 1
20.254208 43.314075 -6.936822 1 1
-0.742044 78.271614 6.327346 0 0
-6.201898 42.966698 10.708164 2 1
1.649723 43.594437 -22.361635 1 1
21.228666 79.551567 28.725037 6 1
0.910203 13.326638 1.735180 0 0
-1.964567 37.335831 4.064933 0 0
-5.030159 35.220581 18.010437 2 1
0.531058 35.071209 24.073978 2 1
-9.946841 76.359116 19.443415 8 1
-5.736202 80.752335 -22.886812 5 1
21.289015 80.679520 17.268929 6 1
-5.163696 75.901657 3.467500 0 0
-5.251950 40.872929 8.431769 2 1
-9.217305 77.614014 26.363909 8 1
-3.995784 73.949593 1.431154 0 0
24.584291 78.066330 22.025785 6 1
-14.508112 45.032291 14.809472 2 1
-2.904174 46.198505 3.312812 0 0
-30.947554 86.114143 -16.973019 3 1
-0.345777 13.564259 3.782305 0 0
-13.373447 75.224052 22.518333 8 1
-8.751062 78.479988 22.196360 8 1
-5.856468 79.391220 -25.263220 5 1
-45.776264 82.452026 -20.171471 3 1
-23.221504 85.261780 -22.993017 5 1
6.406983 38.242977 -18.639816 1 1
-12.739473 85.660095 -15.909919 5 1
-9.578690 29.433332 25.169563 2 1
-13.358200 82.112671 -23.895208 5 1
-15.485501 85.861954 -14.587163 5 1
-20.844902 85.305923 -19.374052 5 1
18.050446 32.319729 -15.312851 1 1
0.156346 25.044764 1.531748 0 0
-49.251797 88.694870 -16.544628 3 1
25.066780 77.541534 30.583658 6 1
-30.698467 86.208336 -4.607169 4 1
14.438274 74.292038 -14.608562 7 1
7.641644 38.734455 15.014392 2 1
-36.132378 92.564972 -11.440597 3 1
6.323981 84.926155 15.071365 6 1
-18.868166 79.315247 -6.817208 0 0
0.493821 19.512684 3.917393 0 0
-12.900348 87.086349 -12.762191 5 1
-29.200592 92.439613 -9.621725 3 1
-9.454901 32.451462 20.998821 2 1
-29.041059 81.864830 7.369165 4 1
3.764798 81.358284 -1.568945 7 1
-0.864162 7.013131 1.325969 0 0
-45.720898 80.441139 -22.787579 3 1
10.258174 81.514610 12.367656 6 1
-6.598959 79.736557 20.144327 8 1
14.109633 80.087944 18.487928 6 1
-38.902107 83.129608 -21.860126 3 1
3.974909 40.593922 -3.046464 1 1
-9.376698 74.738525 22.928446 8 1
20.875423 41.916630 -8.647843 1 1
-24.881487 84.958763 3.244752 4 1
-4.035102 42.607742 6.792315 2 1
-7.391313 76.778557 22.947681 8 1
-2.356956 77.797554 12.922478 8 1
-5.451571 82.815422 -19.221140 5 1
-34.861813 84.141037 -24.776384 3 1
-6.703615 63.759529 3.048721 0 0
13.273512 83.011032 25.242271 6 1
-9.624856 62.012569 -0.379153 0 0
-19.279991 81.919098 -22.548786 5 1
-28.324732 81.915718 12.816990 4 1
14.298980 77.902145 -2.707161 7 1
-11.120707 72.896339 29.410572 8 1
-16.270882 80.702919 -23.013094 5 1
-21.818287 85.202187 2.391765 4 1
0.532833 27.690254 3.940223 0 0
-27.236151 83.161880 6.574076 4 1
-3.416298 32.746616 23.161476 2 1
-44.885689 92.843140 -12.469178 3 1
5.815621 81.857231 -8.849153 7 1
4.834079 80.624046 -5.498244 7 1
-19.729437 87.065300 4.007922 4 1
-16.806000 79.599846 -30.322340 5 1
-4.056832 41.673271 10.671461 2 1
-7.309217 38.367302 16.784367 2 1
-9.732945 72.847702 1.741445 0 0
-29.923180 88.600929 -11.040171 3 1
-0.716310 45.970955 -11.931655 1 1
-6.128342 44.764618 8.268527 2 1
-18.560448 85.832924 -8.199140 0 0
-9.701095 64.846481 -1.797493 0 0
7.683579 76.857330 -5.616502 7 1
-25.755686 85.505333 -7.368652 4 1
-36.874321 85.746956 -22.129671 3 1
22.756128 77.026535 23.791809 6 1
-0.223629 46.117420 -14.838161 1 1
-47.022438 85.758713 -17.149849 3 1
-10.282751 36.336803 18.893534 2 1
-12.707982 80.709618 -26.604473 5 1
-41.410938 83.731461 -24.969343 3 1
12.119091 75.396385 -14.774222 7 1
-17.205362 78.602600 -8.032410 0 0
6.607025 36.767204 -24.812666 1 1
-7.655080 74.760712 -0.158350 0 0
16.874092 42.144501 -7.783223 1 1
15.701874 81.340919 28.411764 6 1
-6.673321 78.326469 -29.452930 5 1
7.574820 40.175217 13.291643 2 1
12.762659 76.323235 -8.866973 7 1
-29.316711 89.574074 -20.622650 3 1
9.500014 82.500595 18.830490 6 1
-22.112999 84.591537 -16.640593 5 1
20.772234 79.456108 19.111139 6 1
10.552733 79.080818 -3.788205 7 1
12.794948 77.087029 -6.797584 7 1
0.178714 1.507281 2.829312 0 0
16.783808 80.648392 25.617409 6 1
1.538765 19.497528 1.938772 0 0
-7.375927 75.905731 26.774811 8 1
5.787405 41.675213 -9.106476 1 1
14.132124 35.946335 -16.285494 1 1
-42.518681 87.595688 -17.029411 3 1
-3.245600 55.427837 1.579041 0 0
2.290320 79.641487 5.877948 0 0
-11.172258 79.325600 -25.836216 5 1
-27.576939 83.385750 4.051578 4 1
-31.678553 88.445343 -23.303307 3 1
-9.259887 83.776489 9.709593 8 1
-14.230393 73.113953 30.428793 8 1
14.277448 81.210182 22.944374 6 1
10.961344 82.358856 21.991478 6 1
6.755269 79.966431 -3.963661 7 1
-7.053836 78.368843 16.353121 8 1
-49.575359 78.227722 -25.154202 3 1
31.782103 76.698051 27.117037 6 1
9.530374 78.399818 -6.919014 7 1
-1.452950 39.890068 6.478630 2 1
11.618935 74.420609 -7.114607 7 1
-3.938387 81.174057 14.161010 8 1
-8.209168 78.152458 -27.421955 5 1
-18.068741 86.195427 -13.781895 5 1
-0.308928 31.504005 3.877076 0 0
-9.068705 81.060226 11.156830 8 1
-10.305929 42.438168 12.858050 2 1
-22.806421 86.926392 -18.939451 5 1
-39.613110 89.857216 -12.128446 3 1
20.932413 79.454124 23.164015 6 1
-42.316467 91.568092 -12.222637 3 1
-32.390980 85.176933 -21.410789 3 1
-52.267445 85.697624 -17.429663 3 1
1.941342 36.056503 22.320612 2 1
21.167953 78.172249 30.882524 6 1
-20.790712 85.222748 -12.032685 5 1
9.440273 33.908916 -19.406525 1 1
-6.315377 82.841568 11.034178 8 1
-6.102716 79.136765 12.748274 8 1
12.318521 31.969391 -20.699280 1 1
-17.275234 79.125389 -5.402611 0 0
-13.177604 32.603848 22.603251 2 1
-44.397541 81.906105 -28.896494 3 1
6.624384 81.149887 5.026087 7 1
-3.350686 84.068520 7.915253 8 1
2.131586 38.988205 0.220893 0 0
1.790872 44.983845 -9.810127 1 1
-34.163525 84.977798 -19.623661 3 1
-0.326893 21.431398 3.557951 0 0
33.460201 73.125023 32.061531 6 1
26.361679 77.742363 23.448078 6 1
1.320080 10.000596 2.440946 0 0
19.686178 83.556198 14.280731 6 1
17.269423 73.633263 -10.334758 7 1
17.000448 80.006546 17.245829 6 1
14.174767 41.276505 -8.482215 1 1
-6.657409 76.769989 24.991562 8 1
16.332874 82.035561 13.400170 6 1
-41.364513 84.454681 -18.041059 3 1
-0.467931 40.192692 13.465656 2 1
-20.480000 86.811729 11.118618 4 1
7.541431 35.805344 -20.882881 1 1
-33.377182 85.678658 -24.343727 3 1
-9.800407 44.872517 9.770973 2 1
-45.705471 79.859970 -25.933601 3 1
-30.248232 84.996910 -2.265694 4 1
12.125782 33.635849 -17.066179 1 1
-5.776362 71.980919 3.055211 0 0
14.193138 37.328690 -14.539388 1 1
2.014998 42.606644 -7.873217 1 1
-30.820478 88.092209 -18.638718 3 1
0.631303 38.530495 4.019901 0 0
-21.760738 85.479889 8.327128 4 1
-7.979973 78.959816 1.255186 0 0
-38.132477 82.831261 -23.987066 3 1
-27.616457 81.058083 5.464631 4 1
-0.273116 80.729790 13.962593 8 1
3.296667 41.873615 -18.790554 1 1
-2.070903 79.658508 16.073023 8 1
-22.713943 85.676323 -10.358621 4 1
-1.459105 34.938900 3.231820 0 0
-12.506169 70.309586 -4.385808 0 0
-27.551199 89.424240 -16.642218 3 1
3.608441 41.867565 -10.296364 1 1
0.562145 76.029144 6.775101 0 0
22.563196 78.991455 24.612598 6 1
-12.544395 83.083069 -21.793879 5 1
-38.617027 90.667091 -13.869775 3 1
-5.053268 28.547920 26.330090 2 1
-27.990978 82.551064 -0.817752 4 1
12.334953 36.529057 -19.038277 1 1
-4.256255 79.887138 18.701878 8 1
-18.334763 80.359085 -8.553742 0 0
-0.639543 4.374315 3.641449 0 0
-8.172919 35.609573 20.142204 2 1
6.308081 41.662163 -3.736141 1 1
-13.936491 83.724365 -20.376818 5 1
-33.245968 85.244034 -17.426741 3 1
9.922022 36.846775 -19.379198 1 1
0.348777 41.428318 -4.822271 1 1
1.430552 33.217228 2.094462 0 0
-28.276888 81.175598 3.126234 4 1
8.771568 39.858662 16.734240 2 1
-51.327229 80.593765 -22.211765 3 1
-9.507760 32.491177 23.067469 2 1
-31.547361 81.466339 4.631518 4 1
-0.431041 80.695641 19.316877 8 1
-28.613091 89.974129 -23.397320 3 1
-43.354671 82.759232 -20.025028 3 1
13.594947 77.051086 -0.948661 7 1
-8.725626 81.989853 13.386157 8 1
-1.221809 80.759705 10.035220 8 1
23.311134 78.566902 30.019337 6 1
-12.461738 79.781105 18.380527 8 1
-0.851513 38.994640 11.382618 2 1
8.968095 35.809872 -16.910965 1 1
5.166966 39.839840 15.398791 2 1
-16.176170 80.551537 -25.061327 5 1
-13.267472 79.365463 -30.500916 5 1
-14.347820 79.434319 -26.680836 5 1
4.611555 40.201096 -23.883896 1 1
-33.338165 91.827774 -11.425142 3 1
-26.432169 82.782982 0.626695 4 1
-14.879253 73.355988 -4.213739 0 0
19.687061 39.391533 -12.015225 1 1
-23.886084 83.410378 -17.310638 5 1
-5.596460 84.490013 7.840575 8 1
-10.391282 83.165619 11.302480 8 1
-24.770744 82.932358 3.618570 4 1
-14.843093 36.182835 22.413555 2 1
-3.283479 39.265213 15.432097 2 1
-47.621376 84.542870 -20.042814 3 1
14.876523 82.349693 16.472483 6 1
-7.793950 40.947197 14.758303 2 1
3.185212 35.122128 25.985512 2 1
1.163203 83.704140 4.750407 0 0
-6.264022 33.346111 20.096863 2 1
-38.081676 85.292862 -25.499760 3 1
-32.302559 75.935318 12.113123 4 1
-24.612560 89.336349 -11.047113 3 1
-42.681320 84.139038 -21.872519 3 1
-19.505928 84.642937 -9.575539 0 0
9.855319 82.593567 10.664810 6 1
6.599241 81.777367 12.264985 6 1
8.819909 83.466652 12.675884 6 1
8.459740 79.223740 -0.292945 7 1
28.091839 76.594482 25.986734 6 1
6.591438 39.096634 -14.956594 1 1
-48.330570 78.210915 -30.381063 3 1
-49.221260 81.774948 -21.007759 3 1
-56.598171 75.568687 -25.953180 3 1
-21.764256 86.742729 -3.912895 4 1
-3.726683 38.179237 13.275455 2 1
-1.178147 46.009708 4.865921 0 0
-53.452240 77.765526 -28.116770 3 1
15.514992 74.320290 -6.791469 7 1
-33.899693 77.625542 9.115664 4 1
-14.312287 75.007111 -5.406015 0 0
-17.575954 86.352112 -10.320275 5 1
-0.902689 82.742027 10.769669 8 1
15.746012 39.280926 -11.467637 1 1
6.683295 39.280506 9.754188 2 1
-2.331572 76.678108 4.447593 0 0
2.017171 81.648560 2.266560 7 1
22.801346 79.045555 20.193668 6 1
-4.267556 52.312138 1.134372 0 0
-4.466858 65.862595 2.147951 0 0
2.105731 43.361191 -16.139099 1 1
10.809226 75.846581 -3.671294 7 1
-2.547751 29.938984 28.351421 2 1
-3.032997 72.350525 3.003181 0 0
-31.794437 83.768532 -1.633185 4 1
-31.467897 79.979034 10.759252 4 1
-14.795185 47.408337 12.404298 2 1
-48.759865 80.442467 -27.244080 3 1
-55.203846 81.615013 -22.305183 3 1
9.540943 80.974388 4.123370 7 1
-6.734474 76.768784 0.704362 0 0
1.252074 29.548714 3.657464 0 0
-32.110210 80.238335 8.228629 4 1
-50.297390 85.055794 -17.902325 3 1
-38.781239 85.149368 -21.485958 3 1
-21.970507 88.742409 -10.853265 3 1
17.748066 79.845963 29.235447 6 1
-36.577805 86.444992 -19.599968 3 1
0.395621 38.615398 18.695471 2 1
-0.288409 47.796940 -12.646626 1 1
-0.128383 2.721344 1.249736 0 0
-23.463623 88.481934 -13.147524 3 1
-12.422279 44.295387 13.835878 2 1
-6.732359 28.037376 25.258617 2 1
6.335283 43.114853 -2.087710 1 1
-5.270808 41.324883 12.301297 2 1
-23.442562 90.811996 -14.211164 3 1
7.867520 38.241676 17.528360 2 1
-3.927027 35.251606 21.257420 2 1
-19.706633 87.912460 7.586641 4 1
1.108151 82.904114 15.200630 8 1
-1.156119 8.331295 2.999845 0 0
-31.239609 89.620338 -13.378979 3 1
21.035198 78.024719 27.191923 6 1
-9.693370 67.126312 -1.638782 0 0
-44.778419 89.171928 -14.254387 3 1
1.234300 39.152370 8.542804 2 1
-2.552345 36.454441 17.717073 2 1
-35.839748 78.865601 8.160634 4 1
-6.137779 62.998646 -0.136346 0 0
-18.364185 83.191551 -25.225769 5 1
-0.269029 46.809448 -20.899582 1 1
12.701766 40.753128 -9.758907 1 1
-8.828198 66.699707 1.737066 0 0
-5.657167 61.456821 3.170939 0 0
19.364376 81.056709 15.926381 6 1
8.617783 79.736664 -3.153332 7 1
-44.874378 83.210587 -22.707994 3 1
-15.923721 40.695049 19.261374 2 1
-4.098672 78.986885 13.457420 8 1
3.711661 38.658218 14.157022 2 1
-42.982670 86.172653 -18.331440 3 1
-18.898293 85.754890 -16.186630 5 1
-6.151986 79.642746 3.352177 0 0
-4.045351 79.733696 6.139956 0 0
-9.881837 29.310406 23.214880 2 1
-2.749197 74.088547 5.265046 0 0
-1.864682 49.068226 1.994181 0 0
-25.070078 88.504402 -16.498209 3 1
-14.202057 72.468117 27.698986 8 1
-1.859024 40.775963 9.644566 2 1
1.387714 16.042013 1.898273 0 0
-27.463900 85.952660 -6.485671 4 1
-42.561947 81.504433 -24.328041 3 1
-2.087403 38.506653 16.852240 2 1
26.791965 75.883636 29.052256 6 1
-27.543148 88.689079 -13.862062 3 1
-26.938002 89.785980 -11.692520 3 1
8.236491 83.813698 8.634608 6 1
-28.502333 80.082954 8.062068 4 1
-10.184338 74.424179 24.990105 8 1
7.457680 40.661911 -14.087112 1 1
-34.271488 82.205368 2.816630 4 1
24.118607 80.699348 18.303205 6 1
-10.975133 83.845436 -17.079941 5 1
-32.321487 76.188393 14.605743 4 1
0.850926 34.455067 25.911472 2 1
0.099907 83.861816 8.308170 8 1
-4.568789 59.065701 1.332081 0 0
-2.589936 40.198193 13.694699 2 1
11.211490 42.721428 -6.575539 1 1
-8.635140 73.235428 3.358066 0 0
-36.728096 85.381531 -16.483814 3 1
-0.038578 45.424351 -8.536077 1 1
-5.889584 80.682434 16.072647 8 1
-27.118319 80.811729 9.388784 4 1
-5.696036 67.967934 4.041490 0 0
7.127968 41.523487 -7.690397 1 1
12.809801 43.950569 -3.369675 1 1
1.108637 82.543571 11.794855 8 1
-5.950699 84.738518 -18.086292 5 1
5.317091 40.504677 -12.894902 1 1
-12.171938 76.893242 24.754179 8 1
-34.231400 79.706947 5.645259 4 1
0.418005 37.671841 1.266691 0 0
-26.919941 90.626053 -18.350822 3 1
-36.997887 90.699409 -10.939989 3 1
-9.495224 80.589561 -25.343927 5 1
-0.970554 44.001064 1.862365 0 0
19.592018 79.771614 24.545584 6 1
13.659315 81.646523 19.569843 6 1
-24.563835 92.068779 -17.613487 3 1
-17.040327 83.519127 -23.005480 5 1
12.775026 30.198019 -19.727201 1 1
-12.270841 69.249908 -2.366262 0 0
-2.769550 80.003181 -25.745724 5 1
-3.928908 79.532005 20.868870 8 1
2.670815 42.762989 -12.299784 1 1
-11.118285 79.537773 -28.504265 5 1
-9.001674 75.523735 -30.579836 5 1
31.356556 75.486176 28.735426 6 1
-16.872927 75.938789 -5.562528 0 0
-44.440651 85.218712 -17.219017 3 1
15.766451 81.049469 19.775547 6 1
5.216452 83.946220 9.608203 6 1
18.800940 79.175804 19.435736 6 1
29.885082 77.824966 24.683311 6 1
4.099283 38.452976 20.119246 2 1
-9.311525 78.028259 -31.029102 5 1
-8.557205 36.010593 17.923738 2 1
-2.936161 33.782887 24.721825 2 1
-34.348255 93.129532 -8.923844 3 1
-10.973840 79.064606 19.383678 8 1
-28.947109 80.856529 15.480493 4 1
-46.815792 79.330757 -27.824131 3 1
-20.585867 85.697800 -5.812418 4 1
-12.788149 38.415703 20.064480 2 1
-9.605563 27.538939 24.040174 2 1
10.760514 32.641476 -18.473087 1 1
2.782963 41.081936 -1.611225 1 1
-9.263523 78.912674 -29.037329 5 1
-53.927067 79.853317 -24.729036 3 1
2.518279 44.629101 -12.812309 1 1
-44.039474 80.549927 -26.620752 3 1
6.838751 39.335907 -10.963111 1 1
-17.420048 83.641800 -19.266678 5 1
-4.253874 82.248680 10.939898 8 1
17.987345 79.342567 26.641850 6 1
16.041466 79.274529 20.529022 6 1
-7.068269 45.725986 6.716271 2 1
10.257444 33.072876 -22.034445 1 1
16.156487 72.033798 -13.104249 7 1
7.952337 80.841873 13.380918 6 1
15.190361 83.988022 12.850075 6 1
-5.980654 57.956009 0.180603 0 0
3.601054 42.705296 -6.688531 1 1
-34.838543 91.056747 -12.799807 3 1
13.464180 76.002670 -3.517258 7 1
-41.237179 80.871346 -29.236147 3 1
-6.029889 69.833656 0.677318 0 0
-12.395391 45.665531 11.410750 2 1
21.560732 39.569351 -11.048526 1 1
-2.400124 81.002838 17.529602 8 1
-32.890930 90.865341 -9.741283 3 1
-28.217369 89.043381 -10.285828 3 1
-13.208116 77.041008 20.154123 8 1
5.643931 38.104759 17.301144 2 1
-42.849117 90.384109 -14.567097 3 1
-16.191641 43.508526 17.894056 2 1
1.084972 39.168045 10.451386 2 1
0.346563 79.077286 4.973816 0 0
-4.053134 77.543198 3.922206 0 0
-22.297235 86.684212 -7.571365 4 1
5.481934 80.538895 -1.055253 7 1
-20.706423 83.181709 -23.162724 5 1
-50.216358 81.170334 -24.359417 3 1
-14.783237 86.970856 -12.460306 5 1
-42.880402 80.084175 -29.820194 3 1
3.532803 41.270729 -20.639305 1 1
-7.757483 79.849586 -26.276890 5 1
4.119374 43.040600 -14.972751 1 1
-11.674817 64.736450 -2.198419 0 0
-40.642986 85.396385 -16.524115 3 1
15.139478 85.063919 9.758833 6 1
-7.271492 64.627083 1.454661 0 0
8.129881 37.904015 -13.284149 1 1
-2.045418 45.564110 1.735758 0 0
-2.566393 39.459629 7.991969 2 1
-8.835883 74.473099 28.576792 8 1
-0.727707 36.911781 5.915262 0 0
-35.270340 84.369392 -21.060366 3 1
5.891611 81.174797 3.221297 7 1
-3.720228 67.506340 2.747252 0 0
-0.494438 28.122393 2.061116 0 0
-1.739394 42.018902 5.969247 2 1
-14.547455 84.643028 -18.213711 5 1
18.560549 82.788101 12.659044 6 1
-7.799852 67.726608 2.982711 0 0
0.643750 39.791912 14.967616 2 1
6.970880 79.178947 -8.426548 7 1
29.606915 74.591156 28.820362 6 1
-2.603636 42.122166 -6.462818 1 1
13.632490 74.430000 -6.570167 7 1
0.427504 41.030380 2.432616 0 0
-28.698620 81.545074 10.342381 4 1
-31.101336 92.593666 -8.573225 3 1
-5.637716 46.650566 5.798395 2 1
1.487204 37.155857 19.274231 2 1
-8.332350 80.266724 16.904858 8 1
-2.664658 51.462711 1.658153 0 0
-44.863754 85.338165 -19.209196 3 1
23.775055 78.252151 28.216511 6 1
-30.963692 82.328300 0.221638 4 1
2.668964 42.516750 -4.119765 1 1
-34.172485 86.871773 -23.058661 3 1
-27.420652 87.545891 -18.907276 3 1
-33.500462 87.066231 -19.753927 3 1
-15.826738 86.916702 -10.840678 5 1
-29.191643 82.731476 2.584639 4 1
17.334274 83.456322 14.920074 6 1
-31.142694 88.429199 -25.696459 3 1
14.008755 39.157665 -12.237698 1 1
8.834597 78.665985 3.159099 7 1
-25.442259 85.278130 -17.388401 5 1
-33.237717 87.955490 -11.764766 3 1
-1.556357 49.459553 -11.156965 1 1
-6.534852 76.664482 28.271843 8 1
21.733824 82.041557 15.476574 6 1
-50.158638 83.389679 -21.237352 3 1
-45.683685 91.284340 -14.089918 3 1
-42.572868 81.836456 -22.458767 3 1
-9.757010 86.453659 -14.479902 5 1
2.145427 81.900871 7.173302 0 0
19.453598 80.114014 28.450600 6 1
-5.813745 73.020744 1.436965 0 0
5.946548 39.060345 11.803959 2 1
-52.157669 88.390709 -17.005896 3 1
14.324359 75.292999 -5.018183 7 1
-0.006069 39.179428 16.934912 2 1
8.186580 34.501217 -23.873190 1 1
7.485874 77.076172 -1.735023 7 1
-46.169434 88.302193 -16.672249 3 1
-3.319119 70.034264 4.924281 0 0
-1.819145 37.198856 19.261209 2 1
3.017310 44.196747 -10.972768 1 1
1.893927 83.182442 0.967869 7 1
2.751440 41.672588 -24.953587 1 1
20.238564 81.200150 18.731525 6 1
-20.141813 83.857185 -24.943167 5 1
-2.902241 82.897789 -22.053869 5 1
-12.649961 73.961876 29.933859 8 1
-1.360264 37.849289 15.081513 2 1
-4.930673 77.972328 -28.044645 5 1
-10.897305 31.653797 22.158426 2 1
-6.234341 31.313349 24.996714 2 1
-1.764386 82.001595 6.890039 0 0
-12.542062 42.744537 16.103209 2 1
-13.455509 72.457146 -5.064417 0 0
30.516932 74.125374 32.509468 6 1
-2.458663 81.481964 15.424091 8 1
-12.317765 29.978079 23.671423 2 1
11.473713 82.456200 18.316015 6 1
24.875378 76.713295 24.283768 6 1
-12.720462 66.865891 -3.201618 0 0
15.960040 30.619678 -17.525772 1 1
-4.602482 78.044518 26.464581 8 1
6.578399 37.628059 -22.687107 1 1
-10.287437 39.283173 17.888239 2 1
-5.220270 76.737221 1.771409 0 0
26.103281 75.855064 27.301678 6 1
-13.831906 78.557411 -28.933250 5 1
-47.646488 82.412125 -20.261919 3 1
19.153765 37.544342 -12.574268 1 1
-0.085745 76.781746 5.100426 0 0
5.097746 42.249477 -5.698976 1 1
0.775085 26.779100 1.717558 0 0
-48.936657 86.432549 -16.663652 3 1
23.465557 76.701790 29.969734 6 1
32.373055 73.996399 30.813080 6 1
0.612007 11.506938 1.623168 0 0
17.164606 35.108360 -14.069625 1 1
-39.179367 87.073875 -17.543795 3 1
10.457300 35.636440 -15.758456 1 1
-1.054885 44.131046 -7.701622 1 1
-12.689695 40.496899 18.434340 2 1
-37.487362 93.584694 -10.593801 3 1
-3.287370 79.123764 24.020195 8 1
-9.008863 76.345444 1.562179 0 0
-8.110652 33.157661 19.945148 2 1
-28.631104 84.020912 -2.114754 4 1
9.231621 40.467892 12.297522 2 1
-0.060556 44.662247 -10.479019 1 1
-1.009783 47.702560 -9.591024 1 1
-46.537048 80.761047 -29.144310 3 1
-3.833229 78.852745 15.645921 8 1
-18.290087 82.131996 -7.976779 0 0
9.349831 83.316574 15.294169 6 1
-0.556896 40.515270 7.954925 2 1
-20.460077 87.414017 -11.388285 5 1
-36.958714 87.392509 -12.583042 3 1
-51.249729 78.022758 -24.345482 3 1
-1.199747 38.984451 4.315462 0 0
8.993143 39.018322 13.413263 2 1
10.729694 83.705261 12.098590 6 1
16.927900 75.518715 -3.838008 7 1
-6.151739 34.201725 21.805967 2 1
-19.418077 83.361336 -21.396961 5 1
-9.316223 84.856773 -17.193359 5 1
-13.048051 75.373840 27.608788 8 1
10.859204 44.322544 -0.850037 1 1
13.446463 33.364750 -18.851959 1 1
-29.140015 80.299431 4.749865 4 1
-9.142913 74.318779 0.805018 0 0
18.050270 81.616974 18.013777 6 1
-3.754498 83.460114 3.033998 0 0
-13.959844 74.296196 23.977043 8 1
-19.575754 84.014786 -19.595570 5 1
-40.237011 92.114502 -11.400761 3 1
15.114700 73.413681 -8.393292 7 1
-41.717407 83.219421 -19.334280 3 1
-0.690661 38.606693 7.575202 2 1
-11.610014 34.676571 20.890720 2 1
-6.369127 78.535439 24.410175 8 1
-1.847672 41.307335 3.328379 0 0
-27.960419 87.062920 -14.613544 3 1
10.449013 77.439781 -1.448409 7 1
-8.048890 62.123821 0.524569 0 0
17.031549 83.282204 11.444113 6 1
-4.359728 36.439980 16.093441 2 1
-31.616901 77.178490 9.638407 4 1
17.685062 73.110878 -7.733191 7 1
12.617018 36.517910 -17.111437 1 1
-48.487740 84.443581 -18.421955 3 1
-34.101334 76.202026 11.569593 4 1
-25.986736 91.479622 -8.449273 3 1
0.024795 82.971161 16.873894 8 1
-27.224581 84.407455 -5.421495 4 1
-8.814890 69.860245 3.202731 0 0
7.713609 79.155022 -6.703653 7 1
4.697153 85.729683 15.039150 6 1
-7.051375 82.013306 12.691087 8 1
-35.397102 86.579147 -13.801192 3 1
-20.545805 87.694870 -2.863134 4 1
13.081614 42.886024 -6.860919 1 1
8.165199 76.387436 -3.938658 7 1
-26.041580 82.265137 8.561192 4 1
-25.401249 85.236702 6.640540 4 1
-3.082845 54.080418 3.608283 0 0
-8.262112 77.003677 19.744577 8 1
-40.085285 84.362831 -23.897602 3 1
-31.423004 86.275833 -14.046650 3 1
-5.370406 38.288303 16.255369 2 1
7.688612 42.389420 -5.384403 1 1
14.718987 81.822533 25.241043 6 1
-5.357761 78.627724 5.314718 0 0
-25.042715 82.982422 1.836467 4 1
-4.718326 79.530403 2.264357 0 0
-9.069736 79.027657 10.742651 8 1
2.007150 35.288395 1.077218 0 0
-9.322383 82.706749 -19.515312 5 1
4.196270 81.820976 -4.297723 7 1
-43.580963 86.519684 -15.411037 3 1
-5.310890 31.972794 22.286037 2 1
-1.675361 49.294746 -13.195319 1 1
23.387218 79.101349 23.014692 6 1
7.729972 37.800144 -15.472117 1 1
-36.077637 84.250870 -26.399351 3 1
5.676499 78.642456 0.627308 7 1
14.065348 80.687241 15.003375 6 1
9.248753 77.947128 -8.650331 7 1
-53.577297 85.920349 -18.642609 3 1
-28.396833 91.254814 -10.750262 3 1
-25.076500 89.929268 -14.549273 3 1
10.744060 30.799747 -21.793856 1 1
-13.518546 83.222084 -18.613958 5 1
-2.367761 81.708611 13.456060 8 1
-11.030815 80.574936 16.028839 8 1
-29.901186 77.720413 12.678068 4 1
10.730150 79.160515 3.026977 7 1
-53.279488 84.084587 -18.981920 3 1
-25.587927 84.944618 -1.956934 4 1
6.918998 37.025742 21.852083 2 1
-18.018774 80.558426 -22.640823 5 1
8.330500 37.899708 19.453869 2 1
3.514983 82.106804 3.906944 7 1
-22.236917 85.745979 6.007785 4 1
3.642286 85.928886 12.489424 6 1
1.421333 45.840836 -11.372721 1 1
-39.628990 82.586342 -29.687641 3 1
5.197054 81.895149 -7.169488 7 1
-15.964773 38.275795 21.141031 2 1
33.568432 74.896576 29.832632 6 1
-24.549740 84.785873 0.508118 4 1
-7.941607 56.768013 0.352691 0 0
4.949300 84.547691 11.483045 6 1
8.423711 78.343117 1.309167 7 1
-19.573881 82.245987 -24.312748 5 1
5.054133 40.340855 12.728149 2 1
-33.137127 80.570984 4.530395 4 1
-28.087421 89.053093 -21.961468 3 1
3.186393 80.315247 1.463955 7 1
-35.258801 94.741440 -8.264797 3 1
-0.592675 18.246809 3.257051 0 0
-14.494359 78.381660 20.055586 8 1
-14.586278 32.659782 23.694881 2 1
16.057518 43.136158 -6.022676 1 1
1.801570 43.115665 -10.086350 1 1
-14.259196 69.997437 -4.372046 0 0
0.719353 22.862597 3.724050 0 0
-27.961060 90.524155 -19.910795 3 1
10.534421 83.271774 20.256945 6 1
-38.701042 91.946922 -12.578380 3 1
-38.733292 84.015755 -30.532974 3 1
10.268890 78.635689 0.154588 7 1
-9.840097 46.539970 9.014931 2 1
17.190763 78.984871 22.934542 6 1
-12.116627 77.893501 22.361912 8 1
-7.385469 80.600662 8.244101 8 1
-10.247302 75.214005 21.440317 8 1
17.574152 71.895218 -10.522015 7 1
-6.225200 40.135578 14.467031 2 1
0.848824 44.524391 -23.640293 1 1
-10.248350 42.499466 14.628883 2 1
12.218085 45.932220 -1.836633 1 1
-5.073609 81.414101 6.916267 8 1
-12.080801 77.933434 -29.105913 5 1
-48.363941 82.475830 -22.741388 3 1
