-0.403870 121.974170 5.207684 0 0
-65.775215 145.296390 55.472347 3 1
18.134390 53.502407 -46.617722 0 0
-66.855141 154.393920 22.183485 5 1
-51.847691 151.358090 33.806316 5 1
-83.524139 133.302320 63.359661 3 1
57.698730 142.318270 -10.854790 22 1
-5.184358 76.987938 1.982357 0 0
73.231667 152.507140 71.114502 19 1
-30.533329 133.864200 17.832108 0 0
-1.322798 153.388920 10.706472 0 0
25.760565 155.312060 -24.957911 22 1
50.184799 162.443100 46.885536 19 1
8.174730 153.072240 -45.240593 18 1
-56.475609 144.921140 44.478737 5 1
-27.498816 94.788513 74.967293 6 1
-26.642292 158.476010 68.770523 4 1
20.994686 140.062700 53.752899 21 1
18.180962 47.502010 -41.115131 0 0
-2.182861 53.427876 -11.317019 11 1
23.014284 132.281880 -30.707653 0 0
21.427593 144.649250 49.291359 21 1
-11.547227 98.075218 3.697350 0 0
13.466413 149.916090 -55.162128 18 1
-4.895778 100.431820 80.191490 7 1
10.057793 145.235180 -55.625980 18 1
0.884393 138.741960 8.372037 0 0
-0.417236 128.980000 1.652969 0 0
15.736712 140.211040 59.446301 21 1
-34.853817 136.287350 72.868896 4 1
-33.289299 132.549800 76.031433 4 1
22.424450 148.750110 -49.804077 18 1
-31.001438 106.091220 67.774902 6 1
25.942434 151.040040 -39.513889 18 1
3.714032 70.860039 1.679284 0 0
-24.197401 95.751442 87.395973 8 1
41.068298 154.498520 -24.413826 22 1
-79.845825 139.175050 31.501818 5 1
35.081177 169.063840 35.569538 20 1
-12.413111 85.451843 43.515392 0 0
-70.866585 139.692830 66.460205 3 1
-4.441697 146.171020 10.245171 0 0
59.152653 140.474110 -20.745356 22 1
-31.856173 159.647950 31.342634 13 1
-61.410484 155.177260 29.799881 5 1
-13.911584 15.284030 22.266380 17 1
14.860031 47.717709 -33.124847 0 0
-73.546265 147.761960 58.019844 3 1
-34.540123 140.911710 64.069397 4 1
53.231392 148.901340 48.806644 19 1
34.344902 65.284027 -53.820820 16 1
42.530807 170.970870 31.743229 20 1
-2.454888 85.637253 2.624346 0 0
-11.265617 72.492249 31.617069 0 0
-64.872826 151.278110 32.573013 5 1
-29.991179 97.886185 95.367470 8 1
0.779464 157.422150 9.237061 0 0
30.501797 155.612610 32.682949 0 0
54.268299 155.132190 58.532833 19 1
-66.146660 148.957000 63.944321 3 1
-76.930397 144.324080 37.962421 5 1
76.785057 140.274570 70.171104 19 1
-88.611595 142.151200 29.297295 5 1
12.224954 41.337246 -27.751881 0 0
6.262124 146.827450 -58.931732 18 1
-7.309852 86.913284 92.876724 8 1
62.583569 124.362980 -10.718658 22 1
30.499516 167.738980 35.011452 20 1
-82.688828 165.920880 8.864743 5 1
8.983867 112.226680 79.593643 7 1
-77.464516 148.171520 53.262722 3 1
29.819855 151.755630 -26.374336 22 1
-17.938223 115.473990 13.806499 0 0
-28.097572 128.607590 81.070206 4 1
43.051228 138.247650 48.232040 21 1
-18.504683 158.154020 29.336546 13 1
-27.673046 26.346298 -8.651906 2 1
27.135433 147.215590 -28.561548 0 0
41.390701 160.562290 -53.657475 22 1
-22.410027 172.614690 14.083754 14 1
57.268250 132.460560 -0.558769 22 1
-37.795563 151.783770 26.441507 0 0
-40.783081 144.068310 54.142124 4 1
19.868729 134.599520 64.210869 21 1
-57.391018 96.147171 68.806122 6 1
2.378392 33.745007 -5.913723 0 0
-20.394751 99.695122 86.384705 8 1
60.692543 134.305940 -11.963972 22 1
30.332602 133.539780 60.341476 21 1
47.610878 152.796280 -7.924943 22 1
8.989080 146.707170 -51.333099 18 1
29.676092 71.030655 -78.561241 1 1
0.017276 148.252170 4.754251 0 0
-75.624329 147.623090 44.049248 3 1
-43.855129 151.201160 41.704792 4 1
-88.232941 132.336560 67.650009 3 1
-40.862984 99.416931 75.702888 6 1
29.885103 127.171440 65.640869 21 1
32.688046 123.137250 68.888138 21 1
48.338425 153.176410 49.050274 19 1
-41.042801 149.889850 33.348827 0 0
-52.388699 152.107410 43.739838 5 1
10.941174 147.653430 -59.448891 18 1
-0.851280 137.147190 2.845751 0 0
36.342728 61.866455 -48.423290 16 1
-22.324486 84.892357 100.332840 8 1
-1.021250 58.692711 1.182603 0 0
-37.689987 153.406400 32.168068 0 0
4.257607 85.684135 -6.568002 0 0
-37.612888 160.443470 61.726112 4 1
-63.170074 153.264690 24.796923 5 1
66.133995 151.837620 71.852043 19 1
40.717674 164.336560 -56.422516 22 1
25.346718 67.066933 -70.166992 1 1
14.755788 152.082310 52.811943 21 1
-34.449520 149.664990 66.866844 4 1
-40.640656 154.586010 63.349163 4 1
-46.909313 137.173220 54.465893 4 1
-12.789282 91.502365 87.395714 8 1
40.169758 166.319440 30.875111 20 1
-54.155838 152.269760 29.955772 5 1
-51.628197 157.346600 29.063274 5 1
-15.716596 101.497810 64.727554 7 1
9.802558 91.202194 -11.596792 0 0
61.569283 129.446960 -17.621611 22 1
42.870056 162.485460 -49.680637 22 1
-69.717445 147.491780 27.451611 5 1
14.872482 158.911360 50.511581 21 1
47.966007 146.650450 -11.729292 22 1
32.348373 66.495438 -45.287373 16 1
-47.250919 83.613342 73.311104 6 1
-37.637932 99.256004 67.776169 6 1
-28.986702 22.010656 -8.137168 2 1
28.322193 120.537350 69.475883 21 1
7.824597 107.715230 80.812195 7 1
-2.902861 150.364720 -47.011158 18 1
-5.710779 113.170600 70.982414 7 1
22.771727 159.186050 30.925230 0 0
-85.229805 137.524810 52.417786 3 1
-18.693468 23.917036 -0.388717 2 1
-48.422325 154.114170 52.783401 5 1
-94.014687 136.501660 53.825420 3 1
-6.445791 103.367120 0.569171 0 0
62.326759 159.067860 70.632126 19 1
-96.353348 154.956410 3.911943 5 1
-2.288974 45.507893 1.451879 0 0
-46.687531 99.051590 67.750946 6 1
17.170731 144.905610 -54.697418 18 1
31.675962 65.873169 -64.610870 1 1
-8.822157 22.829332 -12.372974 2 1
-20.897572 171.292880 8.000622 14 1
55.603451 147.251680 60.419876 19 1
66.656723 125.371090 -18.200834 22 1
11.489275 150.036850 -46.913052 18 1
-73.434341 149.379930 48.925030 3 1
-75.269455 163.035770 13.725634 5 1
-6.721487 95.642738 84.114777 7 1
23.197939 151.231960 51.886372 21 1
-16.512772 24.300327 -9.556638 2 1
4.099494 61.408096 -56.048916 12 1
45.177013 148.098240 -16.656349 22 1
13.977907 144.117000 -61.174957 18 1
-72.200546 159.618180 16.894800 5 1
-79.244698 134.208630 67.090744 3 1
-1.984755 107.690930 0.544470 0 0
-17.064211 96.524521 79.601616 8 1
-0.403358 100.647920 4.720609 0 0
-61.099930 148.127140 32.489651 5 1
-55.908680 159.152130 26.154259 5 1
-3.491328 9.929707 1.058812 0 0
31.551596 65.977051 -58.227818 1 1
-33.478165 125.576480 75.829483 4 1
44.894539 152.134250 -22.482470 22 1
-23.092537 155.317350 19.475361 13 1
41.208843 129.141800 57.104942 21 1
-53.716862 129.850430 56.522377 4 1
57.818272 135.745350 -29.667791 22 1
-21.290825 99.856926 64.374184 8 1
-53.843666 139.123950 51.755146 4 1
-39.408054 109.013900 71.251778 6 1
35.152126 149.666210 -31.613943 22 1
-9.553396 92.280441 80.354469 7 1
-2.324945 16.239807 10.097931 17 1
-16.432528 159.615100 8.819611 15 1
4.244323 122.457320 1.986552 0 0
-89.483711 138.062450 56.141609 3 1
-23.598341 165.434510 9.087138 14 1
-50.639229 149.705720 37.873035 5 1
-4.523963 66.942116 1.659419 0 0
62.291531 134.523540 -16.440166 22 1
31.819128 158.133300 41.325207 21 1
-8.746875 165.663450 16.427322 15 1
15.064996 153.312680 57.604961 21 1
11.234704 131.423890 8.201756 0 0
19.526232 121.969100 -21.377455 0 0
-0.163679 114.804020 1.189197 0 0
-12.530277 81.314980 36.009232 0 0
-13.761008 165.914340 19.819548 15 1
4.206747 93.303223 83.857353 7 1
13.923208 146.523220 13.034556 0 0
-0.330919 99.982689 80.751198 7 1
-50.740593 161.349530 32.693836 5 1
-0.751671 142.471070 -58.606697 18 1
-1.638465 24.749826 -2.481191 0 0
-8.936840 91.030426 1.673313 0 0
32.306355 136.868030 49.785553 21 1
61.619816 146.494690 66.994644 19 1
28.578279 154.406040 26.617367 0 0
23.556921 160.798710 41.259140 21 1
1.238444 22.250904 0.300240 0 0
-70.419418 142.816190 72.444168 3 1
-2.888770 58.331993 -11.817299 10 1
24.624060 132.058760 57.159222 21 1
41.981037 159.260820 -45.598640 22 1
-7.557702 67.941101 22.050367 0 0
46.774014 145.967350 -22.649239 22 1
-19.708759 152.754150 30.453350 13 1
7.208983 86.651093 -9.706010 0 0
13.633583 144.011640 58.701141 21 1
17.364605 126.973370 71.916870 21 1
-65.935448 149.242490 36.805492 5 1
-29.979719 143.273860 71.672501 4 1
44.025787 161.888530 42.581776 20 1
-57.859570 147.519560 38.392574 5 1
17.810652 145.098080 17.228611 0 0
42.955311 63.723415 -40.077423 16 1
64.817574 137.554960 59.701088 19 1
-34.849781 163.587800 54.931866 4 1
-6.574831 21.896334 -5.409472 0 0
-37.121174 144.911680 27.816452 0 0
-18.500809 82.760818 100.679880 8 1
19.776642 126.197170 -27.652563 0 0
19.653261 153.599490 -46.914715 18 1
-6.040132 62.529469 2.389781 0 0
-64.369812 149.440810 42.411678 5 1
58.205154 137.124480 -7.553707 22 1
-17.154650 154.246690 35.230137 13 1
31.520006 143.982390 44.896152 21 1
0.912272 1.932499 1.224241 0 0
40.791626 63.626068 -44.605156 16 1
3.198560 106.126980 77.704597 7 1
-69.664284 149.876070 57.111595 3 1
-24.148617 98.194489 91.699158 8 1
36.344769 127.140060 62.994385 21 1
-0.819227 68.563034 -19.893261 10 1
16.496260 49.855354 -37.755749 0 0
35.150299 63.926067 -62.815670 1 1
63.278698 162.924260 65.467712 19 1
-12.106879 96.091995 82.466911 8 1
-35.148144 87.385727 75.641632 6 1
-14.444287 153.602910 16.440783 15 1
6.897728 158.263500 -39.161278 18 1
-7.836143 94.278740 88.431107 8 1
9.478129 137.177460 7.894626 0 0
21.761307 62.819881 -54.049210 12 1
58.732758 165.881910 64.430634 19 1
68.548790 118.542660 -7.275008 22 1
68.720856 148.843050 62.370193 19 1
63.222229 137.069230 -30.776781 22 1
-21.772310 89.059090 97.389221 8 1
14.005825 110.260270 -17.155901 0 0
65.996582 157.306520 72.164459 19 1
-49.029259 131.303680 56.985687 4 1
-35.377773 159.831590 52.689297 4 1
-33.814552 140.199870 24.144133 0 0
47.643127 68.529861 -69.878029 1 1
-27.721109 154.793980 66.544380 4 1
-70.064713 148.652150 35.601830 5 1
8.734683 95.193657 83.898308 7 1
6.738894 52.072220 -11.573903 9 1
-43.612717 144.555850 50.460289 4 1
-15.666328 165.287730 7.820822 14 1
9.307628 63.953045 -53.524857 12 1
47.445709 61.103214 -47.801353 16 1
13.589882 101.245620 -16.385872 0 0
-10.037906 18.879871 16.216257 17 1
-40.079105 156.532610 44.369785 5 1
-95.147804 149.567730 9.506512 5 1
0.561135 82.211830 4.861504 0 0
-3.337799 111.912340 3.529769 0 0
-78.380272 143.226910 26.774559 5 1
-29.087778 137.959170 18.615868 0 0
-36.369263 102.293150 75.987404 6 1
-63.416515 157.529420 21.776627 5 1
-69.048279 139.069230 74.806068 3 1
-38.447693 125.978620 70.664207 4 1
-8.415427 146.069270 4.134525 0 0
-26.360607 160.273830 28.494549 13 1
5.373243 36.530315 -13.959832 0 0
-15.767179 118.635710 11.862327 0 0
-20.187983 92.426651 90.556152 8 1
5.884033 45.002998 -6.408746 0 0
35.843384 157.905260 -16.486881 22 1
42.909801 161.798250 35.646717 20 1
-69.782333 146.540500 65.099754 3 1
64.848602 128.339020 -20.927980 22 1
-17.848940 104.297570 70.181175 8 1
11.774674 60.736813 -57.153591 12 1
-20.736223 24.739632 -7.248788 2 1
26.204235 155.968780 45.771519 21 1
-12.677523 152.966170 7.708464 15 1
-21.865118 126.937340 14.330475 0 0
58.876133 134.476880 -22.867388 22 1
-22.777288 132.294220 20.294577 0 0
-30.833981 159.804580 60.183342 4 1
-0.839355 74.827461 -3.507590 0 0
-49.318958 153.939910 41.237354 5 1
42.296856 156.198230 -15.516579 22 1
54.153851 139.208370 -22.632500 22 1
30.106272 135.036680 -33.555515 0 0
60.029442 159.207750 52.666470 19 1
-72.030479 151.153810 27.112471 5 1
-21.535717 167.080340 16.816919 14 1
66.979538 154.220540 61.896759 19 1
-46.195259 147.125690 45.102200 4 1
56.825191 142.179660 -27.675470 22 1
43.113281 64.420982 -53.518791 16 1
-22.944651 161.027480 21.792755 13 1
-45.165501 151.122830 30.763372 0 0
-11.623554 26.391142 -15.320190 2 1
24.675825 131.281370 63.912338 21 1
26.213928 59.313442 -53.814568 0 0
-44.655506 102.881290 67.345757 6 1
-13.984897 96.409691 74.575493 8 1
-62.601036 147.119860 38.684036 5 1
-6.614559 152.290100 16.532719 15 1
-35.361629 143.996290 61.250706 4 1
27.198275 145.924440 54.100174 21 1
-19.132956 104.033780 65.599266 8 1
17.210377 151.619780 -43.483608 18 1
-43.709015 91.236664 73.990417 6 1
-16.351372 94.961189 89.211868 8 1
-82.688332 163.578580 12.580735 5 1
34.143681 160.031830 35.927082 20 1
4.199116 153.993470 -43.817947 18 1
49.887924 160.442890 52.475746 19 1
57.674828 138.684160 0.466575 22 1
-23.708612 105.863030 87.684471 8 1
-5.699770 77.389977 7.118473 0 0
27.949629 157.323260 35.740200 21 1
-3.635383 37.822289 1.261943 0 0
4.099402 77.290131 -5.678563 0 0
-6.390689 49.765228 1.112958 0 0
-85.393730 152.739260 17.345053 5 1
-26.314304 174.961010 11.914942 14 1
-23.961834 104.653960 76.092720 8 1
5.816019 59.792835 -12.712693 10 1
3.530555 130.229460 2.650378 0 0
4.233326 114.722660 79.194733 7 1
-17.858025 88.577942 46.533108 0 0
-73.458542 150.226320 21.249235 5 1
-15.739338 86.832413 94.783607 8 1
33.922863 68.382683 -72.224442 1 1
3.680387 140.597850 -65.891167 18 1
0.945215 144.116610 -62.107937 18 1
-29.755959 156.318880 24.622675 13 1
-77.133286 137.582120 60.510593 3 1
-5.332445 142.614870 6.327956 0 0
-51.799549 136.247130 55.327808 4 1
-14.131503 103.650150 4.969545 0 0
1.815048 30.975225 0.432419 0 0
-39.396606 103.083080 67.507904 6 1
5.705523 57.589478 -66.522026 12 1
31.575199 146.448320 -33.625854 22 1
68.022919 135.461530 66.256897 19 1
-36.987850 130.560910 68.944740 4 1
31.573896 149.236450 47.960686 21 1
47.061417 162.191280 -43.381847 22 1
-3.084455 126.748920 4.053579 0 0
21.174448 122.150180 72.150993 21 1
25.647221 130.315600 -27.942844 0 0
28.169645 158.224060 28.364109 0 0
38.423615 149.223560 -35.697491 22 1
-42.136841 95.315079 68.648026 6 1
-24.237053 94.788460 72.310524 6 1
39.847225 60.720860 -54.004711 16 1
-47.617783 151.590330 34.148094 5 1
-70.826912 142.671950 53.153709 3 1
0.651203 62.116142 -0.617989 0 0
-33.638470 96.101807 96.444145 8 1
-41.194092 144.067630 61.118362 4 1
-8.542833 15.475559 22.702736 17 1
-14.468861 169.805850 13.193409 14 1
28.282127 143.837880 -36.653973 22 1
-23.580046 27.323929 -9.264052 2 1
-82.158997 146.613390 24.098978 5 1
35.249512 173.691710 32.472523 20 1
-6.361352 169.764430 20.241604 15 1
52.776474 147.678150 -14.937564 22 1
11.066731 155.722640 -41.404793 18 1
40.523186 66.619118 -68.009293 1 1
-11.529753 158.958820 21.696119 15 1
41.972652 132.292600 54.453304 21 1
2.009603 63.257843 -15.659475 10 1
-86.420403 133.290330 60.261360 3 1
-28.885084 101.979270 82.857437 8 1
0.007787 154.443280 21.533419 0 0
-49.882656 126.300040 62.501667 4 1
60.552509 127.735780 -12.517011 22 1
-23.428495 157.877320 30.710623 13 1
20.711576 157.026600 -39.639118 18 1
0.900817 148.359660 -54.868740 18 1
3.366664 74.697449 -0.049247 0 0
-18.963148 100.970450 82.536514 8 1
-17.143137 115.945490 8.987018 0 0
-91.812340 140.438810 50.912453 3 1
-90.304886 152.600970 8.383760 5 1
-48.457138 156.102390 31.933695 5 1
-58.314194 151.092590 30.683002 5 1
-3.035868 3.256211 1.278333 0 0
-8.020485 58.988434 4.657690 0 0
12.341760 105.063720 81.679703 7 1
52.203266 141.337940 -2.046531 22 1
54.163761 146.260670 0.801682 22 1
-32.987297 94.138344 69.869888 6 1
-32.475128 142.588930 67.460785 4 1
25.116159 135.618820 -31.967945 0 0
-91.560501 162.340770 3.023133 5 1
-61.870354 151.379210 49.849682 5 1
59.411713 139.713390 -25.070656 22 1
-33.455589 112.349010 69.802589 6 1
34.718826 62.748817 -40.185524 16 1
-5.478930 156.349490 23.070795 15 1
-2.026629 29.376570 0.635862 0 0
10.846534 97.495567 80.399055 7 1
-4.782214 164.067960 21.911711 15 1
-87.700928 139.769150 49.732140 3 1
-4.774340 84.069107 -0.483724 0 0
69.400520 145.391270 73.203758 19 1
-3.787807 61.335018 -0.984269 0 0
34.122517 150.107790 -26.142887 22 1
46.326252 158.611270 45.355225 19 1
-43.813835 133.825760 64.616669 4 1
48.524857 152.263200 -2.463998 22 1
5.351710 38.158260 -3.532642 0 0
-60.027927 159.767640 23.528421 5 1
-37.809784 151.414060 38.929600 0 0
26.440432 133.491420 53.306065 21 1
-4.377382 94.452003 5.432314 0 0
-2.095472 94.067665 83.499641 7 1
2.384695 150.788100 -49.492989 18 1
3.569527 97.355209 79.172409 7 1
60.823471 164.428800 57.443764 19 1
-89.168793 128.482800 66.582619 3 1
-7.692064 151.524380 5.821987 15 1
-24.428589 155.414980 33.880180 13 1
-39.065933 147.351430 62.599644 4 1
-4.784728 57.712017 10.221412 0 0
-74.219002 134.826510 77.287270 3 1
-48.818272 143.908600 52.969154 4 1
49.411419 61.488289 -54.214516 16 1
54.697914 138.772630 -29.259420 22 1
-37.563137 106.831480 68.269966 6 1
51.479893 144.817790 -33.529102 22 1
28.302605 119.385200 73.411827 21 1
-28.594767 104.567580 75.826935 6 1
28.660183 125.074010 62.265324 21 1
31.835297 151.343410 -33.321121 22 1
-8.135016 52.209354 -12.484214 11 1
59.787987 138.336940 -17.304377 22 1
32.203938 60.899418 -49.978508 16 1
78.492569 138.471010 73.448959 19 1
-54.209881 151.788510 53.736813 5 1
17.269146 128.052640 66.980247 21 1
-2.925701 63.659767 -16.317259 10 1
-9.485001 99.654556 6.842923 0 0
24.616266 70.618629 -82.623451 1 1
-6.279751 162.789860 28.638346 15 1
-79.742790 130.761520 78.031204 3 1
47.976143 144.638820 -40.084602 22 1
46.353024 161.605240 39.036423 20 1
-20.220589 161.945340 10.510558 14 1
-46.978313 141.633100 56.179546 4 1
63.634209 161.494060 59.079018 19 1
57.341202 143.675660 61.276878 19 1
-84.402023 132.620380 71.757896 3 1
20.241476 137.487730 56.810837 21 1
-82.724213 139.869200 60.737103 3 1
48.979870 146.454190 -7.643486 22 1
-74.146515 148.354320 36.244041 5 1
-8.615089 61.205925 17.537437 0 0
37.322353 165.386110 37.183102 20 1
-74.492554 139.581800 72.991928 3 1
23.768253 123.614240 68.120125 21 1
-50.210396 136.504320 51.604107 4 1
25.764299 138.567150 60.083138 21 1
-30.167360 154.787380 62.741302 4 1
40.494843 138.481490 51.496353 21 1
56.587296 140.145600 57.868980 19 1
-26.601248 20.689034 -5.113038 2 1
-29.635937 139.684660 73.729317 4 1
22.373468 127.087420 64.945435 21 1
32.283894 129.735320 56.323551 21 1
-33.183079 149.543300 33.446495 0 0
-12.249790 156.421830 27.489380 15 1
-65.776917 148.299990 29.212751 5 1
66.708351 128.505250 -15.195589 22 1
-9.655312 114.153400 70.932098 7 1
-7.807239 104.267430 7.418447 0 0
24.020203 54.478519 -48.026230 0 0
-12.745265 164.961790 27.737961 15 1
36.617653 65.602615 -68.004089 1 1
13.271902 52.684868 -7.412869 9 1
-55.808846 85.778488 71.233650 6 1
18.154680 65.389336 -55.790749 12 1
-66.682610 144.252500 59.586502 3 1
73.744041 145.299970 66.908936 19 1
-7.814767 166.579730 32.893814 15 1
43.169823 148.005520 -30.112278 22 1
-68.435608 158.699980 23.911263 5 1
-87.173019 134.647720 64.372223 3 1
7.080868 103.773160 79.560974 7 1
-57.308609 157.716220 30.059681 5 1
-86.570885 158.880940 6.333795 5 1
61.567799 130.966950 -6.878304 22 1
-55.013409 152.785290 36.116314 5 1
-2.345462 66.280075 5.532036 0 0
-14.919273 20.256275 5.874630 2 1
11.091025 58.735363 -70.149300 12 1
48.286697 152.269530 -12.169269 22 1
43.438042 68.233498 -75.275345 1 1
74.313995 136.197890 66.852821 19 1
-18.998606 172.909880 11.776092 14 1
-30.311628 156.609700 34.500969 13 1
-7.268824 106.675620 71.110992 7 1
-53.257084 89.986359 71.508163 6 1
36.288872 65.719696 -43.652489 16 1
-73.415550 144.549190 32.915859 5 1
-24.616150 141.447330 82.082016 4 1
-1.667744 110.132860 75.404495 7 1
40.206608 149.400180 -27.589916 22 1
30.735725 61.269268 -46.269798 16 1
-62.004246 151.171630 53.909935 3 1
-25.162964 151.725910 26.587133 13 1
-12.507675 20.432653 2.106555 2 1
-46.069050 128.251820 62.155739 4 1
-46.963417 154.976170 49.158424 5 1
19.956545 157.219180 45.454906 21 1
12.689066 45.983223 -36.151592 0 0
-12.206073 106.917390 6.238907 0 0
-81.323975 147.643750 50.283077 3 1
-76.772774 135.012440 70.120148 3 1
28.402985 130.067690 63.159145 21 1
3.142346 55.081860 -13.030897 10 1
36.722809 141.005420 47.216000 21 1
30.121799 152.942460 -44.285599 18 1
-76.100807 147.850970 29.059578 5 1
-12.806937 101.560600 70.271149 7 1
-86.501816 163.519450 7.882933 5 1
-4.518710 102.330420 76.501244 7 1
-21.378448 98.049507 73.084946 8 1
-3.965462 103.182000 4.891436 0 0
-65.272507 145.907030 72.568062 3 1
69.636368 121.558790 -13.438551 22 1
28.258106 124.495480 68.824234 21 1
-20.054100 94.760094 86.417709 8 1
-25.073170 93.853966 91.090790 8 1
-59.907413 88.598770 69.123962 6 1
-63.929241 146.462080 47.898495 3 1
55.037033 147.727220 -8.931328 22 1
1.900540 80.832947 -5.237463 0 0
24.962009 136.878490 51.218575 21 1
-34.401550 153.237170 57.101204 4 1
-4.932478 16.072197 -1.646998 0 0
-29.667902 98.600700 87.478035 8 1
-34.086643 101.026830 79.273163 6 1
25.942825 157.222840 32.269844 0 0
38.988976 174.228580 30.616804 20 1
-19.638968 97.321922 58.420940 0 0
-1.620421 54.374027 -5.216611 11 1
30.796724 62.112358 -42.221359 16 1
29.666008 148.230910 -24.576670 22 1
-48.425468 149.687070 53.858715 4 1
-73.791298 137.482800 67.952744 3 1
37.704857 153.080700 -31.491415 22 1
77.342888 148.554610 72.918121 19 1
37.488220 156.227100 -24.199921 22 1
53.872654 166.147860 58.800495 19 1
57.619656 161.404450 64.064713 19 1
-79.953888 135.669540 62.508839 3 1
15.960476 151.151150 -51.605541 18 1
-69.704437 167.472820 18.784765 5 1
16.039343 158.363920 -36.730633 18 1
-30.913807 105.904680 71.729126 6 1
-43.970089 144.810730 57.250626 4 1
1.420433 151.765820 5.864036 0 0
-35.069809 153.572800 66.046478 4 1
-0.077580 144.405110 3.819921 0 0
-1.066155 35.312004 -3.654341 0 0
18.114904 121.358590 -25.692120 0 0
-74.008530 146.268330 40.644928 5 1
-27.824570 104.004180 89.305099 8 1
-90.015663 131.430130 59.829128 3 1
-47.682484 139.618010 51.162796 4 1
16.524876 60.418201 -71.023117 12 1
-26.444523 141.523770 78.187073 4 1
-55.116070 150.092800 49.059170 5 1
4.680059 143.221150 -58.738258 18 1
-84.861366 142.845460 48.133648 3 1
59.848019 148.835850 52.978428 19 1
55.083599 165.023040 53.465111 19 1
-18.800781 163.234770 15.507446 14 1
-51.163654 101.164860 71.827545 6 1
16.472992 61.700867 -65.099503 12 1
52.877579 140.506360 -18.035379 22 1
1.598090 38.682060 -0.644975 0 0
-39.040619 139.914720 65.807755 4 1
13.448347 138.703720 62.242485 21 1
10.714762 98.528481 -10.981164 0 0
-22.797945 104.786160 80.443756 8 1
-29.599129 133.944920 75.868912 4 1
55.315506 137.202620 -15.105691 22 1
-17.894516 93.290627 57.482407 0 0
9.902081 43.962486 -23.315588 0 0
47.606346 165.624850 29.706383 20 1
-41.702969 151.577330 25.710415 0 0
-46.548141 151.420820 37.905376 5 1
-26.908440 150.848600 71.312477 4 1
-1.963381 50.092049 -13.387854 11 1
-46.171162 156.260380 36.701260 5 1
46.991131 149.409820 -24.611444 22 1
-7.479458 70.037231 5.900302 0 0
70.756577 153.969060 68.388046 19 1
5.540704 60.438530 -59.576164 12 1
-3.805007 50.209206 -1.903259 0 0
-6.793828 79.820351 4.257241 0 0
29.738827 151.976200 41.561901 21 1
56.182175 141.511780 52.154198 19 1
-1.884358 14.225982 1.581912 0 0
-5.900393 98.529701 75.790550 7 1
-6.854461 49.743225 -7.288262 11 1
-27.093590 104.906080 66.917046 6 1
-41.518684 134.891270 61.248440 4 1
-88.642303 145.549270 16.609327 5 1
-49.717396 145.319950 43.501572 4 1
-27.729355 146.142060 77.565056 4 1
-85.070320 156.451350 16.093014 5 1
18.646124 118.132800 -20.726072 0 0
-80.590103 148.608380 18.237652 5 1
-92.916924 158.734850 5.794860 5 1
42.992481 148.508010 -24.546421 22 1
1.511811 114.357960 74.175072 7 1
59.585140 132.809840 -19.398506 22 1
-45.636219 135.628720 61.481392 4 1
64.335854 135.043320 -23.128981 22 1
-82.401077 141.761510 32.988613 5 1
-31.058807 147.824520 67.353790 4 1
-83.352707 144.642290 20.335512 5 1
-15.588632 85.786812 48.006271 0 0
-28.020554 131.232350 19.340689 0 0
-1.915573 98.209305 2.038131 0 0
-13.973104 161.941300 22.186768 15 1
59.990425 139.543550 -34.297390 22 1
-88.732445 126.231060 72.941330 3 1
13.842513 144.798680 -56.757771 18 1
-91.338829 131.536820 65.465233 3 1
40.788048 144.317340 46.299450 21 1
40.368301 152.767400 -42.067749 22 1
43.020222 152.737430 -8.384019 22 1
-25.443226 100.292590 67.191368 6 1
52.408844 144.716490 -28.263239 22 1
-40.483398 141.051440 57.589989 4 1
-0.703427 147.000780 20.538916 0 0
-25.461723 128.389680 15.119827 0 0
19.867844 145.939320 -52.114799 18 1
-19.777464 118.800060 14.699597 0 0
49.956749 156.177190 51.784130 19 1
-35.742741 144.841980 67.264862 4 1
-78.841225 139.704770 65.274223 3 1
-6.957314 140.557770 -59.960953 18 1
24.309549 62.296722 -59.816921 0 0
-5.126458 20.992725 -1.816155 0 0
23.466864 69.855019 -75.527367 1 1
-63.386189 171.534390 19.146181 5 1
2.263913 133.276790 4.809072 0 0
-30.582310 147.149840 72.594933 4 1
-14.256824 14.885443 10.506783 17 1
-8.377973 171.088330 32.307522 15 1
-44.634613 109.069810 69.204445 6 1
33.450012 125.693640 65.836517 21 1
-35.379807 153.305590 35.839897 0 0
-0.663413 16.537506 -1.949461 0 0
-40.883881 134.859270 67.028709 4 1
8.282442 129.531420 6.585323 0 0
38.524445 147.876360 44.491329 21 1
-32.811272 145.469070 30.486067 0 0
-33.223873 136.013610 69.370293 4 1
-76.423012 169.835860 9.851820 5 1
14.839478 149.619110 -27.663942 22 1
45.378212 157.313830 41.420975 19 1
-65.544205 151.122480 51.195946 3 1
-37.569942 86.546387 72.695709 6 1
-0.728897 53.467831 1.991346 0 0
29.265898 152.919240 -36.765720 18 1
-30.075483 91.182632 75.777519 6 1
44.578491 63.662235 -48.117157 16 1
39.381020 161.777360 -59.316982 22 1
9.394547 141.268650 -63.258347 18 1
13.650123 145.407900 63.258759 21 1
-19.781824 20.646242 1.327509 2 1
11.344169 100.390380 82.957603 7 1
-16.814430 157.341110 32.812473 13 1
-9.468864 17.456581 6.858922 17 1
-33.431553 149.332170 37.520359 0 0
-56.985012 92.132530 70.761894 6 1
18.420835 60.408722 -59.144379 12 1
-66.017799 150.969960 25.970816 5 1
67.803223 130.984700 -21.086634 22 1
-69.343422 161.987660 21.812334 5 1
-3.279854 66.042953 -21.637743 10 1
42.657001 163.814610 32.380684 20 1
-83.822426 156.669240 8.717311 5 1
64.089737 131.519290 -26.397179 22 1
33.229160 121.596960 65.307327 21 1
14.119991 148.532880 -49.493576 18 1
45.374809 152.906570 -18.762667 22 1
42.368073 147.762660 -41.460205 22 1
-32.925247 128.966200 74.103645 4 1
-67.587181 149.563190 44.565735 5 1
18.842096 145.101960 52.408150 21 1
-69.537544 154.013780 26.660990 5 1
-69.569496 141.955030 60.878521 3 1
73.881470 132.667390 69.492104 19 1
38.084011 130.526230 59.081745 21 1
14.126238 141.173020 65.138443 21 1
-0.872556 68.183090 -2.727888 0 0
51.278305 145.878570 50.393776 19 1
36.108768 65.859940 -50.452770 16 1
64.417999 142.598660 68.889214 19 1
-11.487566 107.241620 69.405670 7 1
-78.688683 141.290990 50.923523 3 1
20.582901 147.679290 16.665056 0 0
24.272379 119.423280 73.243835 21 1
-38.312317 136.462940 63.084530 4 1
-3.175085 82.408272 5.616518 0 0
-76.027405 142.370960 34.627136 5 1
-25.159325 135.636230 83.129723 4 1
-1.777695 38.851326 -2.435421 0 0
36.875706 61.465614 -56.325542 16 1
-0.130872 19.248949 3.072036 0 0
-5.664087 163.365310 16.171696 15 1
46.425858 147.784000 -36.929024 22 1
-7.936329 16.924164 13.723398 17 1
19.885551 157.778980 49.212616 21 1
58.568771 145.033740 52.793072 19 1
-2.636220 117.984210 3.098996 0 0
27.675177 141.357130 57.646149 21 1
7.071848 134.525470 9.156357 0 0
-14.362641 82.179268 43.695881 0 0
60.867306 155.767590 69.033623 19 1
28.184118 137.768360 -31.371178 0 0
-56.189976 148.560260 43.457687 5 1
-84.467888 134.944140 67.136253 3 1
-79.083054 134.329090 76.837341 3 1
-44.864983 98.315765 74.230377 6 1
24.136669 143.166490 46.988300 21 1
31.968388 69.252167 -75.631096 1 1
22.971193 151.254750 43.412113 21 1
-12.333623 101.221720 75.674232 7 1
-34.472912 91.108856 75.658394 6 1
-8.811999 150.782530 10.572980 15 1
-54.101395 147.920850 37.803463 5 1
70.675621 141.363420 63.529842 19 1
67.873123 145.201310 61.518547 19 1
12.837963 60.522137 -64.846634 12 1
59.740513 149.823790 65.884789 19 1
-37.504154 131.635930 72.609550 4 1
57.476231 155.093200 63.235645 19 1
-22.030279 105.727840 70.301102 8 1
-17.232367 158.802840 16.704769 13 1
-8.411098 154.663680 20.954550 15 1
-16.099817 99.485619 70.768288 8 1
-61.108986 148.349080 46.027714 5 1
10.693475 105.587750 78.148529 7 1
41.665840 152.777820 -12.021242 22 1
30.427866 145.599640 52.197189 21 1
-18.209648 24.533968 -18.700077 2 1
28.006029 71.773674 -74.158043 1 1
9.933466 140.148790 13.938617 0 0
-30.260334 28.523762 -10.289719 2 1
-41.222729 159.975710 49.322784 4 1
9.184463 151.903550 -52.409153 18 1
-16.780447 90.456863 51.109287 0 0
-3.544055 148.446180 -53.303226 18 1
-65.076462 153.441960 29.516315 5 1
22.710493 136.331600 62.328308 21 1
-29.033195 159.729160 23.173288 13 1
-29.200060 94.482178 93.837990 8 1
-31.607904 143.257780 24.189869 0 0
-10.494457 96.659508 75.916031 7 1
-61.235786 152.557250 32.516113 5 1
-83.819313 145.847750 27.571173 5 1
-54.491837 144.492890 47.664886 5 1
-13.223620 17.483444 17.651604 17 1
-58.546432 152.107190 35.087334 5 1
39.555367 68.483246 -74.637276 1 1
26.157444 71.679153 -77.467789 1 1
9.684946 140.430310 9.726844 0 0
-49.083073 87.700783 69.791397 6 1
-35.285484 96.469727 76.019829 6 1
-14.954432 88.160599 44.222115 0 0
52.875622 141.300160 -5.719529 22 1
23.993979 54.877129 -54.060207 0 0
8.126688 40.429447 -16.566206 0 0
42.528175 149.835490 -33.869621 22 1
-53.051147 163.795240 28.311275 5 1
-27.512253 101.068100 77.458923 6 1
-88.335999 163.972210 3.942988 5 1
-27.937536 137.764570 77.193489 4 1
-24.577797 172.793550 7.908267 14 1
-69.659271 146.598720 42.954586 5 1
35.306011 157.352230 38.257431 21 1
69.206200 128.642990 -18.483353 22 1
-58.453812 103.349400 70.582153 6 1
58.536430 166.116490 60.084572 19 1
-33.438110 146.137650 26.729336 0 0
-88.552101 140.527180 53.323009 3 1
-3.457768 106.223590 74.591797 7 1
61.130772 136.668010 60.744293 19 1
-2.630030 89.288719 1.212832 0 0
-5.038043 25.311749 -12.468883 2 1
-93.649948 128.179310 61.270782 3 1
80.963364 144.451130 75.035927 19 1
25.873909 124.949230 64.717064 21 1
-96.169952 132.364760 57.039497 3 1
-50.390785 94.504700 72.399712 6 1
-42.745934 131.517560 67.318893 4 1
26.373098 141.460110 -34.540760 0 0
-33.008163 157.565480 28.342943 13 1
1.386080 151.695270 14.086366 0 0
-44.804287 123.984080 67.758438 4 1
-4.568389 167.779370 22.811417 15 1
-40.381977 150.719350 48.454369 4 1
-0.863496 78.020508 0.490667 0 0
49.084557 163.558000 32.559982 20 1
-22.016735 95.011536 92.829659 8 1
46.374104 162.162050 -50.821384 22 1
-72.266624 140.655200 58.433369 3 1
-70.259987 153.423770 20.753098 5 1
-18.734138 125.621870 15.888698 0 0
40.464878 160.369000 41.962891 20 1
-5.626942 87.139320 4.144994 0 0
-4.020319 31.775990 -2.204258 0 0
-47.596180 101.484830 72.855812 6 1
69.703079 129.967740 -24.290346 22 1
-5.858163 55.952652 5.097715 0 0
13.292624 150.379880 59.409225 21 1
-5.371311 60.717468 13.237474 0 0
-79.714859 132.281940 72.648773 3 1
28.784971 149.623860 -47.532574 18 1
15.915603 53.598232 -14.101509 9 1
-89.634224 158.782560 4.029747 5 1
-9.843928 24.130028 -9.022263 2 1
62.598824 125.537220 -4.990309 22 1
11.778421 104.559780 -15.469913 0 0
-31.186314 103.151220 78.038460 6 1
63.144638 162.790630 69.336349 19 1
-6.620055 65.169312 18.860323 0 0
34.356087 154.320480 -21.610697 22 1
30.639517 146.817470 -38.241043 22 1
-14.961110 112.129260 8.421515 0 0
-39.316338 152.403210 35.418716 0 0
14.761703 155.761780 -41.900066 18 1
-80.706535 148.745060 36.709858 5 1
22.145199 154.983860 -44.188698 18 1
-89.207870 134.398220 55.684738 3 1
62.050102 127.120510 -0.998678 22 1
31.936901 139.845980 56.418034 21 1
-42.655754 129.350080 64.150391 4 1
0.197971 104.368710 4.236272 0 0
36.919472 144.156740 49.108341 21 1
43.337509 163.140440 49.792377 19 1
38.154503 123.941790 62.740650 21 1
-7.393251 18.195665 19.231453 17 1
-41.911591 140.529980 62.014458 4 1
34.695824 156.660810 -28.733948 22 1
-11.215666 17.391230 10.095036 17 1
56.942528 133.479840 -7.435382 22 1
47.351509 161.725520 49.772026 19 1
18.032337 151.670330 48.955238 21 1
60.563293 134.738390 -31.897881 22 1
-43.624592 86.472496 73.856560 6 1
3.141771 150.223590 9.571043 0 0
-78.394585 148.458620 25.415005 5 1
25.935917 147.298320 43.200867 21 1
-16.351349 167.527880 16.785530 14 1
-15.577216 15.629592 15.005501 17 1
-42.256924 157.151200 55.683060 4 1
48.987034 147.938870 -1.926059 22 1
-46.375893 94.861214 73.570625 6 1
76.534119 134.643690 73.980835 19 1
-26.622942 172.660540 16.429752 14 1
-33.351097 101.890970 91.846176 8 1
-81.343430 158.684510 18.062716 5 1
31.058056 71.028160 -69.402458 1 1
-19.245264 152.128010 23.289911 13 1
12.781746 143.053090 14.349374 0 0
-4.354549 42.502205 0.808564 0 0
0.005772 -0.459731 -1.393045 0 0
38.491581 168.271060 34.278908 20 1
-7.796152 100.703770 73.285515 7 1
-13.630320 24.190790 -7.187503 2 1
39.165001 156.845440 -17.589043 22 1
46.164917 169.143130 31.596453 20 1
40.969048 152.429430 -29.487778 22 1
-44.014599 154.754940 61.350643 4 1
-31.205679 135.573500 73.020546 4 1
-88.889397 144.855940 31.963991 5 1
21.184946 134.229170 58.241287 21 1
66.530502 159.231700 64.797974 19 1
-89.133537 150.322590 11.858088 5 1
14.687436 62.623756 -51.946983 12 1
33.107563 66.212341 -69.185249 1 1
-68.912178 150.683840 53.209377 3 1
11.853668 94.640968 -11.431200 0 0
3.178197 59.743366 -15.309384 10 1
24.835388 145.047150 56.813725 21 1
-73.603485 136.064590 73.738297 3 1
-17.326223 97.206253 86.443138 8 1
22.344522 150.650340 -29.456701 22 1
45.074299 61.097721 -52.948242 16 1
-32.244778 151.947450 61.813625 4 1
33.730385 146.815870 43.835182 21 1
70.255363 153.184450 73.356941 19 1
24.130785 152.453990 -46.228214 18 1
-69.963387 146.020800 32.043320 5 1
-2.418735 137.247890 -64.549309 18 1
-5.593163 72.683578 -0.320514 0 0
-17.453537 96.328972 75.813049 8 1
-3.938814 96.126770 78.117821 7 1
40.834457 64.620987 -49.357914 16 1
78.206306 145.383220 78.354080 19 1
21.902580 128.021530 68.674141 21 1
26.694479 160.937360 37.946823 21 1
-1.567133 92.968391 3.540036 0 0
-73.193314 141.676830 70.330414 3 1
-20.519211 25.493422 -14.162430 2 1
0.809693 76.549255 6.997121 0 0
-2.545971 139.125500 7.078832 0 0
51.302994 149.331450 54.978481 19 1
31.156048 164.190250 34.703884 21 1
40.764439 155.843670 -45.548485 22 1
1.150842 100.764860 76.762009 7 1
-32.228382 150.885070 28.214901 13 1
38.431976 163.226140 34.500771 20 1
-68.642517 140.634640 69.347275 3 1
-87.878609 144.963420 48.093689 3 1
-4.950373 157.952840 16.443577 15 1
56.543671 141.953370 -34.875759 22 1
-46.921288 138.609700 58.147991 4 1
48.824612 164.015690 54.681629 19 1
-69.458023 145.155010 48.035690 3 1
7.339654 59.526039 -63.493557 12 1
62.415359 158.002060 55.536324 19 1
1.596709 151.037110 18.543861 0 0
0.423337 54.399410 -9.026977 11 1
1.132901 131.400570 7.692508 0 0
-3.156044 134.363480 3.207658 0 0
-66.686478 150.311400 59.149677 3 1
-29.970900 174.913440 14.014413 14 1
24.877810 155.086470 -38.682632 18 1
37.171825 68.421844 -77.589142 1 1
-85.563957 129.878390 75.709274 3 1
44.961632 171.959780 29.288269 20 1
15.072648 44.226898 -33.948803 0 0
2.745585 74.581940 -3.701957 0 0
-3.238549 59.372780 3.935271 0 0
13.848407 99.301094 -13.367600 0 0
-1.910890 145.906370 -58.748196 18 1
-2.267948 50.260674 -9.623064 11 1
-6.167672 54.542797 0.755558 0 0
-10.752369 93.077118 90.146980 8 1
-38.636497 143.624480 23.157291 0 0
-21.940252 106.665310 65.566429 6 1
2.479030 94.256783 80.834335 7 1
27.552588 61.269360 -60.943424 0 0
-12.715900 155.447280 23.522614 15 1
-37.240055 133.325710 66.513588 4 1
-67.774979 146.382290 68.419197 3 1
-14.395233 113.211450 68.751106 7 1
-81.419907 145.822540 47.200409 3 1
76.080597 144.559860 69.519341 19 1
-37.650932 149.145680 31.646959 0 0
-21.878752 152.640720 33.298038 13 1
30.611191 142.358540 -34.232918 0 0
26.052164 149.793590 -23.743265 22 1
-2.775725 45.395546 -2.524643 0 0
58.099358 136.423740 -2.318627 22 1
-11.893561 153.211120 11.257424 15 1
-11.546612 75.025101 34.121349 0 0
44.517578 159.571590 -43.102673 22 1
-16.966553 101.624080 76.750046 8 1
12.457501 41.628479 -24.199406 0 0
8.479912 54.581734 -9.690223 10 1
-2.073517 151.011990 13.282548 0 0
-55.086693 131.826860 52.626083 4 1
68.254936 158.133030 69.140770 19 1
-9.223376 19.490269 3.133354 0 0
-30.995623 126.613740 79.997917 4 1
40.661606 152.529890 39.593376 21 1
-1.933260 6.754335 1.507060 0 0
-68.774330 149.585070 32.333984 5 1
31.925732 69.946495 -81.750557 1 1
0.009845 16.160288 4.840634 17 1
-27.328627 98.957375 93.105095 8 1
8.666466 42.735237 -4.112732 0 0
-37.944164 146.735020 54.894615 4 1
35.354607 147.448900 47.037338 21 1
-92.147583 127.508220 68.321190 3 1
66.987663 122.390590 -3.588418 22 1
18.529324 153.518590 -39.994335 18 1
-40.909901 138.074190 59.491173 4 1
0.041461 122.741720 0.126649 0 0
27.236658 146.066090 -53.992241 18 1
-46.851322 131.644940 63.277210 4 1
64.815926 123.148910 -13.238720 22 1
-3.298828 52.823620 5.990637 0 0
6.493093 145.471770 -55.568996 18 1
32.890553 148.696270 -51.173595 18 1
-53.786152 102.779450 68.565163 6 1
53.151821 146.827450 56.978977 19 1
1.079708 59.000031 -60.862679 12 1
-24.303778 125.564000 17.045729 0 0
-44.101570 111.159240 72.024658 6 1
-72.741447 144.552610 65.107300 3 1
-36.000698 147.043320 58.092804 4 1
-4.767618 18.400366 12.780796 17 1
1.651753 136.966770 5.355443 0 0
9.239650 152.213490 -48.585423 18 1
-43.407070 139.273090 56.139198 4 1
50.560772 143.435130 -13.717634 22 1
-63.221977 146.870830 35.035431 5 1
36.434837 133.481860 52.784180 21 1
-21.794386 93.768677 51.992519 0 0
31.821669 119.660220 68.088478 21 1
-28.000690 171.482570 9.730905 14 1
57.457294 159.956740 50.296108 19 1
18.585848 131.105270 63.298771 21 1
-86.644470 129.299480 68.929031 3 1
21.458447 52.546364 -45.856941 0 0
50.791359 151.217480 47.411125 19 1
32.257061 135.750500 58.357113 21 1
9.230411 109.146190 77.651131 7 1
41.884289 149.320080 41.535454 21 1
22.703821 58.591000 -53.209270 0 0
0.740546 44.136967 0.247095 0 0
39.878719 133.801500 51.737579 21 1
-37.643681 137.651900 68.753311 4 1
20.603540 149.858440 55.284908 21 1
-16.261707 159.195650 21.514601 15 1
59.083405 134.365480 -26.391674 22 1
-41.416916 149.835750 64.010590 4 1
21.296093 128.930160 -29.362379 0 0
-2.160115 78.094765 -3.294075 0 0
-54.113045 92.025208 68.712013 6 1
-32.424400 152.572100 68.213631 4 1
21.226309 160.082860 43.825539 21 1
-46.063595 105.580300 73.368233 6 1
17.383179 156.429400 52.207600 21 1
-12.945658 93.092560 84.250664 8 1
-57.058025 156.215900 24.363485 5 1
0.476390 117.717890 74.444336 7 1
14.941481 150.511510 -46.119450 18 1
40.159218 151.005980 -18.738859 22 1
-51.929993 83.007545 70.751297 6 1
-1.000956 88.406036 7.515997 0 0
-0.024964 72.628365 7.730470 0 0
-72.010399 164.812360 15.413040 5 1
44.265221 67.262680 -70.418213 1 1
-82.538605 151.812730 19.646984 5 1
-16.973827 112.641850 11.962088 0 0
54.716213 139.142260 2.306876 22 1
-85.388115 146.933400 17.221630 5 1
22.710545 125.236850 71.142708 21 1
-93.195686 130.226390 58.368721 3 1
15.613920 135.532030 62.525986 21 1
23.138887 157.546510 46.895405 21 1
-65.074211 145.613850 65.337578 3 1
0.043862 118.550180 5.820158 0 0
-3.713675 0.766635 -1.118170 0 0
-58.690823 150.496200 40.269886 5 1
4.818374 151.984830 -47.050549 18 1
-63.707489 148.295810 55.040775 3 1
10.504170 62.867809 -50.421093 12 1
-6.550242 95.561752 1.304785 0 0
54.269932 141.033920 55.043812 19 1
-79.745468 137.569870 68.284744 3 1
28.862667 63.777142 -57.841145 1 1
-67.662071 146.227370 36.421871 5 1
-77.682739 137.156460 72.923492 3 1
15.260238 60.790649 -57.702576 12 1
-5.269011 19.728510 8.787949 17 1
20.410576 156.491500 30.458223 0 0
14.817061 43.265266 -26.383837 0 0
-22.161978 102.740420 87.426071 8 1
-5.260713 144.494140 -56.849476 18 1
17.295073 63.687538 -58.735439 12 1
-1.867373 61.066628 -13.997595 10 1
29.028708 60.257412 -55.969040 16 1
-32.937729 138.480150 21.238844 0 0
-41.623665 87.796761 71.302345 6 1
-60.764389 96.853279 69.336929 6 1
53.636864 145.133470 -22.183622 22 1
2.890569 109.392330 78.885262 7 1
-16.265213 153.180470 19.382551 13 1
-72.277611 148.480960 24.285124 5 1
-16.626253 168.782790 8.038950 14 1
42.615345 167.729170 33.047508 20 1
36.725594 150.026870 -28.455355 22 1
39.491928 156.602630 -11.190681 22 1
47.766911 163.899770 -46.454548 22 1
-76.189934 159.388820 21.092695 5 1
24.237537 61.467983 -56.125042 0 0
24.997690 149.030240 -52.451866 18 1
66.083900 129.441090 -24.008802 22 1
-51.282406 153.073530 27.050875 5 1
25.697731 64.175934 -64.233566 1 1
16.698919 111.951510 -21.124701 0 0
-33.435257 139.122830 67.219849 4 1
21.488106 150.561750 21.462063 0 0
-9.580360 25.238892 -17.882851 2 1
-96.753136 136.048950 51.364330 3 1
18.045670 148.527240 18.880598 0 0
-15.242929 158.067840 28.118134 13 1
37.381565 138.523530 53.752087 21 1
32.714363 150.077740 42.024406 21 1
60.453686 127.630080 -8.510079 22 1
-26.423923 92.304771 94.891235 8 1
-9.918345 48.387619 -8.470015 11 1
-51.785892 97.725426 71.610405 6 1
40.192368 63.039650 -37.680576 16 1
-39.484383 123.915760 73.255241 4 1
64.024849 134.185520 -32.520012 22 1
19.797329 150.642730 -51.030373 18 1
-90.077332 133.607760 62.802414 3 1
78.221970 138.849620 78.871391 19 1
-15.820197 26.386570 -12.253183 2 1
5.146981 149.636460 -55.055996 18 1
-5.081540 105.770060 2.885459 0 0
-11.164248 78.646980 34.285042 0 0
-15.460814 26.693233 -17.928993 2 1
-22.606749 28.857319 -12.245485 2 1
16.976620 50.848812 -44.730118 0 0
-33.682121 142.406570 70.848717 4 1
20.224615 127.762830 -24.610085 0 0
13.263453 134.873260 66.888420 21 1
36.401714 151.360610 -38.608288 22 1
-7.493648 170.541780 27.537146 15 1
-11.019385 70.625053 28.067862 0 0
50.122143 143.043290 -24.754534 22 1
-44.605591 90.253471 69.577919 6 1
0.343941 50.920258 -0.070252 0 0
-32.307964 21.600637 -7.319967 2 1
-5.765550 81.138222 1.045300 0 0
16.514826 147.960780 53.105965 21 1
36.234821 70.937866 -71.585464 1 1
60.160870 130.742980 -1.279669 22 1
-34.965645 105.464710 72.590019 6 1
-90.126167 155.974430 12.201422 5 1
5.948087 139.593090 -63.326561 18 1
-45.725567 156.294250 45.267288 5 1
58.264290 130.668260 -5.962194 22 1
55.075424 142.452100 -38.992638 22 1
-84.895927 145.679310 34.628922 5 1
-42.420322 154.867860 35.844196 5 1
1.916918 115.659440 3.839090 0 0
-10.685897 99.884918 79.500641 7 1
-27.743042 151.468110 28.843279 13 1
-0.167123 154.706890 -44.374443 18 1
-52.956173 87.244293 69.123581 6 1
-64.686264 160.889140 21.291161 5 1
-16.700838 154.275570 31.117018 13 1
-8.806958 99.373650 2.083258 0 0
-29.802528 158.477110 67.424545 4 1
24.633537 124.688250 -25.517197 0 0
3.770093 75.629570 4.846198 0 0
26.508984 129.526210 58.505096 21 1
79.877831 142.008470 80.025307 19 1
-22.332705 99.752525 89.216095 8 1
-6.943410 75.264984 4.729637 0 0
-46.172302 133.425870 58.150864 4 1
-73.332291 141.089720 54.881634 3 1
-18.686110 163.627330 7.421662 14 1
-48.880215 134.384670 54.777653 4 1
-39.499928 96.248444 75.720589 6 1
-43.298252 149.829730 44.901386 4 1
37.388161 133.937850 56.978851 21 1
65.053581 134.895070 -26.865652 22 1
-80.329796 163.575260 9.672679 5 1
47.952244 147.148250 -29.534927 22 1
-42.511978 148.448350 26.836145 0 0
50.141026 150.774340 -6.820943 22 1
-6.435578 49.477837 -14.283050 11 1
5.724252 38.337944 -10.541523 0 0
52.317368 154.295620 55.853710 19 1
-8.184725 21.165701 -8.644460 2 1
63.680424 148.691770 57.789093 19 1
64.004395 133.839920 -19.675966 22 1
12.862442 62.474663 -59.919437 12 1
64.745796 134.603240 62.382717 19 1
-40.049438 128.975190 66.880089 4 1
5.091530 108.758070 75.656265 7 1
-82.550270 152.557130 11.386636 5 1
48.623344 144.403490 -20.243988 22 1
5.266741 62.069645 -50.340614 12 1
-53.469650 136.562670 49.532402 4 1
16.607941 146.965760 -51.223633 18 1
-86.482262 138.592650 58.581219 3 1
-80.746895 147.658650 31.772331 5 1
11.672031 52.400230 -10.478693 9 1
-39.347542 154.195210 47.741692 4 1
3.254266 51.649010 -8.727561 11 1
-63.246422 157.938160 26.863527 5 1
-14.624338 84.459267 41.107471 0 0
-19.432930 110.804760 66.067596 7 1
3.377015 36.888771 -6.893995 0 0
51.899269 141.669940 -30.408936 22 1
17.900553 146.246000 61.191837 21 1
69.294945 139.939440 72.700127 19 1
-56.490936 100.773350 67.799019 6 1
-13.056364 106.261810 9.581867 0 0
38.933399 61.490005 -50.735855 16 1
7.213733 100.328390 79.100052 7 1
-59.228832 162.221440 26.308981 5 1
2.784645 59.686329 -66.347977 12 1
3.246915 145.635650 5.255817 0 0
38.854813 138.503050 48.519440 21 1
-83.464020 134.966230 60.249901 3 1
-27.897322 107.188780 69.471542 6 1
31.111755 64.391098 -52.745308 16 1
20.934692 60.217625 -56.806473 0 0
50.819561 147.119920 -21.439077 22 1
25.500689 69.414886 -72.751564 1 1
32.775162 142.993420 53.022709 21 1
-1.847791 71.620209 -2.781970 0 0
-28.339113 151.497330 68.304337 4 1
10.835259 144.997330 -62.476944 18 1
46.335083 155.208470 -11.829300 22 1
-10.677991 22.185007 -2.848515 2 1
7.985978 57.426994 -69.280754 12 1
-59.896347 147.286820 35.690495 5 1
11.827669 44.634045 -29.288845 0 0
-32.323753 96.630081 93.251526 8 1
-51.748329 152.677860 39.069756 5 1
-1.509228 28.136312 -2.579771 0 0
20.725803 55.272030 -47.920589 0 0
30.856489 154.761720 39.989265 21 1
28.192381 157.677610 43.625103 21 1
16.356934 115.724650 -21.411064 0 0
-44.054092 151.216230 34.133293 0 0
23.000854 156.568680 -35.952652 18 1
-2.211110 78.650887 8.890190 0 0
17.373384 157.441590 -39.954693 18 1
-79.653648 154.127660 20.647692 5 1
54.077301 158.498460 58.321056 19 1
-5.500272 53.356087 -10.689205 11 1
-46.552628 152.327160 60.651009 4 1
-3.328156 115.509930 71.742050 7 1
-92.130844 135.962480 56.573765 3 1
-41.606583 158.012310 40.951710 5 1
-85.370903 149.881160 13.946887 5 1
32.899876 160.446730 39.122776 21 1
-76.456818 145.613800 46.625519 3 1
-1.704705 111.882620 0.518453 0 0
-74.696472 153.838320 23.377584 5 1
-2.019022 130.620970 5.127569 0 0
-40.667946 102.587840 74.302544 6 1
7.445623 83.899643 -7.777559 0 0
-63.718376 146.746310 44.324100 5 1
-29.987595 174.052930 10.616252 14 1
-4.831241 140.976550 -62.554520 18 1
54.744183 158.124630 47.586102 19 1
-42.286346 126.442050 70.088104 4 1
-74.886169 155.226870 15.901743 5 1
25.587751 153.837160 41.691044 21 1
-35.315792 138.927050 70.835342 4 1
-77.376450 144.072040 60.171513 3 1
-16.537724 20.990761 0.241947 2 1
-6.029357 151.329010 8.765926 0 0
38.670265 156.291080 -20.906784 22 1
-54.034790 96.726990 68.543571 6 1
34.909615 163.224180 35.215385 20 1
-50.761284 105.368790 67.731148 6 1
-27.442268 154.256940 23.329002 13 1
-1.103926 146.040420 9.938437 0 0
3.550960 127.423780 5.917802 0 0
-25.062016 104.572280 82.906754 8 1
31.280861 152.095580 45.427814 21 1
-52.025482 132.796020 56.827511 4 1
49.614590 168.594090 29.477884 20 1
-1.269844 125.744510 1.423191 0 0
64.048134 161.521240 62.402500 19 1
59.761707 142.430310 63.224010 19 1
56.069363 135.475600 -4.896917 22 1
27.794203 147.838750 -32.045776 22 1
-18.786274 119.611340 10.684452 0 0
-15.479795 101.430880 68.113953 8 1
-77.051926 140.455630 53.713783 3 1
28.398533 66.123695 -63.962940 1 1
-16.297140 164.383150 21.427946 15 1
-23.793835 98.022667 82.918755 8 1
-1.073958 51.894089 -2.933180 0 0
29.340590 64.811119 -47.743362 16 1
57.923462 141.402400 -14.483469 22 1
-1.867281 21.657854 8.370123 17 1
31.333628 62.953415 -38.975384 16 1
0.706474 13.625678 -1.062541 0 0
73.506409 135.502990 72.530342 19 1
0.119876 155.049180 16.345739 0 0
69.052956 152.984480 64.197220 19 1
20.290472 154.865650 50.782330 21 1
-6.593081 91.723648 4.157801 0 0
-29.812378 97.182495 75.130409 6 1
-62.974438 165.439010 21.346710 5 1
26.997059 69.963173 -80.231476 1 1
-0.218354 79.094139 3.979164 0 0
53.872120 148.325160 -2.298913 22 1
43.136646 162.758900 38.976540 20 1
68.152039 132.925480 64.040199 19 1
17.079266 159.209240 47.991192 21 1
49.144135 157.013690 44.013767 19 1
-1.232185 82.140060 8.711171 0 0
4.815841 125.849900 1.586167 0 0
31.284817 62.618122 -65.184196 1 1
20.275955 150.212520 46.932022 21 1
11.985537 153.286620 -46.211765 18 1
-72.272537 163.876310 19.840849 5 1
19.805767 142.925960 61.293758 21 1
29.620779 145.254060 -29.570175 0 0
-29.599607 98.441811 68.206146 6 1
5.217538 103.602470 76.815544 7 1
6.479159 131.032290 3.951442 0 0
-9.227171 153.891070 17.813883 15 1
-54.681488 151.592030 46.086597 5 1
-71.807915 143.975740 50.119450 3 1
7.388855 40.441746 -21.215975 0 0
56.396313 142.260150 -1.841810 22 1
57.837337 132.601750 -12.398430 22 1
1.118618 152.507350 24.500729 0 0
37.374973 63.145458 -45.541523 16 1
65.821648 125.448200 -9.070335 22 1
-4.025398 64.631706 -0.718409 0 0
72.772743 150.412430 74.610466 19 1
-3.187494 150.443160 -50.312737 18 1
-40.622826 92.160828 74.769554 6 1
57.323296 134.739170 -17.934906 22 1
-14.744738 17.992548 20.550192 17 1
-36.880600 157.207670 51.189907 4 1
