41.036896 264.998660 56.136429 24 1
-91.890610 64.256989 -16.210590 1 1
60.564342 58.850403 28.097076 15 1
44.141766 202.062180 136.222400 9 1
6.243388 219.541140 -81.673004 14 1
102.326430 150.966630 -44.849998 45 1
-85.988937 77.880730 -30.466854 1 1
40.239777 270.296600 22.757244 19 1
73.184540 209.276980 83.976234 18 1
27.306849 267.473720 43.460384 27 1
16.489111 220.572970 105.371440 17 1
69.765594 65.449417 20.170475 15 1
65.225609 72.193741 5.662240 15 1
37.432156 245.678240 -29.011078 20 1
62.238148 92.649986 -3.746798 4 1
37.181564 136.835970 64.367744 7 1
69.044952 213.596850 63.204014 18 1
-4.884698 191.746280 0.919476 0 0
-43.292095 266.188690 -20.162401 22 1
-0.472187 81.549568 -1.442604 0 0
61.840321 210.705340 123.436270 9 1
38.756676 252.850490 -5.720162 20 1
-49.150291 116.982930 36.243042 23 1
2.807888 223.701460 -60.727943 14 1
77.666397 157.876450 38.561207 6 1
27.783264 124.793300 -66.904762 13 1
-24.735178 224.432660 -74.519669 3 1
-8.378887 285.343930 2.512180 21 1
71.092545 140.228740 83.447876 7 1
104.327980 155.249110 -76.208221 45 1
-5.511304 107.959980 -24.832525 31 1
-1.360848 120.907320 2.781320 0 0
-27.750875 132.011660 -38.767838 43 1
-17.290426 141.861770 -64.710930 42 1
14.251739 275.632230 -7.953114 20 1
74.786148 159.737760 54.586086 6 1
41.008701 235.944240 -23.420898 20 1
20.561275 210.348850 -71.352448 14 1
-23.356638 277.208220 20.544899 21 1
57.128021 137.543990 87.804665 7 1
98.261360 130.389570 53.686352 6 1
16.573549 112.947040 17.391922 0 0
-5.119105 253.939700 5.879929 22 1
23.710783 154.998200 -43.458641 11 1
18.604252 242.911710 74.077599 17 1
55.125614 87.806267 6.200468 16 1
45.540203 228.651860 96.597542 18 1
60.128948 262.996490 22.742327 19 1
-0.002307 271.977570 -7.995710 21 1
60.290234 273.648680 2.595782 19 1
13.941889 261.223140 2.468403 27 1
-41.898884 267.667940 23.044594 21 1
-4.388128 108.744510 -11.476287 40 1
11.447495 132.491850 -58.390984 11 1
28.194593 224.582020 -44.535046 14 1
30.643953 96.576897 -10.873620 29 1
24.965740 248.655060 -26.844395 20 1
83.646591 112.240060 -18.964485 8 1
54.403141 75.987892 -11.328124 16 1
8.778507 229.910080 -120.971470 2 1
31.547245 125.488850 25.273338 0 0
-5.715350 163.280840 -20.642187 0 0
14.296527 277.580810 -30.594002 20 1
72.908890 165.069700 -55.514587 45 1
-26.781099 234.212010 34.725346 21 1
62.630486 158.569520 61.067253 7 1
62.679462 211.730030 79.818802 18 1
-7.435381 279.592290 -24.427755 21 1
104.325920 111.126080 109.594830 5 1
10.756898 96.635254 -3.241516 38 1
3.216558 276.651340 2.314361 21 1
-23.580051 133.223110 -26.141249 43 1
-6.990883 69.672974 -5.445589 0 0
-28.474049 267.009060 -5.700517 22 1
3.993697 218.654540 -134.143890 2 1
-38.366089 220.441220 -75.990768 3 1
-79.887924 85.495720 -15.306541 1 1
-75.635605 77.999680 3.202480 12 1
37.442822 155.904890 -46.120869 11 1
51.388355 143.650960 64.885925 7 1
-53.581638 107.101580 -12.981622 41 1
93.107964 111.768350 120.451500 5 1
78.386284 204.973210 65.825272 18 1
8.039838 245.246370 50.210747 26 1
24.572392 192.696660 -86.307541 14 1
32.500565 224.793260 -122.064060 2 1
29.039331 246.942020 59.058460 24 1
100.907300 120.871150 33.573864 6 1
-42.124874 219.370450 -62.801582 3 1
-20.600649 257.174680 15.015252 21 1
59.376221 225.765210 58.745937 18 1
-2.035298 226.349010 -70.677185 3 1
-39.927479 283.396760 7.284719 21 1
-44.790440 115.824620 2.575890 41 1
82.597961 153.518690 59.384327 6 1
27.957575 212.559340 -139.627810 2 1
45.708122 125.341450 75.960548 7 1
107.492880 136.668850 78.970444 5 1
89.495262 141.226470 24.468594 6 1
-34.524914 268.264620 14.285494 21 1
49.592751 71.383530 -2.616678 16 1
4.894474 212.558230 95.858208 17 1
60.836529 178.120500 139.803940 9 1
41.171856 129.047440 -66.932137 13 1
-63.371632 68.389915 17.316601 12 1
52.687279 236.216350 16.047194 25 1
6.397406 97.792938 9.897389 36 1
38.159603 207.019010 -51.637604 14 1
63.936691 226.170000 77.579575 18 1
-24.179665 264.889950 32.299988 21 1
14.620234 220.274610 94.308342 17 1
50.196632 244.435500 58.219662 24 1
-23.565128 286.396880 2.450994 21 1
75.370178 149.886050 45.911808 6 1
53.223396 244.781390 47.386414 24 1
43.317032 229.343660 49.575840 24 1
37.835442 228.754120 85.215637 17 1
-16.973572 246.340960 27.560146 21 1
-12.471193 226.808180 -118.863080 2 1
2.920317 7.110549 1.213517 0 0
36.923336 88.950554 -18.587404 29 1
45.960869 229.691360 74.739273 18 1
24.398758 215.876310 132.410800 9 1
-0.512894 96.227974 -9.136195 0 0
63.852337 231.629500 47.099796 18 1
54.748035 217.329060 85.176437 18 1
-31.010658 250.682480 26.679142 21 1
-7.871550 204.808000 82.633812 17 1
2.036800 66.088440 -0.966379 0 0
79.196426 138.018690 100.194340 5 1
44.625633 136.858520 37.548805 0 0
27.988382 265.919590 59.588013 28 1
-1.791558 241.620740 53.390594 26 1
-6.305754 143.589890 -44.328487 0 0
-22.281544 215.863970 -89.894653 3 1
31.234400 190.993700 -75.485306 14 1
4.287588 232.002640 -86.930649 2 1
11.537294 208.926770 -147.802670 2 1
17.150391 83.422745 1.650064 0 0
50.423409 59.416840 -18.571054 16 1
-70.565796 115.527190 29.464785 23 1
24.214573 227.527420 122.779060 9 1
37.557808 255.087690 -23.861992 20 1
34.394550 236.621860 -12.148088 20 1
24.471758 264.381410 3.920689 20 1
88.816750 125.250870 110.240170 5 1
40.574883 180.201490 -66.945763 14 1
10.439028 225.887480 61.428131 26 1
8.983121 268.577940 -44.030025 20 1
37.694874 233.843930 28.520836 24 1
20.480265 133.024090 -67.400696 13 1
-16.315409 226.834730 -136.020520 2 1
90.565651 133.638930 44.320156 6 1
89.312141 119.741300 -30.048317 8 1
121.509450 142.518020 -69.400505 45 1
74.169983 146.133090 -29.071842 8 1
52.866619 142.083210 -31.725725 0 0
47.507610 189.116120 143.432010 9 1
20.648981 242.851910 63.667439 28 1
-23.078693 141.444320 -47.892006 43 1
20.249229 258.246640 23.760942 27 1
85.675278 159.404890 -40.645187 45 1
-25.752773 227.199490 -53.700306 3 1
25.822361 94.035706 6.939213 37 1
1.688359 206.650730 -151.602140 2 1
-28.931280 136.532060 -72.846954 42 1
48.357346 217.755570 127.471630 9 1
59.260590 230.683840 69.261513 18 1
61.950436 216.990340 70.408669 18 1
61.278675 146.576900 77.618591 7 1
58.809883 82.592056 -1.931964 16 1
11.040564 264.578090 15.552417 27 1
-7.941644 170.454410 -0.345767 0 0
97.111450 153.198390 -57.886089 45 1
105.851970 119.145420 46.293892 6 1
1.114617 217.785290 75.402306 26 1
36.744415 237.996570 40.919155 24 1
60.239861 143.757460 48.524990 0 0
64.786819 252.327290 25.135706 19 1
31.192696 200.474200 -69.306389 14 1
83.248558 143.318130 -43.557819 8 1
9.437786 223.428850 -69.741089 14 1
35.833652 233.919130 108.584190 9 1
32.963787 241.758180 23.268723 24 1
15.865629 245.990750 43.635162 27 1
-1.408415 230.044110 59.538902 26 1
20.664732 255.183730 -33.465538 20 1
5.262985 280.563900 -9.823893 21 1
104.081640 150.720860 -65.713425 45 1
56.409248 218.345540 97.304199 18 1
-37.130283 102.205210 30.310541 44 1
40.967693 220.490570 -21.123251 20 1
28.356987 279.813420 46.201256 19 1
-2.620964 270.028990 8.977586 21 1
28.229498 253.864030 14.145998 25 1
7.348703 132.369600 0.607400 35 1
-16.019863 265.377530 -19.468224 22 1
96.558434 132.713750 36.097355 6 1
1.115512 24.542454 3.110832 0 0
-13.596595 274.081730 -7.233519 22 1
1.774903 244.320600 66.172874 28 1
33.693367 269.969360 -17.252827 20 1
-12.906540 229.178100 -58.351765 3 1
68.796562 153.818410 -34.034283 8 1
-0.294152 256.683140 15.188462 27 1
62.829506 50.460228 -8.340793 16 1
-2.758001 254.510940 49.784435 28 1
-3.323253 247.174160 40.656284 26 1
-56.013489 93.280106 -5.342899 34 1
88.497833 163.498210 -66.053581 45 1
72.226059 136.170320 111.100110 5 1
41.904747 134.621020 77.122398 7 1
56.881485 127.815590 80.655350 7 1
31.122496 142.644040 -59.732491 13 1
-6.669849 265.829350 -13.704611 0 0
20.170708 272.918760 -0.186301 20 1
-40.801723 223.806580 -47.105755 3 1
-2.987602 197.262370 88.557426 17 1
-6.403852 234.646060 4.266172 0 0
1.483556 121.808240 -21.615368 39 1
11.500028 249.948000 24.134527 27 1
85.025421 62.434792 -0.081469 10 1
79.888123 131.754930 -24.921301 8 1
-46.950855 207.697160 -82.797798 3 1
-19.300398 262.572660 -0.015050 22 1
79.169228 151.900120 71.411522 7 1
81.879150 147.947880 38.333225 6 1
-51.226433 203.396840 -73.319054 3 1
56.593670 154.743100 -47.827515 13 1
81.936707 186.844160 69.628189 18 1
15.604322 223.851100 -58.663078 14 1
-12.454392 88.312325 -11.758160 0 0
67.140877 224.699810 109.330530 9 1
90.511314 146.885600 57.872868 6 1
35.205414 251.613240 68.329536 24 1
2.301299 269.525270 37.931900 28 1
10.834058 65.218613 -5.963735 0 0
68.794678 66.658211 -1.952433 16 1
-3.930837 139.794240 3.531076 0 0
13.288827 240.453720 33.999386 26 1
13.503345 228.808440 -104.215550 2 1
62.511429 77.368103 23.191397 15 1
48.499741 274.878450 19.983093 19 1
64.332214 193.794830 135.439900 9 1
52.800388 264.260130 35.830181 19 1
90.382202 138.085690 90.166496 5 1
22.487146 257.675450 -13.010484 20 1
33.577389 234.887410 -29.754124 20 1
0.261853 223.801570 88.030830 17 1
38.097858 277.577030 28.972176 19 1
23.043943 287.346190 24.750940 19 1
58.769455 202.280910 134.274670 9 1
-18.337296 219.140560 -79.814880 3 1
-34.420300 215.943630 -92.060028 3 1
55.603256 231.204590 78.551620 18 1
-75.431740 89.745331 -3.578983 1 1
10.987550 111.043140 -14.231008 0 0
27.373207 245.565660 -35.897015 20 1
45.959976 266.282470 15.712131 19 1
-41.310635 82.031776 -14.318787 34 1
74.353935 148.583110 57.654739 6 1
12.154959 96.873497 -16.400154 0 0
-10.622658 258.241880 -1.404443 0 0
46.022057 121.196520 86.127113 7 1
-32.260849 279.447240 17.301346 21 1
2.731815 284.811490 -18.577915 21 1
21.790501 266.768400 35.483841 27 1
52.773170 75.346298 24.770744 15 1
-25.775944 243.016690 29.969414 21 1
15.319139 136.766160 -15.641060 35 1
-9.903870 230.240140 66.454735 17 1
40.528881 191.173750 -57.610443 14 1
-20.837904 249.559420 39.219715 21 1
27.949667 246.541920 49.380547 24 1
-8.851422 281.365940 11.310120 21 1
21.093731 255.333770 54.647480 27 1
-32.759884 267.156250 -19.350395 22 1
46.192387 78.945763 2.268685 16 1
111.173020 120.502110 91.376129 5 1
-65.566177 108.111340 32.895500 23 1
2.720963 246.753070 30.024879 26 1
9.497918 227.027570 104.438210 17 1
47.238800 224.138400 85.317894 18 1
-4.904884 151.359940 4.708795 0 0
94.754059 159.240140 -76.620178 45 1
-48.561848 126.134140 17.193958 23 1
27.338903 240.730260 78.610794 17 1
29.348150 85.997337 -26.844879 29 1
-0.135425 133.335540 -36.011230 0 0
1.998636 279.744720 23.118629 27 1
-24.258062 222.859760 -63.003529 3 1
-57.044289 116.282500 3.480338 41 1
9.646736 215.282100 -49.618641 0 0
45.523090 157.085010 -41.246780 11 1
57.451885 67.880905 1.401469 16 1
66.615013 150.601790 65.632912 7 1
8.644464 274.408200 29.678518 27 1
24.951277 280.335570 -3.730581 20 1
40.574669 163.040310 -34.751205 11 1
-86.840897 75.902466 -0.003750 1 1
-12.476633 149.606020 -61.470592 42 1
0.763366 206.827800 102.092720 17 1
-32.209869 119.984700 -76.613503 42 1
40.046070 219.469640 122.494310 9 1
53.274521 228.066150 113.351260 9 1
64.175995 248.252040 33.729351 19 1
2.481636 112.366740 4.321975 0 0
114.297420 147.380020 -55.094463 45 1
-68.864342 63.790707 11.044624 12 1
56.556980 252.907940 14.042975 19 1
20.532139 278.197810 -18.999269 20 1
8.022391 120.732030 -14.752497 39 1
61.731937 74.502151 14.138081 15 1
-3.441063 141.182130 -52.917698 11 1
7.481592 132.298660 -66.853378 11 1
98.837875 123.067560 60.254955 6 1
-8.730471 209.213180 -2.414683 0 0
47.553238 232.111070 23.169222 24 1
0.777036 233.295840 -101.052540 2 1
78.434898 125.252180 115.356040 5 1
22.525576 120.604580 -16.722219 39 1
79.609406 142.894610 74.073372 6 1
77.499359 71.164658 19.434814 10 1
-1.988876 251.120760 22.795313 27 1
36.181061 275.246280 40.997253 19 1
-38.051083 214.510360 -83.346199 3 1
34.855526 182.454480 -75.042374 14 1
48.706608 83.457970 11.298120 16 1
1.604725 227.232680 -136.864820 2 1
6.599757 135.559510 -12.226303 35 1
36.769722 288.678920 10.400666 19 1
64.977257 205.987060 86.957527 18 1
30.603283 236.981520 92.482582 17 1
38.933025 148.342470 -51.793091 13 1
-44.491013 116.302800 21.211802 44 1
43.433273 141.889690 69.210388 7 1
77.617783 131.802140 -15.986025 8 1
24.592201 286.349950 40.899460 19 1
87.007515 128.230160 -32.738331 8 1
13.670104 72.915047 -1.642418 0 0
75.989670 193.266740 86.001801 18 1
54.912701 216.185130 120.896970 9 1
31.417168 82.981834 3.754698 30 1
54.295013 124.899020 90.498520 7 1
10.857633 221.474900 -125.675060 2 1
43.391880 112.430560 92.277748 7 1
54.811611 67.448723 28.897532 15 1
2.008068 267.360840 -0.383410 21 1
-2.130397 215.367630 90.761765 17 1
-22.144165 121.386220 -91.890144 42 1
-66.532120 91.724937 -4.504944 34 1
-51.052708 203.989670 -57.058651 3 1
67.314476 79.856262 0.971560 10 1
69.161018 155.639560 -44.731911 13 1
26.065968 247.704420 -17.807510 20 1
19.944983 238.709520 48.385014 26 1
-6.761053 236.987150 -111.419870 2 1
-6.053274 139.317930 -5.588425 0 0
35.593098 201.768280 139.246540 9 1
13.875595 216.228930 -73.441254 14 1
-30.156149 107.679530 28.345848 44 1
39.539410 129.535170 69.182373 7 1
36.051476 224.022930 66.307869 24 1
27.798983 229.598880 57.231571 24 1
65.557770 239.374150 35.538525 19 1
12.580964 291.396360 3.213468 20 1
69.151527 127.179070 -5.067308 8 1
-46.385418 112.558630 -12.958257 41 1
48.061962 243.387420 40.056114 24 1
58.436203 141.617970 70.491737 7 1
73.687790 219.050930 57.721775 18 1
12.136149 266.631040 48.620022 28 1
9.952845 274.810640 -23.176432 20 1
-33.454842 115.859260 18.611570 44 1
12.812530 241.982040 59.265606 26 1
40.608406 235.883990 89.935173 18 1
-39.109962 215.099550 -55.496819 3 1
40.070374 257.697780 10.324120 25 1
30.691807 119.584400 -21.490679 0 0
-41.711300 264.759950 -11.444741 22 1
85.455246 141.502200 43.416138 6 1
-9.337185 220.911270 -80.148018 3 1
55.880722 185.706710 140.952940 9 1
-23.041590 138.737400 -33.166573 43 1
72.843285 206.973080 125.233430 9 1
32.085922 271.898220 -5.074349 20 1
75.146286 212.752110 69.675385 18 1
-15.813526 281.891020 -1.004355 21 1
23.258982 219.407390 -131.551100 2 1
-7.761043 273.838650 29.857874 21 1
-0.171589 87.104736 -8.404748 0 0
-14.481406 231.077380 -66.911079 3 1
-3.902807 146.049730 -11.584292 0 0
-11.974115 141.837590 -75.696487 42 1
39.983669 126.829670 82.805435 7 1
-22.140276 133.093700 -82.535629 42 1
77.809212 79.370232 -1.785775 10 1
49.407459 96.813263 -4.311891 4 1
15.379820 203.407590 44.031948 0 0
-43.323059 273.474490 -6.335405 22 1
52.174305 231.329250 59.411827 18 1
27.035444 245.716750 31.353401 24 1
4.646353 36.125591 -1.644459 0 0
62.454685 95.629623 4.576492 4 1
-7.789342 281.052400 -5.194841 21 1
70.255295 72.116730 14.151452 15 1
17.173758 211.972640 53.538857 0 0
-7.064278 259.660920 42.455990 28 1
0.423815 103.393920 5.553724 0 0
41.792229 132.170850 -27.631659 0 0
18.207176 91.345932 -2.057192 38 1
-37.120987 250.826400 33.906471 21 1
55.954098 270.047390 18.569468 19 1
-55.240303 119.364620 21.882912 23 1
33.011719 212.430040 -56.289833 14 1
52.231133 235.075150 103.770100 9 1
22.077909 234.307590 92.289330 17 1
95.662170 137.122700 59.196537 6 1
39.969952 137.555730 -65.219292 13 1
49.370602 201.206160 59.687370 24 1
-87.119576 76.662544 -8.721702 1 1
43.471668 216.593410 63.494980 24 1
62.809113 47.683208 23.698835 15 1
66.550255 133.581890 87.402092 7 1
70.754791 201.028170 82.486267 18 1
17.691963 205.037610 -78.836067 14 1
68.512123 84.254120 14.069027 10 1
16.185019 229.259450 -125.825260 2 1
-7.305306 220.924100 75.754097 17 1
-12.574643 246.602950 3.129763 0 0
1.198918 51.561832 -0.113325 0 0
14.184497 272.551360 -37.974731 20 1
28.510441 293.896940 8.950780 19 1
75.276421 197.643650 69.925575 18 1
-23.888186 126.447310 -44.537033 43 1
53.558773 265.206940 10.456816 19 1
31.010378 134.810500 -18.220634 33 1
1.091656 115.225330 -15.967028 39 1
42.304943 238.525330 -15.235156 20 1
43.797791 222.574280 55.245701 24 1
12.680119 254.518510 61.026867 28 1
-32.693909 274.808930 -5.165228 22 1
87.874146 132.086300 104.425650 5 1
-13.303851 259.827060 10.842119 21 1
68.230942 145.031370 -20.016668 8 1
35.333084 264.670590 27.153999 25 1
-79.146713 92.939774 -19.663773 1 1
91.542694 160.050660 -57.829712 45 1
91.997650 117.194800 113.552370 5 1
-57.582726 84.084152 -17.509293 34 1
24.744190 142.778660 -53.387939 11 1
-30.251373 117.081910 -35.601437 43 1
13.883286 96.547897 14.027381 36 1
-21.954296 234.413440 -50.842911 3 1
49.016071 146.177760 -55.567036 13 1
81.229378 118.475980 -13.137959 8 1
83.361145 158.309560 -49.224113 45 1
-6.654208 214.516340 -143.107270 2 1
22.380238 214.019970 -63.794502 14 1
10.338925 281.118930 4.074101 27 1
36.195396 245.713130 5.558793 25 1
54.251343 53.719833 35.280491 15 1
63.792278 66.734200 -9.211982 16 1
-32.578072 263.675750 31.016956 21 1
77.955612 149.293560 87.670433 5 1
31.228422 255.117160 60.474297 24 1
25.279112 227.064770 99.577141 17 1
94.126724 152.135070 -42.254555 45 1
94.715851 140.483230 40.587273 6 1
4.916306 230.909760 -68.598289 14 1
27.449041 263.644010 51.122326 27 1
90.639084 149.982350 49.893005 6 1
95.203041 142.725300 83.660339 5 1
126.544620 131.648560 -72.758270 45 1
97.675209 126.668460 101.494100 5 1
15.305817 232.938800 -54.737576 14 1
102.529730 117.059440 101.524120 5 1
122.684360 139.766190 -58.996651 45 1
-38.859615 214.417650 -69.734726 3 1
30.292816 267.132840 35.005959 25 1
40.781174 255.722410 62.716644 24 1
69.362732 73.311218 26.218143 15 1
-60.818645 90.170395 1.993247 12 1
-17.347111 253.117630 21.747362 21 1
-11.706241 224.856290 -2.812211 0 0
-3.707094 273.160280 -17.337751 0 0
46.310337 76.281593 -8.734610 16 1
22.607706 228.043350 -107.831470 2 1
87.373573 147.840470 68.943192 6 1
24.752363 259.120850 -4.501555 20 1
-15.724952 144.039540 -34.382786 43 1
-43.340160 122.638530 8.961412 41 1
54.740685 133.912690 73.643555 7 1
54.376427 250.651690 54.272491 24 1
25.179976 224.596130 -117.567450 2 1
49.069893 261.261750 52.324894 19 1
1.399071 189.832700 -38.612503 0 0
-14.703952 267.811490 -27.518606 21 1
-3.630568 164.427140 6.254552 0 0
27.813391 64.252762 -0.987915 0 0
20.883001 290.298980 13.892840 19 1
3.278099 226.725860 -107.716470 2 1
-12.423797 246.786540 40.508728 26 1
35.298058 232.564480 51.391380 24 1
8.967815 279.633480 14.479259 27 1
12.043287 214.664110 100.030010 17 1
65.331863 219.824840 58.174644 18 1
99.887459 131.141950 93.985680 5 1
27.563744 258.280640 27.922153 25 1
29.837357 253.016750 43.638531 24 1
-65.914421 85.175285 -17.581713 34 1
-25.703606 242.258710 38.420444 21 1
38.414490 226.060990 74.391144 24 1
49.856457 244.018970 14.890054 25 1
-22.387520 146.165470 -59.642593 42 1
36.469082 89.070175 -1.072885 30 1
42.025192 270.440160 44.557293 19 1
20.477415 280.759310 -10.773828 20 1
74.743134 159.704350 46.235157 6 1
8.022730 220.828000 71.442673 26 1
3.803447 209.334870 -49.256386 0 0
54.533913 77.975403 16.898516 15 1
4.543130 198.772990 -45.628784 0 0
-3.119584 175.993820 3.554835 0 0
57.528023 223.040480 66.498886 18 1
-57.622036 108.029430 -5.748106 41 1
-9.805654 239.852580 -7.219316 0 0
12.247568 236.608930 81.349693 17 1
-16.097170 265.488310 34.078335 21 1
32.227406 213.603470 130.890910 9 1
-7.578915 149.325730 -50.669384 11 1
87.349319 137.817920 98.108986 5 1
-4.149749 188.460940 84.962708 17 1
38.881821 208.505160 -43.524414 14 1
-7.422266 268.754820 -5.806204 21 1
59.249447 57.317081 -11.290844 16 1
-30.186176 229.611800 -60.260296 3 1
-5.534743 205.210160 6.806077 0 0
42.240505 91.176529 -10.532830 29 1
-31.284353 285.076450 7.428940 21 1
-62.427876 81.305267 5.653157 12 1
46.451283 287.666840 0.142639 19 1
60.728065 252.132510 40.139530 19 1
34.383991 244.403320 -9.413158 20 1
3.468211 58.485222 -7.667483 0 0
4.717573 196.849320 33.772419 0 0
-2.072053 100.447230 -1.865649 0 0
-4.518467 243.428760 60.950504 28 1
-39.239891 224.926450 -68.700783 3 1
-14.151294 141.988620 -46.229916 43 1
27.588125 136.985840 -64.653343 13 1
92.021965 134.599590 28.895390 6 1
49.076981 140.863020 -61.834484 13 1
-10.576921 102.008270 -16.468994 0 0
55.995831 151.255100 -55.238205 13 1
54.606392 68.224815 -13.974831 16 1
88.201309 106.592110 -23.031038 8 1
111.583190 149.485870 -62.637230 45 1
22.480124 224.742580 77.334930 26 1
32.649387 96.133568 -2.882786 30 1
88.265114 145.837390 31.328821 6 1
-16.879499 105.099520 -11.124897 0 0
37.642223 228.536070 -22.561468 20 1
83.171494 59.955738 11.891838 10 1
0.960737 237.046300 -93.791321 2 1
34.176086 285.404170 18.338091 19 1
75.914108 119.411450 -4.980934 8 1
-32.331505 226.808690 -48.305752 3 1
-19.870956 133.300830 -46.584522 43 1
51.102943 228.097870 68.612617 18 1
63.263390 245.072720 21.751884 19 1
-11.510979 187.271610 2.599063 0 0
53.584637 156.438660 -40.258343 13 1
10.134753 229.537540 94.716736 17 1
36.619740 242.457530 54.239922 24 1
21.020958 270.825290 -33.917953 20 1
-61.333065 122.378720 26.390789 23 1
60.564140 244.599230 50.860352 24 1
4.794487 110.103930 -8.906998 40 1
16.259193 223.303330 -132.844770 2 1
45.955292 230.770690 15.328417 25 1
22.503281 146.922870 -4.688569 32 1
-34.893433 137.385420 -67.419235 42 1
20.577044 258.855900 36.752480 27 1
16.794239 233.773320 -94.373512 2 1
50.154842 236.215730 29.726822 24 1
58.827129 151.439590 60.551350 7 1
-6.890069 232.698960 -118.283030 2 1
103.441710 123.562310 52.632645 6 1
44.633804 272.656130 29.941265 19 1
21.287334 266.185790 21.500647 25 1
-2.944622 143.126650 -63.327438 11 1
-52.628654 116.297360 28.981491 23 1
-3.241343 177.350340 -31.519760 0 0
58.178555 239.590180 41.521015 24 1
26.303429 82.712425 -6.293239 0 0
20.528715 260.297940 15.912291 25 1
22.498913 249.745510 67.433334 28 1
60.031422 227.155060 85.098915 18 1
24.859964 284.560030 32.081635 19 1
41.313183 236.995540 81.055374 18 1
28.789783 241.294490 -29.157434 20 1
63.315029 60.717670 20.737074 15 1
21.591415 224.039780 93.073471 17 1
46.471947 281.122710 11.443142 19 1
-22.654644 140.999970 -70.601303 42 1
-15.195976 278.708220 17.673454 21 1
16.580479 141.008500 -52.998470 11 1
68.288818 212.919750 89.219940 18 1
15.261398 120.549520 -20.417622 39 1
62.934307 142.281650 84.171249 7 1
-32.177010 124.647850 14.337220 44 1
9.138287 217.288960 -140.448810 2 1
4.837121 242.930310 57.668095 26 1
20.573153 262.427670 58.499477 28 1
15.282038 133.952120 -23.302980 33 1
19.478235 268.536800 44.827950 27 1
12.408576 283.599430 -7.939163 20 1
-33.639809 219.426120 -59.635845 3 1
69.803818 90.130814 -1.461607 4 1
50.918518 137.767200 82.025528 7 1
12.686569 221.527820 79.457420 26 1
37.713379 232.204930 -36.035381 20 1
78.407814 167.021770 -61.072285 45 1
-37.027824 73.929276 -4.041300 0 0
65.489868 228.830410 54.554550 18 1
3.617568 233.527800 80.586945 17 1
85.845139 152.538220 76.135307 5 1
98.949631 151.016590 -35.547729 45 1
79.025330 62.263870 18.351265 10 1
26.644863 226.216170 84.644905 17 1
7.906264 220.752060 -55.385651 0 0
8.527985 257.183900 10.904086 27 1
-5.614238 63.378994 -0.748585 0 0
43.806889 224.975890 68.413300 18 1
-3.736471 253.864060 -2.412081 0 0
98.616295 113.004810 114.803130 5 1
86.078751 137.530120 64.765137 6 1
0.301473 174.360470 13.408463 0 0
18.954254 222.156570 65.001068 26 1
9.492269 248.563800 16.219574 27 1
44.053188 240.438400 66.425186 18 1
39.979496 169.419070 -68.439743 14 1
76.029282 205.742570 77.495491 18 1
65.320183 260.531650 10.426369 19 1
69.441002 218.201750 113.323360 9 1
-0.340222 73.703659 -2.635702 0 0
-0.579399 284.077700 4.899972 21 1
19.934725 91.532776 12.627160 37 1
-29.584433 218.355320 -75.919838 3 1
82.599083 106.799330 -13.334992 8 1
29.307688 268.450350 9.657294 20 1
5.162647 184.068710 23.698082 0 0
-2.344912 195.327990 96.166321 17 1
56.186371 230.943480 49.068089 18 1
-26.890610 239.422240 22.747578 21 1
38.611645 237.271510 12.986740 25 1
86.595589 137.239120 50.585171 6 1
2.212176 225.288880 -77.311760 14 1
-32.536217 224.996230 -72.790443 3 1
-4.953305 260.661010 10.275609 21 1
-50.289848 206.350270 -65.842415 3 1
43.207260 235.546020 44.639580 24 1
61.181244 152.128880 -34.895729 13 1
-21.238710 275.005460 -9.755845 22 1
44.637783 179.274700 -59.587975 14 1
105.189540 155.705780 -84.618645 45 1
16.248302 264.617740 -24.306276 20 1
70.572342 153.333180 71.826523 7 1
-49.263882 72.302116 -19.997335 34 1
2.846204 144.848910 -56.968533 11 1
47.718319 196.426930 140.631360 9 1
-49.624699 266.021760 -15.558953 22 1
8.733452 122.325580 -26.817015 0 0
-89.230843 70.211266 -20.661009 1 1
80.652313 72.027596 5.585906 10 1
-10.032447 251.701140 24.121271 26 1
69.552841 155.670580 58.723110 7 1
44.189644 211.203860 70.009438 24 1
121.706730 137.730650 -76.121811 45 1
-7.202654 228.509220 73.577888 28 1
-83.919266 81.224976 -23.574232 1 1
56.522751 258.701350 39.874386 19 1
76.004700 144.188630 96.227287 5 1
93.382942 149.151120 75.974457 5 1
-11.012757 220.976150 -135.432010 2 1
-26.228914 230.379040 -68.283722 3 1
51.680882 204.244710 136.755570 9 1
26.535864 205.902980 -73.534180 14 1
0.909613 246.622100 47.474842 26 1
16.222528 260.602910 -37.990673 20 1
46.601746 268.741550 37.085178 19 1
82.620758 50.621155 11.032009 10 1
70.598145 140.039180 -14.361563 8 1
-25.149843 253.481460 21.782175 21 1
-56.110451 76.168495 -20.677322 34 1
-1.579665 229.242110 6.947639 0 0
34.543549 121.310750 81.004539 7 1
11.384942 247.780750 31.702192 27 1
-32.776791 269.272400 5.776786 22 1
-0.650105 140.165740 -40.351879 0 0
30.775192 89.106857 -12.899418 29 1
-4.670218 116.464020 -10.991532 39 1
40.060299 189.281370 -49.250439 14 1
-14.282207 248.499440 10.406569 0 0
63.104836 217.408540 93.131020 18 1
36.944756 244.114590 68.666626 24 1
-23.150223 129.564330 -33.097546 43 1
-8.234307 288.899170 -4.317422 21 1
-3.014751 222.076900 -133.506040 2 1
-24.239016 65.139915 -3.896125 0 0
-15.676729 270.663790 -13.792596 22 1
6.658046 276.256100 -30.283941 20 1
10.376297 192.325730 31.074730 0 0
35.691963 276.486970 20.394888 19 1
-0.703614 112.157520 -2.658282 0 0
-29.990948 124.620990 -38.198135 43 1
24.014307 109.033850 -18.757822 0 0
77.023346 138.852720 -28.520746 8 1
4.352482 230.245680 -114.441720 2 1
-26.305372 281.663850 13.015117 21 1
-37.104347 274.326510 22.024574 21 1
53.141956 87.792191 -1.248434 16 1
-8.394268 105.843700 -32.406773 31 1
33.437290 69.475441 -0.661058 0 0
26.988878 258.527340 20.139557 25 1
-57.674816 114.955320 34.585617 23 1
4.094584 197.021550 -154.733890 2 1
28.099514 274.403350 -19.993523 20 1
31.137888 224.287170 119.685080 9 1
43.982265 236.180570 102.966910 9 1
1.801733 258.555210 -0.057598 21 1
-15.281284 215.456770 -85.869972 3 1
4.858558 267.889310 10.928288 27 1
17.325277 197.518550 -80.060432 14 1
36.203690 230.723430 93.403214 17 1
33.840775 241.338640 34.723873 24 1
-7.915273 234.922790 -56.079700 3 1
73.423019 84.168030 2.386060 10 1
-3.480970 277.522580 7.452853 21 1
-11.251300 59.125923 -3.583476 0 0
-19.534773 222.897430 -68.968964 3 1
-54.201614 85.999443 -10.660709 34 1
81.992996 139.417310 58.462254 6 1
61.942585 147.474040 -59.490685 13 1
35.051636 267.198390 -10.299927 20 1
-4.681419 248.607510 54.213558 28 1
-4.194651 220.752930 4.598380 0 0
53.175392 220.405530 56.475815 18 1
7.280261 219.403960 103.575540 17 1
11.536328 222.792010 -77.015060 14 1
108.600240 147.962770 -48.803543 45 1
14.771221 225.544300 -119.341860 2 1
0.268386 249.142400 15.814788 27 1
30.086508 220.474670 -50.626713 14 1
113.190310 147.886310 -78.844383 45 1
23.598759 222.192860 -60.603245 14 1
77.901398 190.639220 75.511620 18 1
29.703209 248.131500 8.629838 25 1
-75.297989 102.293080 36.894024 23 1
60.931122 99.426163 -14.650460 4 1
-89.811478 71.108871 -13.162421 1 1
-3.734282 198.967250 2.919444 0 0
27.340363 136.166460 -55.991615 11 1
20.491764 249.876340 59.916367 28 1
44.005657 240.948930 55.631176 24 1
61.432503 62.321350 -1.877462 16 1
-37.555943 261.465700 23.390224 21 1
-11.556682 110.959370 -12.456041 40 1
-2.602953 209.445210 85.568710 17 1
47.741962 150.245090 63.449211 7 1
59.858837 211.725100 87.987381 18 1
80.012985 142.832840 -36.721672 8 1
23.832476 125.958890 -60.586357 13 1
-4.122777 274.620640 38.005848 21 1
34.716339 267.855410 41.273991 25 1
50.675800 223.228970 97.640236 18 1
14.921114 227.493180 -66.321388 14 1
45.680954 228.433990 115.716090 9 1
97.179573 151.263050 -50.341339 45 1
30.623388 152.775650 -45.474514 11 1
-36.119503 267.022090 -6.936588 22 1
10.436642 101.842190 -8.670770 0 0
-42.678638 75.121773 -17.051020 34 1
55.265488 240.660640 26.456371 25 1
40.199944 253.071300 -13.394205 20 1
3.762081 258.279330 50.692192 28 1
-4.839575 114.368000 5.157452 0 0
30.035717 246.569700 -42.852783 20 1
-25.509409 129.912780 -73.953842 42 1
55.802971 140.083860 -65.191132 13 1
-3.699950 208.283040 -146.314180 2 1
18.375174 262.755890 -17.077616 20 1
27.572472 266.389620 -31.505138 20 1
-17.801964 85.234299 -7.482341 0 0
88.432167 114.988750 -24.306709 8 1
11.581530 232.404500 -114.408100 2 1
38.782784 184.086990 -60.790665 14 1
57.124275 273.575320 9.387062 19 1
8.643519 94.417488 3.594386 38 1
8.336369 203.809590 41.522152 0 0
24.009581 220.914120 126.884920 9 1
34.259476 266.647280 53.417068 25 1
69.627014 90.387589 -9.023044 4 1
91.211296 131.309270 51.388519 6 1
43.125164 274.683870 14.654794 19 1
5.696010 269.587340 24.812071 27 1
31.509846 255.614030 -4.439324 20 1
16.963182 211.874130 -142.937470 2 1
-26.898550 114.835980 22.251669 44 1
77.571259 150.678420 64.239265 6 1
28.656986 247.210850 17.455379 25 1
3.994650 80.869347 -7.354694 0 0
15.472868 131.452350 -52.169273 11 1
56.521542 263.595210 29.427860 19 1
-37.189636 118.678720 10.359194 0 0
-48.604057 210.916580 -55.502872 3 1
13.710168 240.656310 51.919746 26 1
37.584740 97.293304 -8.327130 29 1
77.582466 200.492100 85.367943 18 1
26.673769 290.200320 18.851294 19 1
-23.430328 291.114750 -3.339648 21 1
30.895422 260.114040 45.500637 25 1
-7.671443 227.754140 -66.083511 3 1
-10.840748 253.376500 44.411427 21 1
84.632820 163.177340 -72.518272 45 1
-8.178590 144.743380 -0.299328 0 0
97.511101 132.390440 46.599960 6 1
41.400990 246.709240 -9.706287 20 1
115.536390 142.966480 -73.727798 45 1
-10.806986 230.685850 -112.331240 2 1
-22.760780 221.655360 -85.345276 3 1
1.726411 220.659520 -140.874540 2 1
27.967239 266.145050 18.365080 25 1
85.976906 153.347870 41.379311 6 1
1.324919 103.397930 -8.425990 40 1
39.755756 241.604200 26.145905 24 1
72.139511 219.327500 67.458084 18 1
11.623928 268.079860 32.666927 27 1
103.717060 127.978070 88.540352 5 1
7.759503 280.593750 -2.889529 27 1
22.536564 258.541500 -43.946484 20 1
5.226087 91.761490 -4.891456 0 0
15.414211 233.636440 88.425446 17 1
77.273788 74.122444 12.698187 10 1
-24.409311 270.865630 27.748312 21 1
-7.739810 227.555250 -135.631680 2 1
4.390409 237.354000 17.787386 27 1
-21.366882 259.203700 7.458735 22 1
71.164803 194.310200 132.818050 9 1
61.902550 204.972990 128.212620 9 1
12.186630 141.814590 -46.914337 11 1
26.031326 240.760890 25.501650 24 1
36.662754 281.257540 11.937960 19 1
-8.936682 240.856980 51.982601 26 1
14.868753 136.353150 -63.585442 13 1
-23.109892 266.021510 -10.582710 22 1
-29.067936 274.150480 1.152749 22 1
34.768330 126.204360 -64.837982 13 1
27.687836 220.828870 -125.881780 2 1
50.691929 123.805840 81.145844 7 1
15.087355 208.697070 -87.260902 14 1
-23.835197 97.551521 -2.376609 0 0
61.683128 87.946991 10.278996 16 1
-27.532719 260.733370 12.941834 22 1
-8.968009 178.401020 9.546425 0 0
-13.750121 232.986250 -123.071790 2 1
15.535718 143.796310 -8.560419 32 1
62.069435 65.749634 26.082331 15 1
27.281681 238.254970 86.117226 17 1
100.402320 138.141110 80.429100 5 1
53.445179 238.377410 60.742176 18 1
58.972382 232.326050 62.171001 18 1
6.656567 267.135680 43.850834 28 1
18.151434 267.051240 -40.767532 20 1
105.204780 118.741070 39.051025 6 1
-24.561853 138.314330 -41.488770 43 1
-0.008563 13.501611 3.167641 0 0
-11.183864 215.329250 72.845726 17 1
-4.782496 232.920260 -105.729550 2 1
9.497228 139.600570 -57.147068 11 1
34.630123 245.299590 -35.775978 20 1
36.262894 207.492290 134.772930 9 1
-48.110924 66.883369 -25.369213 34 1
-5.424057 224.606380 65.577286 26 1
26.466320 261.050840 64.740860 28 1
-45.531681 114.628880 -4.529428 41 1
-4.178608 135.317630 -30.075178 0 0
-51.519688 196.352720 -71.699547 3 1
47.077801 210.101880 134.017490 9 1
41.890728 87.460625 -23.621794 29 1
-10.053715 201.791560 76.440804 17 1
4.959385 144.532320 -45.047787 11 1
-7.174206 241.797700 3.625654 0 0
-25.892595 265.264160 -20.753311 22 1
65.783875 216.657710 119.951130 9 1
40.686993 233.947310 -9.829344 20 1
-68.419044 78.047501 3.018524 12 1
-1.209375 274.784760 14.216823 21 1
16.228529 251.737170 39.304630 27 1
80.570740 201.487180 59.912098 18 1
10.984852 218.383580 -132.434770 2 1
-5.051726 147.290570 -38.281956 0 0
-61.027138 79.272514 12.527892 12 1
48.080830 65.387619 27.132460 15 1
21.937717 225.741350 58.800686 26 1
-15.648255 134.900800 -85.354897 42 1
-7.475246 228.477140 -75.197304 3 1
-27.927708 220.384250 -90.518150 3 1
-29.865564 248.381060 37.257210 21 1
-24.067785 126.353560 -86.739738 42 1
9.470643 287.496150 -1.966684 20 1
-15.194244 225.550160 -78.891869 3 1
49.727268 213.449950 61.555214 24 1
-16.090958 111.289150 -25.167917 31 1
11.690500 244.242940 72.793755 28 1
31.927439 235.936980 102.916960 9 1
-14.930477 284.412410 5.631399 21 1
-5.361894 204.717180 -152.510180 2 1
52.076126 279.560820 6.423930 19 1
0.880503 201.696440 96.488647 17 1
-30.805599 266.205200 -12.548928 22 1
49.243958 68.065292 -8.927078 16 1
9.519725 117.654140 -8.140387 39 1
-21.689676 258.829620 36.337219 21 1
32.198399 177.172610 -79.040184 14 1
52.027317 147.976200 70.934853 7 1
55.922848 94.729225 -6.481587 4 1
92.713699 116.974140 -35.658161 8 1
-6.505443 209.954330 77.834335 17 1
-14.608857 213.917340 -146.557740 2 1
-29.385851 274.208860 -11.430073 22 1
35.083740 234.993210 -19.257240 20 1
-12.869426 246.114640 33.359825 26 1
-50.881863 119.677390 2.472365 41 1
9.727954 213.703340 -84.218521 14 1
19.889429 266.110320 28.669563 27 1
-41.229469 120.082570 -2.015468 41 1
109.283680 107.507340 41.295631 6 1
77.286095 160.627720 -52.081646 45 1
49.393276 250.854780 13.019358 25 1
43.004047 227.236330 90.119392 18 1
-0.706634 40.765476 -2.094444 0 0
12.852223 220.300540 87.401108 17 1
-45.554455 214.013280 -65.947899 3 1
-41.811516 221.498180 -54.058743 3 1
-7.936214 110.352730 -18.613430 0 0
49.677135 231.227650 91.447723 18 1
68.375977 146.208190 79.640961 7 1
22.742653 116.087620 18.911516 0 0
-11.401644 194.526290 0.935276 0 0
-67.028275 53.542858 12.514575 12 1
2.716233 0.380307 3.605744 0 0
104.675750 145.134610 -41.349091 45 1
57.819363 217.076220 78.785278 18 1
60.544846 244.949650 28.386984 19 1
9.660700 224.473950 -62.692848 14 1
17.124357 126.264310 -56.912590 11 1
20.776859 294.644230 27.481565 19 1
114.934990 144.869110 -48.380585 45 1
61.807240 186.066830 137.068530 9 1
-0.924463 282.919160 -7.372999 21 1
53.010876 85.061600 16.657864 15 1
33.287678 241.030790 74.839767 24 1
1.192695 58.631924 -0.526705 0 0
23.572821 261.488310 44.079708 27 1
23.936764 199.170810 -83.243217 14 1
-67.418747 69.539185 7.184929 12 1
-9.539602 261.254030 -7.987029 22 1
58.182465 130.483310 87.986313 7 1
90.666237 158.501560 -83.276031 45 1
16.426048 204.306370 -150.193830 2 1
56.518696 213.288710 127.232430 9 1
-48.166275 82.894768 -12.481840 34 1
0.176577 208.485430 -55.397396 0 0
42.505142 277.166660 23.317776 19 1
7.793399 224.028840 -137.739640 2 1
55.364380 257.621370 8.785554 19 1
33.791264 275.133180 34.404728 19 1
83.719345 64.528160 6.610239 10 1
20.536480 279.695430 2.036621 20 1
59.067177 224.883880 111.055140 9 1
30.331461 242.331910 -14.720547 20 1
67.470551 205.451100 93.577110 18 1
32.321365 258.734560 10.242369 25 1
70.213051 215.841710 83.091270 18 1
33.474998 261.744720 58.478611 24 1
-35.605961 275.038240 12.984385 21 1
-2.553636 276.863800 -3.273416 21 1
-2.379458 29.282139 -0.701274 0 0
40.722561 240.520070 6.906627 25 1
-23.729996 103.004820 27.083279 44 1
22.875038 221.811340 -51.174992 14 1
36.779011 259.560000 -7.820334 20 1
7.803188 216.306850 90.690338 17 1
17.786251 260.254000 -29.667938 20 1
16.531292 225.920960 -110.469660 2 1
44.093788 266.459930 49.925247 19 1
64.120132 145.613620 70.248383 7 1
1.449843 190.007720 98.611748 17 1
7.583913 231.332290 -101.586910 2 1
54.716614 223.336330 118.426320 9 1
-31.899599 107.719970 3.225498 0 0
-29.895781 283.812380 0.530939 21 1
40.236870 242.849270 -23.328434 20 1
28.646893 252.800290 32.156200 24 1
14.098380 130.270680 -67.341957 13 1
31.455078 205.765470 -58.513733 14 1
88.455017 144.326130 87.844505 5 1
6.290715 135.835370 -5.309034 35 1
-59.087284 87.069954 -3.952548 0 0
-3.863518 221.880920 81.777824 17 1
37.161007 139.314410 -59.108231 13 1
117.654210 146.446290 -64.148521 45 1
64.688164 68.643623 16.310795 15 1
65.354927 141.255630 -8.879187 8 1
40.879292 289.859280 4.690470 19 1
-18.813459 229.687810 -54.814831 3 1
30.916994 227.097200 70.638733 26 1
32.689003 229.206270 113.058200 9 1
105.938060 133.395310 84.886505 5 1
72.024902 130.404950 -12.027276 8 1
38.755669 159.038680 -40.121655 11 1
13.078504 61.842579 -0.379641 0 0
56.266281 142.065310 81.156586 7 1
-36.526356 227.140150 -62.606792 3 1
80.457405 125.125630 -15.542650 8 1
64.000397 260.984950 17.170576 19 1
43.678463 229.019040 81.201370 18 1
0.392319 236.395810 57.298061 26 1
24.732262 243.275540 54.951103 24 1
76.314804 213.327320 62.679695 18 1
74.178589 68.205185 25.996077 10 1
23.924795 150.532040 -48.972935 11 1
65.173561 151.730410 -40.473907 13 1
-15.727291 225.900340 -128.807210 2 1
61.223492 85.401756 3.910697 16 1
-29.414959 120.385480 -83.085793 42 1
11.796742 275.090550 -15.916374 20 1
40.195408 233.030060 -29.693020 20 1
5.136853 223.747100 -129.390270 2 1
0.845250 215.189390 83.668411 17 1
103.881100 152.617080 -58.771130 45 1
4.337166 98.937904 -4.187149 0 0
40.579113 228.487670 111.079170 9 1
100.119930 126.838200 36.836330 6 1
81.557549 149.039460 81.587715 5 1
6.002162 284.495790 8.146994 21 1
107.873460 119.389550 97.459351 5 1
15.195001 279.371280 -23.220419 20 1
23.381039 270.789180 6.045763 20 1
-8.006784 224.408690 -86.239998 3 1
72.664436 154.107210 51.344421 6 1
-75.790733 88.145485 -10.320233 1 1
37.910297 239.206010 -32.794132 20 1
27.469133 255.339140 -40.006092 20 1
54.162258 230.609620 86.335953 18 1
63.428120 267.510590 5.716128 19 1
-17.482828 226.299220 -63.069168 3 1
-48.209438 81.316383 -3.314571 0 0
93.324150 130.673840 58.826710 6 1
41.629166 93.641754 -20.100140 29 1
41.521046 125.674360 -29.887972 0 0
48.644245 207.950330 57.286839 24 1
42.235352 90.963753 2.320364 30 1
42.950233 140.836060 62.377075 7 1
60.592010 238.130260 47.708298 18 1
77.066032 137.916690 106.656310 5 1
30.121622 267.788970 0.540318 20 1
19.083826 264.723970 -0.396326 20 1
69.563614 216.779770 52.820938 18 1
75.195702 144.842300 78.851738 7 1
35.190643 196.184950 -64.891090 14 1
40.202507 242.709870 37.481911 24 1
64.413368 151.114690 -17.998892 8 1
4.936280 207.814180 -145.603410 2 1
34.995167 94.848457 -15.864596 29 1
26.248142 189.961550 -80.338898 14 1
33.034092 242.964000 62.815849 24 1
36.640087 261.357700 -21.467415 20 1
-17.341621 139.283720 -80.000061 42 1
52.628387 61.701805 -12.524557 16 1
46.107117 76.253746 22.788139 15 1
0.581684 237.104060 75.530510 28 1
88.068764 129.732210 -39.251434 8 1
-0.417315 23.419407 -3.452210 0 0
12.851435 269.968840 -26.900860 20 1
19.489075 222.272140 99.564186 17 1
10.364254 135.326310 -50.062607 11 1
-1.816798 165.033950 -25.862457 0 0
-86.174873 74.922401 -24.402426 1 1
68.075592 73.212555 -0.363242 16 1
73.112457 79.458733 12.929967 10 1
14.625278 278.165410 -1.648483 27 1
52.691792 138.434050 68.939728 7 1
5.650883 97.583649 -11.757289 0 0
-6.598822 232.024920 10.460232 0 0
30.543089 131.215330 -66.450119 13 1
48.429043 240.849780 50.153881 24 1
50.068924 228.785250 47.289471 24 1
71.951729 147.274670 51.398388 6 1
51.833344 128.107800 75.807693 7 1
7.237433 275.928310 21.178677 27 1
-39.866879 218.278240 -88.879120 3 1
35.188717 252.131090 -29.465685 20 1
-0.702103 148.432660 -51.861279 11 1
106.189740 113.303200 43.002689 6 1
44.934616 249.569350 60.462887 24 1
-7.985824 248.185390 7.812524 0 0
36.753876 200.427120 -52.548347 14 1
-91.132858 62.429028 -22.620777 1 1
-31.722572 110.147520 22.124516 44 1
41.621716 203.476320 -47.014595 14 1
23.576992 229.036120 -46.485123 14 1
59.707706 71.951462 -10.600529 16 1
-1.325724 125.104290 -2.447031 0 0
7.885580 98.460335 16.396999 36 1
17.056391 269.978360 -10.918548 20 1
-0.829274 158.702040 -20.488403 0 0
76.105270 131.262240 113.536520 5 1
91.131760 126.282540 103.679730 5 1
-83.211624 80.115891 -12.931146 1 1
33.782955 220.909360 -44.577950 14 1
-2.829271 106.883000 0.848202 0 0
51.827858 233.678040 73.629578 18 1
37.662025 217.804460 128.506060 9 1
24.903734 233.994350 52.735798 24 1
48.732353 75.303612 -14.877154 16 1
65.339714 212.042190 73.336197 18 1
66.199051 141.379580 75.583000 7 1
34.896500 118.877400 -26.621424 0 0
22.490562 85.634544 -1.670035 0 0
-3.251724 219.686890 70.612526 26 1
11.627630 113.853620 12.810326 0 0
-72.879562 60.617653 3.176785 12 1
4.639981 227.674220 91.225319 17 1
17.964891 251.063310 49.188854 27 1
61.587822 94.644012 -10.066582 4 1
64.354156 59.942253 -7.364708 16 1
44.112240 98.525230 -7.972445 4 1
91.258652 159.623630 -70.973824 45 1
-37.622025 281.421260 13.202280 21 1
16.750273 284.138640 5.648736 20 1
40.466534 264.664030 19.230021 25 1
49.983715 83.890701 4.588121 16 1
-62.574642 105.217320 38.561195 23 1
-18.356945 140.306380 -52.430714 43 1
39.858921 222.199010 60.598892 24 1
63.061039 131.457820 82.111252 7 1
63.192364 155.505080 -47.645084 13 1
-42.556786 215.431880 -78.553749 3 1
-9.578174 146.316130 -56.481541 43 1
81.258606 146.657760 44.817543 6 1
85.098640 124.483260 -27.601006 8 1
-14.137265 275.662810 23.640774 21 1
69.442696 77.047646 7.352990 10 1
80.233727 155.900280 53.559273 6 1
28.305792 215.722690 -61.349049 14 1
22.766853 223.990710 70.499336 26 1
-49.903088 109.756130 -8.084845 41 1
65.731438 82.061478 19.800240 15 1
52.906166 260.198790 46.739170 19 1
116.024270 140.835850 -55.376640 45 1
68.197273 223.029740 72.735275 18 1
1.401556 68.902267 -6.934538 0 0
49.471760 224.794300 78.894989 18 1
29.637833 270.318660 -25.007875 20 1
27.331856 120.697660 23.512159 0 0
67.495338 205.959760 79.506874 18 1
30.803644 260.571930 -31.348270 20 1
-12.840325 148.945400 -46.635696 43 1
12.860330 231.440950 57.355175 26 1
-30.611422 127.854440 -77.739944 42 1
118.779050 137.646100 -65.777428 45 1
25.757116 271.221220 32.498466 25 1
69.855515 59.336891 17.590960 15 1
5.877931 279.802280 -21.764513 20 1
4.191768 29.575228 -0.214826 0 0
40.221207 136.369280 70.854240 7 1
-24.820173 279.327060 2.850678 21 1
86.283989 153.250310 53.923489 6 1
21.203115 89.870880 4.721474 37 1
23.533470 250.734120 -37.394554 20 1
112.227330 143.763370 -67.256615 45 1
82.106216 162.633450 -64.296692 45 1
104.949160 114.294220 51.079994 6 1
61.022541 76.690826 7.969069 15 1
85.069946 138.229900 -39.597958 8 1
62.691658 219.279100 64.293991 18 1
17.336767 232.135120 -108.492770 2 1
-33.808270 257.525730 33.637299 21 1
-28.746536 266.969600 0.955987 22 1
-6.059089 203.135300 -1.588742 0 0
77.053558 156.977280 60.659607 6 1
51.919819 230.006070 18.268267 25 1
-3.253242 264.723970 40.215363 28 1
46.182274 139.614210 75.280067 7 1
-9.176741 216.391310 6.857887 0 0
-0.286740 233.524750 -110.468120 2 1
12.493196 132.898820 -11.098999 35 1
-3.191684 277.692170 26.555965 21 1
-16.291405 143.528930 -70.971092 42 1
-21.251371 132.218460 -39.808830 43 1
53.423607 216.827290 91.630508 18 1
7.130882 250.344250 61.920033 28 1
54.374550 81.305679 -6.974998 16 1
-25.529146 220.242070 -69.041870 3 1
46.080017 236.530300 72.351944 18 1
-34.704659 256.071990 26.538998 21 1
39.197002 251.373260 7.406717 25 1
123.363510 139.571500 -82.555458 45 1
27.626001 232.468950 96.303078 17 1
-65.849190 117.712140 25.512924 23 1
71.526474 200.542950 75.169312 18 1
62.477623 54.198196 23.895147 15 1
-10.665730 175.736310 2.345839 0 0
17.275688 208.692150 47.558121 0 0
72.434433 207.605040 66.730637 18 1
12.718236 222.795730 66.790421 26 1
5.118320 229.236690 59.708576 26 1
-0.906243 137.696670 -1.943542 0 0
63.794987 66.745132 2.321202 16 1
-9.017307 108.414510 -6.913108 40 1
-8.034428 253.236240 -7.275497 0 0
68.207489 149.122830 -29.159060 8 1
3.130093 212.972370 102.274670 17 1
36.000900 146.301380 -57.224106 13 1
-55.651077 82.537888 14.142550 12 1
15.727882 115.118020 -23.970049 0 0
-9.944327 252.390050 1.813742 0 0
-64.168221 127.485910 21.039677 23 1
-46.168797 120.192410 16.143929 44 1
0.696100 203.903810 -46.619972 0 0
102.240130 155.261840 -69.964119 45 1
31.286572 193.888280 -69.681786 14 1
67.874130 221.549590 80.013512 18 1
56.757252 146.921710 -33.614166 0 0
20.488335 258.267090 30.236519 27 1
-2.379548 4.431472 -1.378470 0 0
-1.834968 88.099525 -2.168972 0 0
12.350297 98.420128 7.209204 36 1
3.838062 98.660339 2.277412 38 1
7.534418 261.195160 1.547289 27 1
52.203300 69.105484 23.148502 15 1
35.484383 87.844238 -24.799908 29 1
27.120333 144.193600 -8.633374 32 1
30.114304 278.994080 30.394835 19 1
-46.170509 120.405240 31.434799 23 1
7.219680 242.947390 32.724407 26 1
6.597421 254.811680 56.445309 28 1
-72.826828 73.133507 6.386435 12 1
13.748130 245.947400 37.425724 27 1
-28.401497 223.035840 -58.056179 3 1
53.179569 227.790300 54.094612 18 1
10.059686 270.954710 -33.220272 20 1
60.392879 249.599380 46.066277 19 1
-45.321991 216.440020 -56.604729 3 1
59.137909 72.437347 25.623119 15 1
15.609771 263.242950 54.165558 28 1
97.640221 125.056680 49.999317 6 1
109.600220 143.988530 -59.174496 45 1
56.337967 161.642040 -37.643917 13 1
50.005013 73.571732 3.488209 16 1
21.265961 136.533810 -53.490864 11 1
-3.872345 157.723860 5.227216 0 0
7.015868 281.499450 -34.170147 20 1
95.019699 136.262210 67.932327 6 1
10.016611 232.016720 -90.638000 2 1
-2.315390 279.709410 18.195736 21 1
19.270594 135.612430 -10.709868 32 1
14.504584 116.247420 -15.583376 39 1
31.423592 288.550630 6.842686 19 1
29.074678 235.549060 108.651860 9 1
21.522610 126.725360 -66.787643 13 1
14.402513 233.878770 -100.323170 2 1
-29.337622 129.959750 -44.632858 43 1
-9.079013 167.763530 5.403322 0 0
4.132728 85.767677 -2.900424 0 0
27.725384 260.909360 14.145006 25 1
61.704731 250.109660 17.327761 19 1
-7.274986 149.522000 -4.473537 0 0
-2.288532 106.857030 -30.260822 31 1
5.246190 52.930450 -4.932210 0 0
-38.123184 265.943050 27.937796 21 1
73.802635 212.372630 77.558807 18 1
109.537640 153.096530 -79.585564 45 1
16.672001 245.558900 68.578186 28 1
-1.935334 227.470320 -62.791431 3 1
94.930756 133.608380 90.638191 5 1
50.613983 156.060640 -45.912231 13 1
-71.535606 108.995140 30.787773 23 1
36.362625 240.698960 17.944019 25 1
57.722519 263.462860 5.923472 19 1
61.228661 258.347750 26.967628 19 1
13.561874 214.970780 106.219420 17 1
-10.492681 268.513490 -18.129723 21 1
55.650665 243.459880 55.072788 18 1
31.615667 240.943890 43.724297 24 1
63.657101 151.850630 71.450424 7 1
-62.050007 72.991936 12.921939 12 1
-61.974663 62.807602 20.030052 12 1
43.683052 224.942640 121.000600 9 1
-11.279650 219.500690 -143.430830 2 1
57.101936 146.179980 66.070801 7 1
103.753440 151.672390 -52.076500 45 1
37.236034 184.970890 -69.636230 14 1
23.924576 253.685330 -18.053749 20 1
16.555546 251.835530 65.292633 28 1
-0.721037 10.385991 -2.857001 0 0
7.209466 203.416520 -149.631240 2 1
88.438255 156.920010 -52.799679 45 1
21.400099 210.149490 -77.645432 14 1
68.264679 211.215530 124.062100 9 1
74.654160 150.541640 75.810692 7 1
12.103182 265.425540 -39.490089 20 1
83.564964 152.209880 66.359169 6 1
2.117460 228.959240 84.834610 17 1
71.289864 147.216640 99.203949 5 1
-10.950469 262.520140 38.207508 21 1
65.856705 227.183650 60.664898 18 1
-6.450838 238.524520 64.854843 28 1
-17.537668 143.763430 -41.181507 43 1
47.554619 217.590500 57.238461 24 1
-1.083663 210.804960 96.986229 17 1
46.011158 240.372300 11.428096 25 1
60.743790 223.090900 91.286644 18 1
31.793907 227.783770 62.471340 24 1
72.204643 212.904500 57.537994 18 1
-58.700771 112.013920 -0.880029 41 1
-5.889645 226.836580 -120.426740 2 1
54.632210 60.995937 28.509113 15 1
-39.960026 213.496780 -61.947800 3 1
22.880205 215.316270 -136.350460 2 1
