32.326679 202.005290 22.832554 49 1
28.395832 154.127380 -120.065510 19 1
43.610641 339.047390 -62.086185 12 1
86.521004 124.762750 20.759624 27 1
153.344560 176.956420 -11.898356 21 1
102.309010 227.404330 32.729961 36 1
20.526398 157.298030 -62.556221 18 1
43.472214 216.963120 66.184952 52 1
-68.280632 199.094380 137.424560 11 1
46.117901 191.766100 -1.535756 0 0
-42.188618 79.404030 10.208802 0 0
6.500520 40.672077 2.941341 0 0
-57.412022 135.005890 -65.559792 4 1
97.365257 224.989670 47.652653 36 1
-127.264360 327.176480 90.453423 56 1
137.856220 130.263670 -36.648380 22 1
3.357770 216.319310 65.027473 53 1
75.383141 253.079940 46.618629 35 1
5.638896 81.809517 0.165064 0 0
-29.350042 137.315700 -4.321422 0 0
127.049810 131.491520 -31.642397 24 1
-38.102280 305.875580 118.699600 41 1
57.700375 212.093920 5.687464 0 0
33.475693 239.990800 10.198376 0 0
-0.006863 316.658020 17.758101 40 1
-104.573380 311.984770 86.775894 2 1
-168.530210 153.433380 79.254959 54 1
-103.759900 345.453580 63.386177 2 1
-155.040020 139.018200 45.755028 8 1
-19.871414 104.772100 82.063103 30 1
34.623566 241.281200 78.699791 50 1
116.477840 202.981370 -39.200584 20 1
-11.498636 3.062486 1.307647 0 0
22.886744 211.259030 58.607243 52 1
8.207304 230.974930 38.435242 53 1
35.468342 335.927400 -30.165224 1 1
53.215061 326.192320 -40.992542 1 1
-88.129997 316.530030 114.606830 57 1
-75.769447 306.826780 124.662930 57 1
-19.262108 240.764340 15.761701 0 0
45.643417 161.102650 0.714384 0 0
12.088743 223.330550 42.129269 53 1
89.985176 225.720030 55.000431 36 1
-2.606715 160.176060 27.016876 47 1
6.620049 251.659090 78.186058 51 1
84.762779 226.666110 -69.311638 16 1
-7.741198 314.066250 31.803213 40 1
61.657120 242.540160 -83.317459 14 1
-0.960550 131.626130 32.065865 0 0
116.468800 207.168090 -25.052933 20 1
11.850308 53.357269 4.246965 0 0
124.817830 121.643650 -20.063097 24 1
-48.281647 143.114180 -26.585917 5 1
86.110237 271.005950 15.179558 13 1
92.394798 226.527570 40.919685 36 1
-18.713638 110.812780 -6.868693 0 0
34.441883 163.942140 31.525620 32 1
-92.206474 210.298190 135.706480 10 1
-0.030052 303.213780 -9.583507 0 0
-55.767780 182.589290 152.005110 11 1
30.708450 335.191770 -64.223259 12 1
-147.023030 158.417890 95.142021 55 1
72.823502 247.692090 -86.572884 14 1
95.528458 117.937460 12.556899 27 1
-50.307079 205.935760 32.477875 0 0
-14.251657 142.175130 14.920162 0 0
71.200760 246.585880 -74.669365 14 1
64.823967 325.067290 -36.975300 1 1
-49.219597 68.558762 13.644718 0 0
70.998993 264.805820 0.996989 35 1
-97.481064 190.726010 143.706470 9 1
54.805317 157.467640 -10.000009 0 0
35.797508 217.717900 51.585838 52 1
-43.434883 215.895510 54.421562 0 0
-3.922296 125.151470 36.049324 0 0
73.236320 210.058000 14.141315 49 1
90.628960 218.465390 -63.994617 16 1
-93.311096 338.508330 64.112625 2 1
79.121132 248.456570 31.742666 35 1
27.665731 156.411470 39.986748 32 1
116.446530 279.912050 -1.934247 13 1
55.495911 182.887790 -1.913666 0 0
42.827747 144.801610 -102.751270 19 1
-4.684780 167.620130 118.033120 37 1
-37.715137 141.350310 -18.705542 5 1
113.682070 226.013840 35.748203 36 1
-102.722780 315.872800 75.593651 2 1
-112.498990 148.778110 66.951920 0 0
-54.996681 130.613130 49.653614 0 0
-128.424100 92.636253 114.592900 23 1
-0.639313 164.350660 4.609985 47 1
-40.954857 217.772630 75.654160 0 0
-77.904854 200.057740 125.616330 11 1
13.394009 176.274700 21.039644 0 0
-104.447920 174.096820 167.591640 9 1
124.202990 202.684620 -20.160643 21 1
-133.884280 163.025050 94.624710 55 1
-50.416893 213.961670 75.172401 0 0
-48.299770 312.630190 119.120680 41 1
123.247070 194.308730 -40.058407 20 1
9.006267 220.135240 58.670261 53 1
-19.511295 135.222290 -36.449207 6 1
-17.573986 198.150920 3.498324 0 0
75.500145 246.494340 4.666285 35 1
-61.453781 212.055860 133.395540 11 1
-29.420254 151.900380 -74.960838 17 1
30.707453 276.730930 78.388901 40 1
161.807210 120.454680 -45.244236 22 1
-18.798939 97.583710 43.503708 0 0
5.443085 155.340030 16.652647 0 0
-13.447678 166.777910 -1.328379 0 0
-22.808758 298.958710 28.388014 0 0
-60.707066 131.923260 40.793629 0 0
55.493073 135.431950 39.643173 28 1
16.937698 87.034897 -2.407389 0 0
-24.314514 122.763000 20.399162 0 0
43.948437 184.873120 -6.586949 0 0
86.877541 219.507060 30.122150 0 0
1.472077 90.555832 22.726131 0 0
-83.744804 305.632350 68.543694 2 1
-20.648174 123.087590 -14.624959 0 0
-5.885935 321.226440 21.127258 40 1
-32.933159 149.738510 -66.931976 17 1
-154.637300 105.531630 101.255580 23 1
42.286377 142.145310 -110.988140 19 1
-86.549606 330.241060 79.231369 2 1
115.586940 218.220900 51.770645 36 1
-44.318504 164.520980 57.782112 0 0
73.212822 258.996580 27.591970 35 1
-13.730073 228.416820 12.786181 0 0
37.838821 236.153240 65.318314 51 1
113.999830 204.067020 -13.616269 20 1
-124.978160 326.588470 109.151540 56 1
-47.238575 136.044270 -57.027843 4 1
-12.009392 312.975800 44.555359 40 1
-33.713680 245.214870 117.178890 33 1
19.031628 221.112080 35.690971 53 1
-17.402653 163.219620 101.819160 39 1
2.053672 293.452210 68.098137 40 1
-91.507912 322.635560 101.252700 57 1
74.385628 278.525730 -4.586586 13 1
-50.594013 196.449020 142.614150 11 1
61.704704 258.070650 20.333891 35 1
16.524857 146.581220 41.794441 0 0
143.640990 149.275210 -49.806797 25 1
150.616010 117.556040 -37.730957 22 1
-23.885052 164.679380 -53.677616 17 1
-130.780620 101.777240 113.936650 23 1
-10.545156 217.198070 6.102889 0 0
-29.421232 103.072220 88.729240 30 1
-76.716110 331.530910 101.900920 57 1
-60.740356 281.159480 49.648235 0 0
-13.536437 162.563490 -59.865406 17 1
22.840975 340.551480 -54.595245 12 1
17.979769 151.156680 -65.794609 18 1
-12.674375 24.699921 -0.365154 0 0
-90.676331 307.218690 72.987389 2 1
-26.143429 305.656740 23.626062 0 0
29.425350 140.798870 -2.888491 0 0
71.853401 227.777730 -61.172318 16 1
21.115427 155.304380 -98.468224 19 1
-27.992439 174.955250 -0.088093 0 0
4.851236 110.736720 42.967960 0 0
21.712633 158.916990 1.518487 48 1
47.917316 363.323210 -82.326111 12 1
-94.539291 325.811100 74.713371 2 1
-18.099966 93.233360 31.729626 0 0
28.867067 214.735030 67.411255 52 1
-45.769833 234.869060 85.291992 0 0
-64.209404 183.283450 151.947110 11 1
69.625244 257.179530 1.121366 35 1
-29.685852 302.730770 84.333252 42 1
37.192169 348.583950 -68.802238 12 1
-51.211601 172.806530 54.128983 0 0
-12.627863 294.062160 143.913740 41 1
150.472900 171.095490 0.122038 21 1
-14.304610 136.250920 7.969100 0 0
-22.555674 264.531590 16.494951 0 0
-55.010288 110.425560 71.680901 29 1
-80.644318 326.967190 76.030167 2 1
-20.478533 152.211880 1.612083 0 0
-32.346649 301.630460 112.593280 41 1
10.520888 259.663940 89.062973 51 1
-18.994753 110.368740 6.052752 0 0
-143.943730 166.842620 73.094650 54 1
134.780580 191.437000 -8.094110 21 1
71.238319 258.740570 14.884725 35 1
21.665873 229.421010 44.162643 53 1
30.300589 217.625720 37.427147 52 1
8.310995 295.447690 84.416969 40 1
-50.335091 86.334564 11.121440 0 0
-107.028180 214.019550 133.914370 10 1
-16.322374 334.368410 38.138832 40 1
23.770042 294.893620 68.429878 40 1
47.196850 197.683850 -9.070075 0 0
116.311990 149.919720 -39.558651 25 1
-148.654170 133.038510 63.425777 8 1
-52.342072 229.767360 73.810173 46 1
-29.893919 214.143710 17.151749 0 0
73.463203 261.940220 51.090576 35 1
-128.404720 107.562640 102.933520 23 1
-159.805790 150.613530 77.813728 54 1
24.093416 235.531200 61.678543 51 1
41.437263 208.267870 30.283226 49 1
120.548230 277.263820 4.271925 13 1
57.119480 358.630130 -80.049194 12 1
146.067760 171.590000 -58.317139 25 1
-8.779071 311.888820 17.238522 40 1
120.497280 191.426670 -28.128056 20 1
-135.667860 93.119270 118.913430 23 1
-22.329908 252.816010 8.423476 0 0
-19.652391 308.504300 56.370129 40 1
-90.956650 195.920030 122.271900 10 1
-19.325943 210.018720 9.286731 0 0
-114.206630 334.108950 70.737671 2 1
-5.985638 258.633000 72.614433 0 0
154.511990 102.568800 -34.406708 22 1
29.776007 208.296420 50.746655 52 1
-81.616669 191.136810 140.448490 11 1
-58.590622 110.827640 36.034019 0 0
16.828775 240.214550 53.264977 51 1
-23.238512 172.119060 96.148956 39 1
62.380585 261.201660 27.833675 35 1
-7.751432 336.026610 28.754784 40 1
-16.289875 236.685030 24.252352 0 0
57.454544 274.620790 7.568916 35 1
-9.788056 88.382126 24.994179 0 0
13.506756 304.046080 60.869198 40 1
139.782780 138.696470 -46.587147 22 1
31.213322 225.963390 43.206291 53 1
48.929691 218.687300 44.556007 52 1
23.859579 344.640290 -44.754597 12 1
-107.776770 335.084630 58.469574 2 1
16.842072 156.085340 110.666220 38 1
57.655968 274.246830 -7.562551 35 1
-129.115100 150.384690 72.152229 0 0
-51.757954 99.480339 29.967897 0 0
24.742987 99.150909 1.717794 0 0
-138.274750 150.055280 124.054740 55 1
69.451302 238.449660 79.603615 50 1
-9.868861 165.158100 90.173195 0 0
104.002810 220.323720 -33.342041 20 1
117.172770 228.075360 29.103834 36 1
-85.156456 186.643010 161.492340 9 1
-56.487152 161.196270 37.284382 0 0
-16.243612 296.290560 72.777855 42 1
-19.516047 323.337860 44.180721 40 1
-149.703120 172.179700 67.422447 54 1
-33.187225 101.232500 75.153015 29 1
-35.437511 297.975890 58.580479 42 1
-10.593115 69.969269 1.168126 0 0
-173.080860 159.101270 60.920361 54 1
-10.000137 315.286410 53.868462 40 1
124.711320 108.782760 -16.223951 24 1
-22.653214 277.333400 14.754720 0 0
-102.024250 192.699450 133.059250 9 1
-12.571047 270.364230 17.068958 0 0
-12.437294 118.075560 2.838876 0 0
-19.163820 248.006030 31.155535 0 0
-117.380350 202.953430 130.227100 10 1
-12.071489 84.957314 -1.737334 0 0
2.597755 308.666500 52.629269 40 1
77.860336 141.205900 -7.726820 26 1
-16.749905 141.752790 -5.202322 0 0
-149.596080 100.706520 109.835950 23 1
57.241760 333.208890 -56.430992 1 1
-37.115295 177.225690 53.054890 0 0
93.317429 116.492640 34.846581 27 1
-106.251510 340.149260 67.747116 2 1
-147.906510 106.921180 106.082950 23 1
-20.124842 217.927320 10.676252 0 0
-79.580475 204.136610 108.678620 0 0
73.951050 265.509890 12.640379 35 1
-45.129055 226.231770 64.765106 46 1
120.814000 203.786760 9.988383 21 1
4.635867 233.579040 44.852406 53 1
-159.768140 87.878799 104.371640 7 1
-9.394257 136.999820 -6.852254 0 0
134.442930 191.941770 -19.296730 21 1
-10.675311 34.063927 -13.393555 0 0
-71.622871 208.413910 130.815640 11 1
-102.346570 332.520020 63.376755 2 1
40.952763 235.658050 71.762772 50 1
50.597599 215.608750 22.768187 49 1
-31.757828 162.265350 9.138480 0 0
-79.732132 320.686770 109.356480 57 1
-10.816812 305.613160 73.009041 40 1
-36.570263 307.420320 53.303410 42 1
131.689610 126.926710 -28.435173 24 1
-99.386932 202.913540 115.704260 10 1
-168.795440 132.571330 48.399044 8 1
-26.320898 256.099150 26.487101 0 0
13.315202 227.728810 27.106953 53 1
-15.200994 322.193180 34.614792 40 1
-32.500969 250.728130 24.291325 0 0
-84.956741 195.744870 150.461040 11 1
86.274551 278.097630 1.496553 13 1
-47.400005 201.312230 69.112282 0 0
157.374250 111.007180 -38.838200 22 1
-164.604450 162.220120 62.654861 54 1
-105.323620 140.383290 65.810738 0 0
-23.839945 189.871030 12.107553 0 0
-22.407949 296.625610 14.621633 0 0
-18.834541 128.614720 24.632277 0 0
-41.064186 211.560240 34.926144 0 0
-1.772502 43.365658 5.409883 0 0
-24.079172 211.893100 4.315082 0 0
-86.138191 337.005490 67.771835 2 1
-94.052673 220.469020 133.469640 10 1
4.861971 244.403950 58.853081 51 1
-115.248870 340.789580 49.730797 2 1
-35.259304 202.628780 42.537930 0 0
42.593246 141.135500 -77.223969 18 1
-46.198589 137.385640 -46.275234 4 1
122.050220 197.405750 -2.824862 21 1
18.787090 299.912720 36.420422 40 1
-34.218071 245.072540 130.037030 33 1
88.230881 265.324800 28.491022 13 1
-108.502440 179.164150 161.495700 9 1
-7.071407 292.363310 78.119370 40 1
-94.867355 318.291810 94.529068 57 1
26.827669 222.077840 30.146242 53 1
57.456757 266.963230 27.606169 35 1
-136.267990 213.372960 129.224870 10 1
85.311172 236.761540 35.779148 35 1
-43.743423 158.100890 39.628529 0 0
-22.592125 125.454160 6.018960 0 0
-172.817870 70.327591 113.681650 7 1
113.920990 215.186550 -39.171677 20 1
3.436057 132.468030 -44.560055 0 0
14.029181 158.343200 -94.966599 19 1
28.450144 159.027620 -79.903511 18 1
8.734578 159.703140 21.171247 0 0
8.205874 165.572340 91.947090 38 1
-10.204632 118.903720 19.831514 0 0
120.792670 146.576890 -26.584694 24 1
-107.493600 318.375760 98.060173 56 1
-22.652523 194.431920 6.761654 0 0
-37.090317 68.378464 0.753996 0 0
52.256660 212.932220 82.323914 52 1
40.996834 143.875400 -89.529602 18 1
84.201180 126.706010 27.159201 27 1
48.223625 329.783940 -33.048187 1 1
-39.663254 139.337590 -65.007378 4 1
32.929337 153.490480 -61.561081 18 1
-157.345030 136.349060 51.988235 8 1
41.465588 245.182130 78.999573 50 1
58.919537 360.461430 -92.457253 12 1
-131.656170 114.739630 91.814903 23 1
-87.334091 320.147580 121.212040 57 1
12.625633 231.589940 49.510136 53 1
122.931820 144.895460 -37.380302 24 1
-6.611081 331.411380 17.880987 40 1
-157.406910 149.835650 101.461380 45 1
-6.203775 157.064910 82.092667 0 0
-5.523294 291.583770 -1.523721 0 0
48.382431 174.885730 -1.054209 0 0
-70.201698 212.433320 90.453911 0 0
-22.631714 181.040570 16.458258 0 0
28.722649 203.323390 38.887341 52 1
-3.828527 110.291890 27.781954 0 0
149.202580 145.447740 -46.812832 25 1
-109.913680 198.860730 123.582790 10 1
-70.625290 212.380460 77.982376 0 0
-1.836572 162.462490 122.919960 37 1
147.353990 146.886000 -36.207954 25 1
147.455920 155.210020 -50.803352 25 1
-76.343964 188.303850 146.331540 11 1
-11.032816 289.749540 10.757307 0 0
48.350754 250.790480 84.646271 50 1
16.769751 164.266170 -2.423638 48 1
58.470150 281.150210 -29.381855 35 1
56.326618 280.039550 -15.954668 35 1
-42.853596 299.863770 116.198780 41 1
34.313015 148.864870 55.885670 34 1
-104.182010 215.181290 119.765100 10 1
76.908806 202.709440 23.653345 49 1
81.876396 134.650510 -6.764513 26 1
64.839462 129.753680 42.115986 28 1
-117.941990 212.653030 120.833460 10 1
2.235498 125.198170 40.792564 0 0
15.579100 355.264980 -50.331348 3 1
16.792288 166.062610 11.640784 48 1
-31.111507 311.288060 126.499960 41 1
-114.555230 206.784100 137.268370 10 1
5.252818 297.216430 55.606304 40 1
27.716051 241.508010 -74.448280 15 1
-31.280128 313.443420 118.679100 41 1
5.401201 262.057040 93.373436 51 1
-28.512348 106.873100 52.270817 0 0
-37.689072 305.491240 125.676110 41 1
-46.239510 243.837510 111.438170 33 1
-158.247970 81.436287 114.480970 7 1
-166.873080 97.484192 97.344261 7 1
-7.723442 165.864730 133.393710 37 1
13.132965 248.791230 80.845650 51 1
-47.214203 194.079820 68.430420 0 0
15.829008 152.803790 -91.025337 19 1
-17.242241 287.284760 147.893520 41 1
158.266430 162.245190 -65.164169 25 1
-77.157372 322.396450 83.863609 57 1
-176.374420 159.545590 68.708168 54 1
39.365246 140.320050 0.520318 0 0
52.760963 349.566160 -67.436348 12 1
-6.391907 304.278290 122.485610 41 1
64.141357 236.475540 -70.698380 16 1
-6.889221 104.564460 -12.047584 0 0
14.156692 146.872220 -81.139969 18 1
-6.093206 160.413100 -12.479142 47 1
-4.779454 65.513344 19.267925 0 0
90.602943 288.697750 -5.122440 13 1
4.701206 146.182270 -79.101059 17 1
-39.593853 306.116760 92.233475 42 1
8.712985 165.680340 99.962708 38 1
10.974142 302.503170 -20.856939 0 0
-36.907692 65.375336 7.246095 0 0
54.478729 241.572450 -73.190292 15 1
-2.552260 156.974060 130.119080 37 1
44.394882 217.313320 25.442841 49 1
24.381430 286.268950 74.691864 40 1
-44.971825 230.096390 72.327782 0 0
52.506966 273.685790 -38.916943 35 1
-24.439663 312.181550 29.947184 40 1
103.497000 232.802720 36.963306 36 1
-13.865647 188.630430 8.342648 0 0
40.768227 355.392670 -55.088055 12 1
-161.243480 118.782700 74.615639 8 1
-49.763435 213.530610 82.608093 0 0
24.079428 154.844310 -86.203300 18 1
54.472534 354.120120 -74.928444 12 1
-124.172140 115.458900 96.980125 23 1
51.110027 273.003660 -23.722601 35 1
-22.493631 138.129650 4.301562 0 0
71.908386 135.726410 13.076476 26 1
66.917427 267.146820 30.303667 35 1
-139.915660 212.334720 136.212950 10 1
-150.940950 121.064610 80.729660 8 1
-21.019987 170.583980 5.182097 0 0
67.564529 141.567150 22.152845 26 1
-55.128651 227.618060 46.833553 44 1
35.101967 234.385120 77.833870 50 1
49.624329 237.786580 77.783157 50 1
123.401990 185.947560 -52.197353 20 1
-40.275124 309.747070 85.310272 42 1
-107.712740 138.769590 58.502087 0 0
-25.814436 336.936890 21.271658 40 1
-10.350751 60.803146 1.154323 0 0
-32.518475 262.501430 29.673254 0 0
0.957999 306.999180 25.370621 40 1
-36.729588 244.972850 25.154980 0 0
84.602608 244.743030 -83.468872 14 1
-17.473890 111.775840 12.663213 0 0
-48.519642 90.792229 23.337612 0 0
-19.065519 200.886440 19.176941 0 0
80.753738 242.084320 38.395012 35 1
88.175941 242.883210 -71.079659 14 1
-26.428125 200.124690 24.592411 0 0
-7.373583 14.579323 -2.330880 0 0
-97.546616 315.425200 108.158560 57 1
-34.564014 223.580080 85.856979 0 0
52.677227 272.944950 -45.785526 35 1
123.304050 195.008820 -57.590408 20 1
-27.805933 45.820599 -1.639171 0 0
101.611840 213.783390 -23.035290 20 1
63.370731 153.497240 43.040543 31 1
49.644188 237.477020 60.732666 50 1
101.288870 207.409700 -13.583773 20 1
-35.307281 244.293060 77.284332 0 0
38.550209 182.774200 3.031656 0 0
13.989176 71.569855 -3.647124 0 0
147.801090 167.010220 -52.784847 25 1
55.229450 236.341810 -65.608444 16 1
35.818123 153.996290 46.152397 34 1
-59.778610 223.165240 87.476997 46 1
-136.396060 109.615220 99.875618 23 1
-151.198120 166.156220 55.763321 54 1
-31.187349 135.086290 8.709096 0 0
74.290352 235.624590 -68.024223 16 1
91.824425 279.502170 12.618496 13 1
130.142350 200.292100 3.702583 21 1
-54.326958 191.660810 148.217650 11 1
27.750616 100.508370 17.130592 0 0
-131.610030 331.873020 108.416350 56 1
-44.449032 235.819950 92.592514 0 0
2.760473 157.202360 -1.287730 47 1
24.110275 286.992520 84.737381 40 1
-147.022030 155.624220 81.603485 54 1
-8.374187 296.926510 130.062770 41 1
15.072779 216.165190 48.182732 53 1
8.758527 302.303040 42.595806 40 1
-154.061680 127.516180 60.495872 8 1
8.169713 140.052870 -53.939465 0 0
-86.453712 309.553560 125.076840 57 1
-22.917002 224.382970 57.734463 43 1
-2.867625 6.985676 1.067488 0 0
-40.747528 190.477980 7.013256 0 0
-5.493060 155.005550 69.205246 0 0
-44.989136 99.377007 35.809761 0 0
-36.122402 101.597950 89.775101 30 1
-58.176060 214.202350 127.760710 11 1
21.683041 213.181920 42.767464 53 1
-44.848827 229.831990 49.170277 44 1
-30.486101 195.414700 31.941824 0 0
34.212044 152.424680 -79.823730 18 1
7.250780 227.797550 51.433311 53 1
74.874237 236.657700 -78.158585 14 1
77.760124 129.822630 34.494671 27 1
-38.279266 110.705800 84.899864 30 1
62.385670 332.508970 -49.495964 1 1
-154.275630 158.046360 98.942108 55 1
81.620361 271.505280 9.709003 13 1
32.283714 102.436000 11.298812 0 0
27.142742 117.156440 0.284972 0 0
142.822390 113.950910 -27.571066 22 1
58.185192 256.795590 13.890887 35 1
-123.505680 145.834490 68.935562 0 0
26.711849 240.478290 71.024826 51 1
-32.921925 203.414980 20.598917 0 0
-4.991849 70.819679 12.399086 0 0
26.657883 202.948150 31.129642 52 1
87.324699 131.181370 2.350336 26 1
-21.981459 301.346070 79.338570 42 1
-3.044710 227.638080 56.274612 53 1
107.049780 217.852480 40.543140 36 1
151.455720 164.586260 5.018344 21 1
81.912071 240.332520 49.034546 35 1
66.766510 136.734530 31.880642 28 1
-34.437111 150.794720 54.479118 0 0
-84.183571 201.895170 115.194260 10 1
15.749871 163.350450 17.944935 48 1
9.195889 254.783460 103.837100 51 1
-69.058670 122.195280 49.002575 0 0
-23.153318 322.543210 34.196381 40 1
-48.291702 278.395780 38.568634 0 0
150.953170 170.565520 8.794461 21 1
-27.390072 237.381640 20.243446 0 0
33.399586 151.619260 -95.340355 19 1
-105.284650 185.276050 160.589000 9 1
69.274071 253.229350 -4.580104 35 1
92.037422 164.447740 -25.994095 0 0
120.519730 118.957080 -14.733318 24 1
100.254130 157.013320 -36.503475 0 0
-50.106785 138.926760 -17.907190 5 1
-18.966324 209.341550 -1.119908 0 0
-54.082062 146.297910 49.287285 0 0
21.498207 246.048750 74.192963 51 1
-50.826172 227.221510 81.329666 0 0
-139.919360 324.790740 108.515910 56 1
134.723420 153.763020 -35.712105 25 1
-22.475786 222.522840 46.586018 43 1
86.316879 247.826080 -102.121170 14 1
3.090414 123.566120 -34.133671 0 0
-129.234340 326.214870 115.866910 56 1
7.399920 299.849980 78.203629 40 1
-29.821451 308.942540 72.280457 42 1
-40.468887 140.422030 -24.864273 5 1
-69.105469 324.568210 94.092979 57 1
-78.908150 313.599610 123.178180 57 1
131.476240 120.917830 -31.558514 24 1
49.927444 242.584090 -82.165894 15 1
-44.943642 244.655910 93.174049 0 0
46.357586 218.140430 80.191650 52 1
-48.523075 238.732040 44.347069 44 1
140.397460 141.146910 -28.112257 24 1
-59.098305 227.739270 70.466873 46 1
-100.578370 330.468440 82.879021 2 1
103.167190 278.117610 16.784143 13 1
-24.245724 101.827040 42.036236 0 0
26.747343 221.359850 62.305363 52 1
127.315480 194.769130 -13.358482 21 1
116.308530 204.180450 -46.914055 20 1
-148.936370 157.996060 107.674110 55 1
123.879940 144.659770 -13.898493 24 1
22.132059 151.357360 -93.073990 19 1
12.633305 160.546510 -101.494800 19 1
-86.536438 322.779880 110.607690 57 1
43.246700 339.809940 -41.074078 1 1
-25.853731 225.729690 26.585419 0 0
-102.928340 163.151200 168.946040 9 1
-128.253740 334.557830 88.876068 56 1
-4.446645 166.293400 16.454227 47 1
-22.041212 326.133970 23.043053 40 1
-33.032894 136.404630 -48.968914 4 1
-140.038360 99.349014 113.346440 23 1
-160.123060 130.405900 54.231476 8 1
-68.035553 207.116930 85.870209 0 0
-45.240372 228.881670 41.741623 44 1
-74.366455 145.416380 46.648006 0 0
64.702652 269.152160 -0.374689 35 1
-34.675774 57.434689 6.063223 0 0
-15.831520 136.264820 -46.969337 6 1
-157.145280 98.054977 95.815361 7 1
62.140038 272.877080 18.204725 35 1
-22.997978 170.657730 17.209585 0 0
-13.287346 164.689220 118.839000 37 1
11.186514 300.778020 69.608162 40 1
40.403164 191.443300 -7.264414 0 0
-176.375350 90.029968 99.586235 7 1
-63.633347 224.930760 48.347775 44 1
-83.679207 319.831330 80.641861 2 1
-3.143948 161.940780 94.406441 38 1
-67.043915 237.014470 43.847702 44 1
38.434361 346.487610 -51.369789 12 1
-5.668760 162.445540 102.265440 38 1
53.072704 211.832930 27.796068 49 1
-42.325233 75.343620 0.552487 0 0
-3.474373 154.916930 22.943913 47 1
115.140300 125.292070 -10.620947 24 1
-3.141093 149.654160 14.688288 0 0
52.697403 261.016510 11.258484 35 1
-95.706566 182.732210 163.942540 9 1
-147.499040 125.755460 63.702545 8 1
-42.811485 215.683320 85.885376 0 0
-28.489662 213.221270 54.640182 43 1
-144.433730 132.273160 71.672798 8 1
6.204817 163.172240 15.971642 0 0
-13.861506 163.577290 142.954500 37 1
4.654450 305.272950 30.946251 40 1
11.890311 59.798866 1.119893 0 0
-50.903236 185.348280 147.816450 11 1
-86.942390 210.346510 131.254440 11 1
-52.753414 208.662170 138.647570 11 1
-49.295139 221.373050 55.229595 44 1
-154.467700 163.060590 75.198586 54 1
39.770058 214.378390 38.116062 52 1
-43.467415 87.998520 34.463589 0 0
70.169952 137.847810 -0.287665 26 1
65.594658 192.286640 -4.866135 0 0
-25.524237 307.542570 86.377373 42 1
-4.432706 296.569430 17.767939 0 0
59.330173 353.148900 -68.680756 12 1
-84.089554 327.431610 93.162643 57 1
-112.354920 325.251950 109.839690 56 1
111.969600 208.377140 -37.831532 20 1
16.445400 303.057100 29.013895 40 1
43.852497 200.482570 -0.591371 0 0
-151.433810 101.691090 93.640488 7 1
42.247143 208.587270 20.991562 49 1
-62.892445 225.686890 58.532234 44 1
-150.026180 112.016380 90.947975 23 1
-31.733919 222.266720 55.341278 43 1
-2.234380 25.748369 -2.864366 0 0
14.146178 165.532550 -105.645090 19 1
12.232017 362.538480 -56.904652 3 1
62.555050 140.035540 42.282967 28 1
25.874977 241.318210 83.583534 51 1
72.469017 198.385380 26.086178 49 1
-25.216423 206.883940 -5.352995 0 0
-47.726448 210.425170 43.503101 0 0
122.609700 203.950940 -10.943602 21 1
98.042191 219.362930 32.651821 36 1
-13.829238 265.797940 78.201691 0 0
-80.214790 149.331630 41.878414 0 0
-156.915600 124.162470 70.599960 8 1
-120.683760 324.850890 89.182571 56 1
30.174883 289.707180 63.248848 40 1
-89.939201 204.222030 141.733060 11 1
38.924164 212.823330 24.941484 49 1
54.133263 266.552120 -8.449160 35 1
-17.841715 265.236910 25.815699 0 0
-42.417789 311.185240 63.722977 42 1
-18.159023 319.719670 25.955536 40 1
46.480373 331.893650 -49.017952 1 1
-40.010323 186.789260 64.919876 0 0
17.556667 65.730049 0.114671 0 0
85.132744 225.942830 -62.177864 16 1
-53.002117 136.021330 37.521263 0 0
-144.407550 113.962610 96.973991 23 1
76.205902 199.356740 -5.397179 0 0
-16.543171 143.317550 -55.977196 6 1
-18.939941 327.309910 15.786315 40 1
-86.216553 326.456570 100.075430 57 1
-149.756580 118.635080 91.422173 23 1
-41.563396 202.493100 55.117191 0 0
81.056152 234.020480 -71.467033 16 1
121.169720 202.517400 -31.123171 20 1
-50.854786 316.650300 131.389880 41 1
-35.185154 309.456670 113.646050 41 1
56.113205 242.450640 -79.603073 15 1
60.151390 216.297010 75.055099 52 1
56.567009 351.254940 -61.289612 1 1
128.919460 134.043840 -21.341076 24 1
-3.344298 315.737760 43.760811 40 1
70.292747 128.312290 27.807240 28 1
-32.264080 188.943220 34.441460 0 0
-85.414284 213.834530 123.518770 10 1
-154.382100 106.252360 83.485291 7 1
-48.706703 309.760220 128.323820 41 1
-78.549965 307.712280 118.734860 57 1
3.694829 45.632324 -3.601195 0 0
-109.591520 326.087310 96.639755 56 1
3.566969 162.490020 -6.354939 47 1
32.096519 325.756710 -49.806824 1 1
38.189190 359.581300 -70.972656 12 1
78.227180 225.689220 -60.174725 16 1
25.619263 210.373990 31.406227 52 1
118.846820 98.235497 -11.139391 24 1
74.481285 267.823640 5.801213 13 1
70.468658 254.767620 9.495324 35 1
-11.779569 92.479881 2.740348 0 0
-117.673590 187.951290 157.118610 9 1
-44.649124 174.084700 53.408558 0 0
-153.818650 113.727270 96.580482 23 1
-36.145336 216.196550 81.589439 0 0
-137.654890 149.180210 113.339740 55 1
-5.031207 165.912950 9.258592 47 1
46.589069 359.220120 -67.208984 12 1
-13.164742 80.164635 14.068990 0 0
108.587940 205.547150 -17.115627 20 1
-15.567242 285.805360 17.165245 0 0
-16.482445 130.805980 10.950582 0 0
57.085625 257.666690 0.804092 35 1
17.105600 296.404970 59.548374 40 1
-113.586880 318.008820 79.982910 2 1
-26.983776 301.544190 125.039960 41 1
-163.503800 88.885818 98.864044 7 1
-31.986980 107.667380 74.577667 29 1
-143.504330 136.241420 66.024017 8 1
56.048370 235.582380 -50.418312 0 0
51.012802 244.627880 -61.139614 15 1
-27.914049 306.598240 29.880142 0 0
-157.741380 150.561220 87.709908 54 1
2.460047 158.867720 -67.116470 17 1
-42.198536 255.620900 100.685310 0 0
25.703300 325.677310 -42.208141 1 1
-10.904165 227.195590 56.560162 53 1
-64.364983 191.794630 148.002210 11 1
-149.068760 148.447020 70.315613 54 1
81.324776 285.293120 -5.879086 13 1
-27.766565 164.283370 25.444540 0 0
-60.548843 231.449920 48.570808 44 1
41.195049 214.403380 53.985954 52 1
-54.185486 152.172070 45.867283 0 0
140.806200 188.202840 -3.403053 21 1
-157.326340 164.114090 62.149540 54 1
17.600117 246.581820 92.424126 51 1
-62.982536 222.568680 79.416130 46 1
50.227528 239.522350 69.768486 50 1
87.385612 120.350790 33.326256 27 1
-29.143185 295.888790 131.911180 41 1
73.031540 257.308690 21.240271 35 1
-32.293423 304.026370 77.625099 42 1
-81.680267 315.814390 113.634630 57 1
58.781658 156.854640 -16.821827 0 0
6.122160 158.842420 110.973780 38 1
-162.797590 154.920870 73.918869 54 1
-94.714722 312.172420 69.430916 2 1
-170.926940 90.162788 104.407710 7 1
30.650522 348.564180 -58.843441 12 1
-5.588295 309.265720 36.599384 40 1
-9.121938 27.691360 4.210690 0 0
-161.277040 158.887410 81.471428 54 1
-43.939190 313.251070 74.848625 42 1
-70.699608 322.709010 105.577770 57 1
-24.698645 206.369840 11.388235 0 0
-123.987580 214.811680 122.479270 10 1
-9.826386 313.389190 23.662601 40 1
-23.736671 115.931430 -6.744952 0 0
-1.950633 304.996400 40.447201 40 1
41.899830 330.075380 -34.576538 1 1
-15.181080 170.723130 11.800020 0 0
105.200720 221.529630 32.759544 36 1
0.820277 163.328860 102.569900 38 1
50.815102 225.306750 -41.956974 0 0
-159.036610 109.206980 104.339710 23 1
-13.420898 297.932710 122.053150 41 1
-113.918920 207.539600 121.019120 10 1
6.350430 223.958940 63.299019 53 1
52.957680 284.609560 -29.427446 35 1
-112.959430 218.975310 123.215460 10 1
48.882492 359.221740 -73.326523 12 1
-102.591550 310.990940 80.141571 2 1
-92.235756 326.883850 85.550766 2 1
-28.694921 139.151990 -41.338531 5 1
28.777864 235.339490 53.012798 51 1
-110.826640 193.877230 135.714570 9 1
-118.438220 171.078960 163.248660 9 1
-25.619772 269.822940 18.695778 0 0
-50.877155 222.722460 65.515465 46 1
52.289253 328.843350 -53.821537 1 1
-26.876722 297.337160 22.668978 0 0
-29.496281 146.314580 1.730765 0 0
152.564670 164.800980 -63.390884 25 1
7.546488 157.449460 -84.665619 17 1
51.692974 207.231250 -14.708106 0 0
-17.200424 100.737390 5.388904 0 0
-21.649441 193.313100 22.285309 0 0
-55.795643 279.747770 41.142612 0 0
61.088875 260.681640 -17.343037 35 1
7.589767 296.311400 66.139854 40 1
91.149178 217.314510 38.138264 36 1
-85.390518 151.396580 45.192078 0 0
-37.810768 138.893310 -44.352634 5 1
2.317373 266.387540 101.471710 51 1
11.371382 162.798550 3.930258 48 1
-12.682678 341.677430 28.262403 40 1
-29.888752 308.277310 63.909821 42 1
96.479034 288.397090 3.424151 13 1
-38.632118 206.079330 22.417576 0 0
-121.056720 222.725630 129.560650 10 1
-35.273407 303.343630 64.769875 42 1
-16.577518 100.240580 85.564781 30 1
54.907825 151.162160 40.775574 31 1
-13.101094 315.981110 34.876633 40 1
66.587585 357.196470 -87.805809 12 1
-53.264324 183.558200 62.538265 0 0
-16.970390 302.512180 54.711864 40 1
0.783896 109.124110 5.508505 0 0
-3.434359 18.743015 0.829928 0 0
-4.025730 344.262210 27.962152 40 1
8.969979 50.873093 -5.560021 0 0
-42.145660 110.872020 74.567856 29 1
-52.357216 106.763490 29.162106 0 0
19.467918 230.620990 30.853104 53 1
-45.171543 144.138410 -34.724651 5 1
20.776377 184.060750 27.212559 0 0
-122.952940 213.326710 135.182740 10 1
-25.587969 296.914060 61.173637 42 1
-113.843640 321.044280 90.561234 56 1
-150.105040 160.090230 87.105370 54 1
60.306824 325.921970 -47.417763 1 1
-103.230740 323.172390 74.214897 2 1
64.823845 269.441590 -26.816916 35 1
-41.130318 134.365130 -55.433563 4 1
27.032873 330.681580 -55.342667 1 1
-81.088928 326.719850 104.445140 57 1
39.746620 210.167510 14.901657 49 1
-8.544212 44.810482 -5.326917 0 0
-152.407820 153.175490 79.053581 54 1
-137.768190 329.641540 97.591385 56 1
-63.029160 97.733727 32.963711 0 0
-54.420841 203.436660 69.806717 0 0
-40.150444 104.848300 80.334007 29 1
-7.171206 165.814440 -61.702244 17 1
26.355316 322.807980 -48.524586 1 1
37.568550 151.915120 -5.477087 0 0
1.033653 31.334988 -1.897814 0 0
-3.070683 156.425700 -63.846596 17 1
-32.820709 192.969450 11.682032 0 0
37.829765 214.100590 60.226974 52 1
31.942955 234.013120 12.015760 0 0
119.928210 140.132190 -19.443356 24 1
-14.348089 168.962080 -56.955803 17 1
-84.474022 151.678910 52.217392 0 0
136.200130 152.073440 -45.769985 25 1
47.193504 209.042330 -19.584307 0 0
-140.826900 118.385820 91.206589 23 1
-30.636850 177.818210 27.673088 0 0
109.569400 232.584780 17.047712 36 1
-9.522599 109.409050 -0.291607 0 0
-13.746341 73.040352 5.842141 0 0
54.884193 200.149460 42.851574 49 1
117.570900 200.348600 -18.745409 20 1
-21.445169 228.086550 7.347326 0 0
68.713524 264.464360 44.528091 35 1
138.885450 161.577870 -44.768120 25 1
-29.923729 243.116290 17.104836 0 0
64.627594 234.992940 -61.381950 16 1
-49.275627 93.009781 39.319138 0 0
-51.409500 127.635940 36.288574 0 0
-32.248466 286.034300 58.980301 42 1
-6.753029 73.048996 6.652243 0 0
-164.591900 72.840408 115.730810 7 1
98.717323 279.671110 6.636320 13 1
133.063980 192.826970 -1.953818 21 1
-150.081790 94.752281 104.947640 7 1
31.020033 284.260960 67.283157 40 1
-16.549316 29.685005 -3.770504 0 0
-39.013096 249.986790 129.211150 33 1
-4.822853 304.441130 78.530777 40 1
-13.711448 159.735490 136.162450 37 1
-33.026257 137.146270 -63.960541 4 1
133.122630 165.261730 -40.916389 25 1
-9.566876 193.682880 15.918200 0 0
25.316710 151.691990 -57.634140 18 1
-49.937180 168.273820 46.214268 0 0
24.047306 159.509460 -67.593025 18 1
-7.182705 165.406950 -1.138099 47 1
14.924074 225.625080 32.952156 53 1
40.020390 144.205490 -64.399681 18 1
24.809988 337.353790 -65.486534 12 1
146.435610 184.375790 -4.720153 21 1
17.829159 300.870000 49.712124 40 1
-157.121200 93.870361 105.035450 7 1
-167.405990 126.076680 65.326096 8 1
-56.138069 235.772020 46.969391 44 1
99.459358 216.914920 48.954769 36 1
-12.195244 261.323490 22.556101 0 0
-18.344679 255.250080 24.839344 0 0
-92.634399 222.286880 116.938730 10 1
86.277145 220.431780 -68.202766 16 1
126.191510 147.519290 -44.238914 25 1
-164.161510 149.649870 106.244240 45 1
53.730061 207.081150 9.811197 0 0
-137.649140 105.710690 108.842230 23 1
-109.238210 223.272510 126.076420 10 1
-9.188028 156.969860 147.002730 37 1
8.120508 163.878420 -98.505272 19 1
26.093014 163.657150 29.226425 32 1
-44.019482 113.986600 66.388100 29 1
-101.523140 209.270510 137.170670 10 1
-183.291050 134.871290 106.029260 45 1
5.632793 299.566770 49.585762 40 1
-8.401271 55.006538 -0.660609 0 0
-7.165089 323.823730 13.478795 40 1
146.181590 109.558470 -30.692892 22 1
34.669144 145.004640 -73.410599 18 1
18.528294 244.993470 85.242271 51 1
-132.275190 155.074050 113.334660 55 1
-28.216438 208.856510 21.026875 0 0
74.599236 123.818160 41.027824 28 1
33.584782 210.069170 88.048058 52 1
-32.973614 252.668980 17.413631 0 0
-100.486650 189.679210 149.657200 9 1
27.987514 156.558090 -52.681297 18 1
-19.285252 223.234990 64.505112 43 1
32.509117 156.062290 54.274578 34 1
19.707870 353.071470 -54.604374 3 1
-169.317140 138.468400 45.390862 8 1
-23.186686 159.303390 -83.458916 17 1
-169.423030 152.863860 97.470421 45 1
-19.422728 225.227480 23.909704 0 0
107.828420 214.129230 -37.828327 20 1
-3.150836 296.525300 80.828041 40 1
-48.542442 133.692380 -78.170753 4 1
-6.108504 38.295540 -3.300416 0 0
-154.993420 85.198067 110.568730 7 1
74.184708 253.454480 40.078033 35 1
48.267246 211.748900 18.341105 49 1
-32.868813 300.458680 121.705150 41 1
-19.738260 259.127620 73.735786 0 0
23.456770 315.240330 -39.227093 0 0
33.705692 151.775390 -107.269470 19 1
-142.207790 144.962650 124.373860 55 1
-175.223210 156.544750 88.941139 45 1
-18.542044 258.251160 2.601500 0 0
42.148663 244.261860 -78.397346 15 1
105.774800 211.916490 -29.667208 20 1
70.456223 131.996080 21.280560 26 1
43.800812 176.995250 7.843245 0 0
-130.552630 130.292360 77.129082 0 0
-98.200623 323.514220 93.309219 57 1
0.835858 256.509580 80.613945 51 1
12.438051 237.528950 56.993904 51 1
-3.696325 160.798420 13.463236 47 1
35.238045 245.354350 -75.247650 15 1
9.899906 246.972440 73.663605 51 1
-12.808151 170.252270 93.038696 39 1
133.165600 132.385940 -33.030193 24 1
-21.439302 306.025360 98.501839 42 1
-127.845990 134.586700 81.702965 0 0
-6.874891 291.887300 68.431168 40 1
15.464055 290.555820 82.701454 40 1
-43.036182 222.053070 55.626038 44 1
-147.090180 96.716644 114.175450 23 1
-179.163240 153.575970 99.426140 45 1
77.153152 125.522510 19.535074 27 1
-24.322302 260.990260 0.152327 0 0
-26.523502 297.307280 68.827103 42 1
3.761347 160.430860 -74.301041 17 1
161.966080 114.459620 -42.519978 22 1
-72.106247 193.028030 146.622250 11 1
25.857172 297.054470 56.977852 40 1
50.696198 207.318760 92.201157 52 1
96.979675 272.992400 17.274988 13 1
-34.066833 269.654270 29.424343 0 0
46.574509 327.511410 -39.090946 1 1
59.986095 203.997480 34.216946 49 1
-117.850280 200.814700 124.354900 10 1
-33.736694 223.205990 75.763428 0 0
-173.534620 137.044160 119.726330 45 1
-70.876541 203.756410 96.179649 0 0
34.595798 277.855680 73.611313 40 1
-32.510929 213.003480 71.550789 0 0
72.186859 261.213750 37.112911 35 1
-16.584284 301.005130 17.040798 0 0
57.274933 269.489290 -35.671928 35 1
-61.209644 128.331860 48.214828 0 0
-12.909054 142.119080 6.089253 0 0
-26.920444 220.645220 31.441742 0 0
-12.008472 103.863910 -3.100655 0 0
27.043102 346.282470 -39.252792 12 1
-40.601688 315.124420 122.696140 41 1
-73.384407 323.527250 111.671140 57 1
50.638351 154.208250 -6.684421 0 0
-151.544220 155.430310 91.698235 54 1
130.823810 108.492320 -17.534500 24 1
1.125902 101.168680 27.066080 0 0
-41.287651 154.652270 53.288181 0 0
-135.154220 124.764470 79.314957 0 0
124.662880 130.884340 -18.052061 24 1
-17.192730 244.832990 24.337814 0 0
-47.773819 180.925780 57.688709 0 0
63.773075 258.295350 -24.503250 35 1
-53.772690 191.918810 66.744553 0 0
-7.485870 291.494510 15.641872 0 0
74.733093 276.846340 1.599674 13 1
-147.269530 164.055280 92.352661 55 1
-20.663029 164.428390 -66.192688 17 1
-6.449192 76.576286 15.486458 0 0
-94.088341 196.101330 150.405500 9 1
-7.672799 167.357860 110.388340 38 1
-19.141687 36.893448 -3.554745 0 0
-5.807501 344.190830 21.237368 40 1
-150.765010 123.889800 74.714363 8 1
-130.888320 335.182620 98.109138 56 1
-115.490220 179.218640 160.599690 9 1
60.676998 329.408630 -34.778179 1 1
-60.110031 101.202100 28.594995 0 0
-124.855470 141.251920 73.726501 0 0
-12.902106 156.643600 -82.484695 17 1
-8.448425 297.035430 -0.758328 0 0
76.410461 139.930830 2.091149 26 1
46.818645 212.760350 1.140398 0 0
-143.594640 154.061100 117.236150 55 1
48.862221 208.151990 40.776600 49 1
133.267700 149.781010 -27.423925 25 1
-25.095285 125.132060 11.720148 0 0
60.720119 237.599240 -54.640160 0 0
-158.693150 148.483860 113.613620 45 1
91.597977 273.336300 13.255305 13 1
-87.826935 125.765690 51.138863 0 0
-21.367926 305.360900 108.949440 41 1
-141.714040 126.025370 71.103500 8 1
-1.717688 310.960660 20.002203 40 1
96.944550 119.333370 23.186255 27 1
-22.430849 253.989010 19.975443 0 0
29.165169 148.209150 -71.002190 18 1
-111.256110 326.414950 102.866100 56 1
54.261097 358.286990 -85.899475 12 1
-128.955050 162.178830 99.130615 55 1
-52.945942 159.225020 41.969795 0 0
-23.456329 135.999530 18.575211 0 0
61.367630 210.280400 19.274622 49 1
-19.023279 289.297180 63.604809 40 1
-24.958355 250.434980 75.039772 0 0
25.567320 158.998210 15.567287 48 1
-37.208164 235.156020 56.818584 43 1
-135.682130 324.044770 103.830630 56 1
-101.054030 226.953020 117.765670 10 1
70.146744 262.403960 -21.954391 35 1
16.633568 155.454070 -83.761414 18 1
3.821927 295.136020 79.992241 40 1
-85.089706 208.682940 117.693770 10 1
-93.718040 204.041240 112.401900 10 1
58.527840 210.876280 83.591286 52 1
-39.398392 246.451520 96.493729 0 0
-92.965195 131.156660 53.879456 0 0
-52.965858 128.235570 27.593386 0 0
-18.802189 167.785430 97.681099 39 1
33.988590 144.645480 -93.276283 19 1
15.205889 306.776640 47.039719 40 1
83.869354 240.981250 25.644674 35 1
12.909736 156.873990 -66.187561 18 1
29.986372 108.260120 4.118508 0 0
-0.926754 305.338130 64.091125 40 1
160.355880 100.884610 -33.354675 22 1
34.996807 205.651340 33.026138 49 1
-154.753310 118.231830 76.343025 8 1
14.073345 160.381640 107.179440 38 1
-45.367126 157.921650 49.600182 0 0
28.146074 149.229740 41.237698 34 1
-17.132172 181.221010 19.484049 0 0
-79.919380 299.977080 74.162560 2 1
121.997880 200.278150 -37.977757 20 1
63.831047 202.368160 40.678333 49 1
-180.266650 143.634230 112.971020 45 1
82.395096 231.159030 40.244869 35 1
24.046364 219.557110 50.389637 53 1
64.739372 204.269130 27.683319 49 1
-134.083510 322.894010 122.770170 56 1
-14.937820 222.732360 10.742895 0 0
-28.531122 296.531560 31.702362 0 0
-0.938676 133.668840 37.877083 0 0
46.220493 211.836790 31.807217 49 1
-21.938871 163.822460 5.289525 0 0
-15.922457 223.495160 57.351677 43 1
44.086357 215.261870 42.624752 52 1
48.920052 245.793490 -71.685921 15 1
-96.470222 201.781280 144.728330 9 1
23.411179 152.421490 51.454945 34 1
22.310253 233.221710 56.126171 51 1
-25.537830 262.345310 27.394215 0 0
-96.188736 348.012940 57.989307 2 1
26.476254 160.195340 6.623353 48 1
76.006981 246.521100 17.394270 35 1
71.655617 142.788220 6.741536 26 1
-28.517296 279.261380 14.465530 0 0
-72.849411 227.526340 47.876476 44 1
40.908901 164.288970 2.991568 0 0
141.387130 142.097120 -36.864136 25 1
100.767520 272.003540 26.022827 13 1
67.206947 138.616420 8.426642 26 1
-32.105637 308.612490 82.300751 42 1
57.219437 330.072300 -28.483162 1 1
-30.744280 268.087680 8.125776 0 0
-117.942920 326.714320 100.178790 56 1
105.546710 230.109010 26.317465 36 1
-12.363045 333.803710 25.364628 40 1
125.194530 97.402916 -14.681386 24 1
39.329063 244.753270 -60.023960 15 1
40.618771 157.632630 5.534194 0 0
30.164913 157.464130 32.924332 32 1
-59.836109 287.511470 45.263309 0 0
-139.558060 92.132103 114.123960 23 1
75.906464 322.214600 -34.678879 1 1
91.241554 241.278960 -78.420662 14 1
-43.584358 134.461840 -61.690121 4 1
-16.930250 104.495460 75.605476 30 1
-16.901192 314.343380 52.686604 40 1
-137.283040 159.017140 107.023560 55 1
-5.678882 291.453250 8.241779 0 0
92.756218 246.592650 -89.170769 14 1
141.922880 152.654920 -32.093372 25 1
-54.698326 119.635100 36.240139 0 0
-104.775500 321.985230 102.583410 56 1
-6.958260 160.541730 -58.595463 17 1
43.050846 239.158130 -81.702202 15 1
16.800854 162.285340 96.177635 38 1
-48.047508 271.810270 38.648396 0 0
62.340012 238.875610 79.016121 50 1
-11.759652 96.139099 -5.740370 0 0
-12.497227 128.020140 14.661594 0 0
42.275150 253.748860 13.654778 0 0
85.923653 140.137150 -10.842134 26 1
-169.722120 150.544310 103.406310 45 1
-41.855900 208.954900 49.780838 0 0
130.641590 157.815080 -41.698559 25 1
122.592620 134.109650 -22.806696 24 1
12.907296 59.123253 -7.018769 0 0
71.755974 253.182720 28.788994 35 1
-41.083637 138.070010 -71.532524 4 1
33.459480 153.316620 1.026933 48 1
42.929752 173.454470 1.389590 0 0
-8.424622 88.931046 18.850542 0 0
-43.029133 314.419190 130.693480 41 1
-139.493160 163.023380 85.027039 55 1
154.961490 173.905430 -2.897015 21 1
-14.495174 181.393890 12.284039 0 0
-2.792800 135.686420 44.137402 0 0
-8.972466 71.421112 18.552256 0 0
-45.058647 167.386570 49.967037 0 0
-168.922620 163.220730 72.195702 54 1
-129.706770 217.752490 130.925250 10 1
-2.252421 31.579132 7.917802 0 0
146.437650 162.305440 -45.878517 25 1
-17.840538 278.740110 11.312209 0 0
18.752983 153.031600 -58.275646 18 1
90.035027 247.196500 -97.128395 14 1
-51.135876 164.076320 37.096970 0 0
33.218464 216.033310 71.572899 52 1
-81.318375 311.109100 128.172010 57 1
-49.118641 80.829048 13.386045 0 0
146.023670 137.059400 -46.649010 22 1
-24.023642 143.632770 -50.462582 6 1
-167.519620 86.005966 110.621330 7 1
-29.334904 305.080630 90.512794 42 1
-139.214830 162.671480 91.586571 55 1
-133.211060 149.629880 118.640690 55 1
-49.025951 189.794130 63.557106 0 0
14.966274 247.657030 70.265045 51 1
45.395916 131.881000 -4.453625 0 0
66.375572 243.712510 -76.963074 14 1
-177.228090 80.568634 107.971430 7 1
118.070370 221.810750 44.933838 36 1
3.376519 304.544620 -14.419621 0 0
-58.236053 222.523480 75.588661 46 1
63.652218 155.062770 33.074089 31 1
-42.887486 309.868350 126.221570 41 1
33.006607 337.153780 -41.624390 1 1
55.149551 343.617920 -55.106812 1 1
151.616940 150.761670 -38.449600 25 1
116.106640 198.004290 -1.759346 21 1
93.597176 206.710650 -7.952107 0 0
-36.840725 110.018410 77.367775 30 1
-68.356758 203.321170 131.135590 11 1
83.187683 238.426700 57.508461 35 1
-7.637461 297.783940 124.111490 41 1
-135.454450 326.607330 116.115160 56 1
69.985512 267.002690 24.940784 35 1
40.458923 150.061540 -0.094883 0 0
-118.648130 218.759120 133.633680 10 1
-20.806822 176.969730 26.537663 0 0
-24.549770 333.658750 41.301434 40 1
-117.659520 153.186540 66.422165 0 0
-142.494930 82.074196 118.710910 23 1
14.690799 256.353760 91.937263 51 1
-184.945390 148.679810 106.535500 45 1
47.104462 252.934340 17.446772 0 0
-82.539032 196.849900 128.219600 11 1
-13.360743 216.335390 19.448557 0 0
143.472530 143.519330 -46.991264 25 1
138.621920 191.808300 -13.211315 21 1
-77.970535 211.121920 122.100170 11 1
-80.341797 322.586060 100.026400 57 1
-44.402016 138.157850 -51.996811 4 1
-65.422607 210.422070 80.496574 0 0
-88.836700 190.641950 147.752980 9 1
-24.351070 306.128540 73.262466 42 1
-98.822647 220.639160 129.763120 10 1
47.069550 214.850600 -26.996353 0 0
-110.686080 203.263170 140.687960 10 1
-107.491890 346.750340 57.840866 2 1
-158.657970 126.082990 65.076294 8 1
-8.557344 80.665390 7.249392 0 0
-47.456779 243.297090 117.326890 33 1
-28.923862 308.481020 106.852840 42 1
78.090080 246.951780 -83.722466 14 1
23.811508 241.481840 62.625988 51 1
30.413189 245.885910 54.937740 51 1
161.317280 106.376070 -40.008461 22 1
-35.955551 211.614760 50.339905 0 0
46.491024 166.474790 4.702637 0 0
6.225817 211.346300 59.802574 53 1
-189.393840 139.801530 102.174230 45 1
-61.548588 106.455990 71.402130 29 1
27.002729 237.734570 12.606449 0 0
-13.916494 138.971360 -52.735092 6 1
-11.556586 36.710690 4.555861 0 0
-6.533992 159.567250 107.484400 38 1
6.127710 258.240260 99.707558 51 1
-170.356830 75.638123 111.242060 7 1
-142.373120 317.782530 118.514340 56 1
2.879027 254.002490 68.364258 51 1
-21.644785 304.415990 115.399480 41 1
-19.840229 332.886020 27.660769 40 1
72.644257 200.655470 19.923195 49 1
-10.577757 143.390660 19.597994 47 1
-5.548405 21.411488 11.131559 0 0
-20.288908 319.166170 54.665150 40 1
-149.791320 111.373110 84.841957 8 1
-29.460644 189.212650 16.372662 0 0
-5.772686 49.229740 -1.558151 0 0
-59.711227 141.592670 45.086224 0 0
84.229439 119.969080 28.174086 27 1
71.222839 201.850040 32.054485 49 1
15.662270 234.829900 37.073223 53 1
126.444890 137.742680 -41.544849 24 1
39.724068 325.721560 -46.678036 1 1
66.199577 324.381200 -43.224476 1 1
-16.934118 313.756740 115.068350 41 1
96.098587 244.889510 -100.564290 14 1
-93.622040 337.571990 78.115204 2 1
-24.338203 104.893360 86.102417 30 1
-129.552510 167.117100 90.561348 55 1
-20.233006 157.521210 4.926106 0 0
-19.141294 105.824910 2.000784 0 0
15.677427 309.737210 -30.999874 0 0
112.859340 223.823620 41.400280 36 1
-135.153170 98.722374 116.765110 23 1
97.191750 110.826300 30.668747 27 1
-42.174870 268.915800 35.375980 0 0
-5.137993 162.225660 128.136080 37 1
19.102739 160.819120 -96.971764 19 1
-183.010300 142.665630 107.312280 45 1
117.947800 192.008070 -56.967018 20 1
-94.697784 342.342860 68.595200 2 1
-14.636018 39.205788 -9.876214 0 0
13.489022 311.924190 -24.278284 0 0
31.789282 344.010680 -67.782425 12 1
64.516365 269.693940 -14.305581 35 1
36.356743 206.526250 27.194744 49 1
-43.218025 78.677986 16.203894 0 0
14.497498 169.272480 23.262436 0 0
-35.520363 133.359800 -53.614090 4 1
79.040787 229.231400 72.274368 50 1
-10.800938 246.176440 7.913764 0 0
126.964450 196.409230 0.432283 21 1
33.875206 142.460310 1.529554 0 0
-58.749092 208.082890 78.544731 0 0
-52.578167 142.047350 -22.568632 5 1
-8.508916 339.892730 15.200515 40 1
48.188198 152.572390 33.483292 31 1
9.975652 169.961470 15.110750 0 0
-18.716637 343.761780 14.206969 40 1
-26.094151 231.482220 11.057780 0 0
49.368214 241.671340 -88.044632 15 1
-178.307910 138.186520 116.066960 45 1
123.745320 142.315370 -31.205032 24 1
153.673050 163.104920 -55.216831 25 1
-124.685160 217.835860 127.699080 10 1
42.501862 220.197830 71.204491 52 1
-39.038464 223.860870 68.258781 0 0
17.668921 91.664360 -6.134704 0 0
-30.840277 109.254330 65.117615 0 0
2.966761 164.399670 110.709210 38 1
-26.703791 149.201400 6.143469 0 0
-71.926781 328.336820 104.022890 57 1
10.525114 80.461487 -2.980523 0 0
-6.063341 111.177250 -20.712633 0 0
23.050163 345.962740 -51.838646 12 1
-29.657108 310.217070 96.187469 42 1
-120.819430 203.477920 140.511670 10 1
-58.183159 139.939560 -24.594973 5 1
-72.511421 182.460740 151.086170 11 1
1.397327 94.564613 27.198004 0 0
-147.222810 118.365450 84.602684 8 1
-0.982848 224.171140 60.662407 53 1
-7.611678 325.683810 25.567795 40 1
-12.402346 229.022320 42.171955 43 1
15.147113 308.038390 34.824657 40 1
-32.614777 208.879750 15.773991 0 0
-39.180523 218.545970 51.210926 44 1
-114.430630 193.433330 147.647280 9 1
-74.250816 326.438290 91.472504 57 1
-156.822540 164.226170 54.684383 54 1
-110.207310 186.139250 155.386960 9 1
39.715771 213.138920 85.069733 52 1
84.738701 135.459290 -1.615988 26 1
28.665377 348.159880 -45.027748 12 1
-161.508120 81.928711 108.664050 7 1
-27.452589 302.705140 62.241436 42 1
109.991910 219.949260 50.188721 36 1
-24.239429 215.891600 58.772476 43 1
