-6.838011 72.984703 -37.339947 0 0
-29.988718 130.307660 -38.360344 3 1
-36.119530 59.227283 -51.404232 6 1
-38.863258 113.977370 -67.742027 2 1
-27.684612 110.262130 41.434254 4 1
-23.732082 102.882770 -77.812187 2 1
-56.782845 122.480010 -29.226229 3 1
-31.359594 53.440292 -67.611420 6 1
14.118939 102.880820 51.345879 10 1
-14.049299 124.656620 69.308594 1 1
-70.193810 42.526947 27.425556 26 1
68.171707 45.638649 16.823093 12 1
-14.490528 135.986850 50.431973 10 1
-57.027187 124.627350 -48.694820 23 1
1.637096 128.217820 48.696907 10 1
-18.893990 115.288580 25.847776 10 1
-30.893152 104.773280 45.575985 4 1
-10.414991 118.222480 77.844154 1 1
-41.035862 124.760680 -42.163094 3 1
-53.098347 113.393020 -4.981720 3 1
14.264534 46.858803 27.093224 14 1
-76.061974 49.956387 55.654732 24 1
-5.605339 110.587610 -11.644349 0 0
-32.505608 128.934020 -58.017849 2 1
-9.044508 101.002660 89.127365 1 1
10.181559 147.904080 -3.883763 7 1
-20.437540 151.855270 -47.408386 2 1
-14.828737 144.683490 -55.398354 2 1
-38.844185 64.079391 50.682961 25 1
-22.815828 111.140410 28.503981 10 1
-20.631392 75.778900 -65.138123 6 1
8.183370 48.812069 -3.581472 0 0
48.869858 43.939854 27.123774 20 1
16.481445 55.063175 13.066375 14 1
-34.654060 107.449900 34.199703 4 1
-36.275589 64.235840 -42.693905 6 1
-71.001396 51.934570 34.446468 26 1
-27.903358 62.229641 -55.245300 6 1
62.287056 34.957798 -15.060286 21 1
28.584721 43.428764 -57.096455 5 1
-17.205048 126.772320 -70.405342 2 1
12.254942 142.906080 -7.561889 7 1
-4.424972 113.134910 26.658817 0 0
43.602524 51.278854 22.791603 20 1
-34.480618 55.269798 -90.186455 22 1
-39.534241 41.664833 66.462090 25 1
-19.092556 77.402451 -72.398376 6 1
19.914421 145.471330 19.125931 8 1
-2.279093 12.731569 15.919817 13 1
-5.346234 18.809521 -16.141808 11 1
-1.819957 68.572716 -62.502632 5 1
-65.884750 122.357410 -40.435902 23 1
-18.762869 110.578690 74.423622 1 1
-29.028769 67.166161 -61.781723 6 1
-45.308159 138.348620 -8.304546 3 1
-34.104115 137.729260 -57.130398 2 1
-22.883789 66.595779 -64.401611 6 1
16.445108 90.675957 51.873756 10 1
-29.948017 72.735413 -45.181694 6 1
-29.973684 132.106400 -49.416599 3 1
-50.059513 134.976410 -16.390047 3 1
-23.921255 94.698715 76.786240 1 1
-42.569035 127.194400 -59.693756 2 1
61.477367 42.757305 -8.110306 21 1
-39.989235 137.022250 -53.947716 2 1
-50.996128 116.196370 -13.525672 3 1
-13.677691 16.127460 2.159289 11 1
-49.323048 144.500810 -49.860558 23 1
38.042923 57.089149 15.945632 20 1
-38.034607 53.517387 -45.421410 6 1
9.754856 78.026489 -48.941525 5 1
-40.640270 105.120490 28.474436 4 1
-46.973263 141.885990 -24.435080 3 1
-66.123070 110.660310 -40.902905 23 1
0.195267 122.169240 54.322823 10 1
-41.572758 37.186153 -53.093239 6 1
-11.071175 72.092941 -76.165176 22 1
-36.535172 61.438412 -84.642296 22 1
51.934086 54.457428 1.553886 21 1
-9.384589 128.439820 48.824917 10 1
-60.921429 55.556149 52.540405 24 1
9.442872 51.213909 10.954180 15 1
15.687913 51.995586 22.999775 14 1
17.951870 69.933296 -46.249249 5 1
-13.498762 13.989285 -9.499657 11 1
-14.028889 54.785408 -93.207497 22 1
8.211351 144.813960 1.241060 7 1
-37.994926 47.718407 -54.629795 6 1
-31.909822 116.137160 -71.050163 2 1
20.168861 40.540958 -70.820625 5 1
67.757111 37.086113 -12.500048 21 1
-51.346123 119.261690 -3.608561 3 1
-2.814431 141.046940 13.059363 9 1
-63.532127 51.794994 63.587494 24 1
-63.854298 47.930187 41.464046 26 1
-14.700032 119.750180 72.457207 1 1
14.731090 46.686798 -69.480286 5 1
-7.181346 80.598442 -57.261684 6 1
-45.841057 128.694030 -6.162471 3 1
-23.470566 129.427960 40.365963 4 1
-17.902788 129.319670 -23.463938 0 0
-1.807769 113.516190 49.249882 10 1
-0.185827 113.598500 41.564144 10 1
-8.320840 50.507889 -98.296387 22 1
-52.329346 64.152802 39.284527 26 1
3.212151 58.430779 -65.249962 5 1
-31.413279 145.281400 -50.780296 2 1
-64.876305 99.755768 -39.575905 23 1
19.672993 64.714256 -52.443748 5 1
47.348530 58.743015 9.281053 20 1
-52.657993 56.789017 48.188572 25 1
2.447597 64.139076 -76.229126 5 1
-17.986696 66.492920 -80.894196 22 1
53.995995 45.886719 -16.443192 21 1
-16.847738 134.455930 -57.038628 2 1
-0.472992 138.591460 27.291225 9 1
42.962662 42.245609 29.561502 20 1
-4.904208 83.629395 -2.033958 0 0
-57.912628 56.291882 41.505516 26 1
-53.724274 134.524870 -50.793629 23 1
19.190462 48.619968 -61.670776 5 1
-29.146780 120.618000 36.290394 4 1
-58.101135 108.374920 -12.069860 3 1
-14.371685 87.761986 91.167847 1 1
-21.324549 129.139110 30.699093 10 1
-34.159588 61.903606 54.354065 25 1
-20.821388 145.723570 -53.562656 2 1
15.159236 49.609470 5.179640 16 1
-24.790276 51.899860 -93.901154 22 1
-15.822747 72.057678 -70.790527 5 1
-61.343918 128.189800 -47.224342 23 1
9.819390 109.338380 38.178467 10 1
55.820259 53.419571 9.937744 20 1
-2.418122 122.556590 -6.911599 0 0
13.917202 108.603960 52.111641 10 1
4.313084 42.855007 -2.923531 0 0
-0.652225 106.069390 -9.440797 0 0
17.726902 141.200240 8.973126 8 1
-36.517189 136.170210 -16.831726 3 1
22.709599 147.201390 -5.182179 7 1
27.230835 110.014300 39.625195 10 1
-26.223373 71.582756 -57.154144 6 1
-22.516603 77.883720 -51.735516 6 1
-16.010750 143.202560 -49.274143 2 1
-28.953608 119.177960 42.259899 4 1
11.576558 51.005199 -66.018410 5 1
-39.829842 50.506481 33.155190 0 0
6.110304 129.283840 41.783234 10 1
75.307518 42.919815 14.596851 12 1
6.676971 64.930054 -70.444054 5 1
-32.310398 44.410824 -64.227112 6 1
-19.736418 69.745163 -59.060135 6 1
20.396786 117.323370 42.338833 10 1
-27.636959 148.685680 -39.844547 2 1
-9.046185 4.450726 19.867983 13 1
-22.487976 138.278080 -40.504333 3 1
-19.051403 9.902843 -19.996965 11 1
-42.179005 57.789753 48.275047 25 1
-0.791737 26.244137 1.091961 0 0
-17.040552 78.662720 -50.382214 6 1
15.666843 149.964650 -3.516449 7 1
-40.366348 122.008840 -30.680693 3 1
35.255901 48.230186 4.537436 0 0
-21.650681 131.813640 -59.344830 2 1
-2.797921 98.256775 -8.582707 0 0
-29.873184 138.835420 -23.356627 3 1
-26.030960 120.853860 -66.020653 2 1
-1.814221 111.310290 21.951151 0 0
12.548954 64.562576 -62.203190 5 1
-31.112299 72.193764 -39.300823 6 1
57.680412 53.044113 2.601081 21 1
2.042016 52.933739 13.552007 15 1
-39.435078 135.511570 -48.071869 3 1
-0.726036 34.898102 -0.494707 0 0
-5.950700 72.156662 -43.924446 6 1
28.828348 142.753950 24.020878 8 1
-35.291031 41.184277 -58.585335 6 1
-22.971783 112.194530 47.050274 4 1
-14.021654 134.819980 29.572586 10 1
-26.356428 108.225100 -76.561577 2 1
20.880774 128.992340 30.078661 10 1
-49.266869 61.015022 46.632450 25 1
7.914127 72.607292 -58.972000 5 1
-7.972521 119.206120 31.868809 10 1
-72.849525 44.565804 22.890049 26 1
23.676239 46.553181 7.733937 16 1
-15.733884 44.157413 14.730396 0 0
-4.159321 120.555030 51.142479 10 1
-28.289158 94.650513 41.984818 4 1
-33.522678 150.679760 -34.639042 3 1
-4.759039 136.004360 19.078619 9 1
-6.165856 135.643830 27.161366 9 1
4.127534 112.773570 55.212639 10 1
-4.590989 128.701050 29.090109 10 1
-47.149590 140.528590 -35.918663 3 1
-14.426340 71.505470 -61.130608 6 1
-22.948311 74.342186 -75.577095 22 1
21.738619 145.927260 -11.447220 7 1
22.329514 55.235775 -52.725323 5 1
-7.832880 77.573891 -68.336304 5 1
-3.021694 133.182390 -3.075231 0 0
-56.218636 142.113920 -43.579487 23 1
-25.614779 101.362920 46.970028 4 1
61.285755 53.359581 11.118522 12 1
24.924698 106.975490 44.104668 10 1
-71.900108 42.609226 36.396030 26 1
-47.996204 49.028748 59.606529 25 1
-1.546659 72.653679 -71.720734 5 1
33.105553 143.114230 31.202341 8 1
-8.234472 14.945475 6.278063 13 1
-54.509487 52.947285 51.887146 25 1
-37.729309 90.797951 32.439354 4 1
-60.986897 108.394550 -44.992901 23 1
-34.103924 46.193695 -95.841072 22 1
2.337303 136.451840 -1.062188 0 0
-13.180061 51.979210 9.879089 19 1
10.411419 57.487289 -71.379318 5 1
-40.497574 146.521730 -43.096245 2 1
-20.646521 77.176453 -46.352249 6 1
-42.446213 42.605320 -47.703419 6 1
-54.012512 131.624340 -55.590908 23 1
51.462498 50.266079 -13.285732 21 1
-53.198948 124.512080 -35.782528 3 1
-1.684289 54.953518 -95.049118 22 1
-2.792578 65.261879 -66.806557 5 1
-9.925568 70.371399 -52.907875 6 1
-19.138254 8.783273 -4.904672 11 1
52.291119 50.683464 15.951147 20 1
1.911899 54.986504 -75.579018 5 1
8.909705 53.572861 20.434996 14 1
-28.763279 133.201660 -65.267670 2 1
-33.763870 43.120415 66.352173 25 1
20.583618 140.054320 19.703110 8 1
-30.948130 60.847889 -49.272667 6 1
12.641296 47.294220 -74.507576 5 1
-18.051832 120.045070 -70.996674 2 1
1.451176 15.576525 6.908669 13 1
-37.753166 57.886967 -41.217239 6 1
-60.819748 116.827880 -44.879250 23 1
-28.377863 144.994960 -29.929205 3 1
-51.986046 133.450180 -33.693275 3 1
-48.232464 133.020200 -58.208179 23 1
-49.138710 117.337530 -22.960226 3 1
26.999128 116.294580 34.979736 10 1
-62.342670 127.011420 -40.957748 23 1
-28.519598 57.563168 -59.836720 6 1
-49.422504 147.458190 -42.766731 23 1
-4.676884 51.993568 21.728724 18 1
2.775753 12.725703 13.881963 13 1
-0.585581 63.511074 -88.244896 22 1
-17.366096 95.674545 85.564400 1 1
-52.821503 47.948936 57.369968 25 1
-67.445412 106.527850 -37.612152 23 1
-22.084522 33.012978 -103.196820 22 1
1.063067 139.134190 22.094900 9 1
17.021765 56.173592 -57.127430 5 1
-27.648132 137.158510 -31.206089 3 1
12.101412 118.014840 31.638384 10 1
-26.147696 62.499420 -61.631153 6 1
-20.857962 127.139700 63.846565 1 1
15.038110 36.905716 -75.159370 5 1
2.160048 59.849258 11.487446 17 1
-25.505175 135.710450 -24.896690 0 0
-57.996506 114.031040 -10.489901 3 1
13.100629 71.371735 -53.731850 5 1
-39.810917 55.004314 56.947815 25 1
-1.629002 119.781170 26.472330 0 0
18.620346 100.896580 48.999863 10 1
11.252515 129.420230 29.135059 10 1
-7.415524 67.100655 -84.075188 22 1
-47.206341 139.289280 -57.062820 23 1
-40.778397 149.563930 -27.738201 3 1
-34.434933 134.063030 -21.391148 3 1
-18.927237 135.261900 57.456089 1 1
-3.367920 118.783980 86.103912 1 1
-3.952842 73.462326 -59.879395 5 1
-6.155422 27.173292 -1.571539 0 0
-44.160297 55.390564 37.158333 0 0
-11.016669 96.006958 93.079407 1 1
23.536299 122.867760 33.458626 10 1
-39.381321 131.006550 -53.492264 2 1
-32.961040 70.437416 -79.505661 22 1
-18.121107 58.779175 -88.992950 22 1
-40.336655 130.269870 -14.728047 3 1
29.832933 151.936260 -10.469760 7 1
-33.250748 125.659290 -68.174011 2 1
-4.940890 40.936291 -0.065945 0 0
-48.249950 124.545420 -59.682018 23 1
-33.200424 106.736450 -73.223854 2 1
-57.786812 61.752945 32.977978 26 1
-65.032333 56.622990 18.015400 26 1
15.921572 130.500110 33.715298 10 1
-34.176552 149.178860 -42.529751 2 1
-68.065956 51.917118 17.577726 26 1
51.049335 48.212257 24.824413 20 1
-58.778564 117.824390 -19.024721 3 1
-43.510067 143.656140 -12.615209 3 1
-24.592693 139.809940 -59.604630 2 1
-33.495060 65.937454 -47.344273 6 1
-39.538795 119.638440 -58.223190 2 1
-7.565482 44.649040 5.358677 0 0
-3.261215 19.448689 -5.473354 0 0
23.785479 152.386720 -10.033395 7 1
-42.401211 50.441250 -45.273949 6 1
7.371423 138.358260 -0.675031 9 1
-25.184696 126.565390 36.220104 4 1
61.041737 50.515709 17.626831 12 1
-6.710641 136.979800 67.500450 1 1
-47.474915 140.471690 -19.373917 3 1
-17.977594 79.391983 -59.179638 6 1
4.531415 124.434690 29.916054 10 1
28.043171 102.870940 43.223930 10 1
-19.840946 135.837600 -49.558460 2 1
43.696430 46.720985 20.232353 20 1
-6.458551 120.592110 42.104618 10 1
-26.590803 132.723880 -41.589561 3 1
-55.779972 109.210210 -6.746728 3 1
-11.366946 62.532326 -85.771095 22 1
-33.361073 49.739742 -64.527687 6 1
-46.911274 42.598000 64.120323 25 1
-53.604076 131.594180 -23.592173 3 1
19.233973 107.712080 38.745426 10 1
-38.745472 96.590446 26.212162 4 1
-34.880447 56.732437 55.931698 25 1
-56.139721 60.729816 38.306797 26 1
-22.300789 105.112220 50.895622 4 1
-29.959377 67.816307 -55.979996 6 1
-4.759599 53.774483 -0.317699 0 0
-24.484488 125.892620 -63.907154 2 1
-57.200974 123.491920 -21.063784 3 1
11.814279 40.583431 -77.064125 5 1
-31.757414 57.722641 -64.606384 6 1
32.453766 107.524500 34.566437 10 1
-49.487480 119.761700 -33.116013 3 1
-30.600054 118.270120 -64.741951 2 1
-33.698483 61.456974 -56.028572 6 1
-25.579754 66.568687 -53.283657 6 1
19.641472 47.115517 4.468767 16 1
-58.445774 107.936130 -52.701717 23 1
-29.319151 109.849430 46.483238 4 1
-62.037060 56.611912 31.447803 26 1
58.240452 38.212208 -19.764606 21 1
25.323893 50.269707 -56.681908 5 1
-25.036110 125.296430 -70.358856 2 1
-42.600250 131.891300 -8.600082 3 1
-7.954401 105.894290 90.907066 1 1
19.264589 146.272000 13.631182 8 1
-26.440550 97.477089 50.581383 4 1
-64.616829 51.229332 58.295139 24 1
-13.131865 47.030048 11.319409 19 1
20.038492 112.233510 47.382713 10 1
-60.680504 137.070940 -42.948174 23 1
-52.450195 123.284540 -6.623637 3 1
-57.311935 117.384990 -29.679911 3 1
-29.431210 137.204480 -60.273457 2 1
-41.193916 148.589750 -19.476105 3 1
25.734175 43.192406 -62.150375 5 1
75.086060 46.631115 7.910379 12 1
-56.272343 65.319397 29.179981 26 1
-3.668020 90.759247 -7.079443 0 0
-24.496393 3.863013 -12.909480 11 1
6.681965 13.843291 10.587052 13 1
-3.495163 11.766649 1.834543 0 0
3.164268 76.988220 -47.421288 6 1
-31.694725 50.916245 -91.995682 22 1
-35.916801 126.898790 -43.845139 3 1
26.068913 85.475746 49.122829 10 1
17.032459 115.167440 33.368946 10 1
0.740323 4.230533 0.881767 0 0
42.183643 52.929214 4.091532 0 0
-15.163726 106.382970 83.636955 1 1
-57.644203 118.126820 -13.499977 3 1
-0.128717 129.795780 -0.607787 0 0
-59.452049 63.361839 23.435678 26 1
29.066349 46.649380 4.493866 0 0
-45.642998 139.980770 -43.721905 3 1
-29.473270 104.949770 40.501282 4 1
-12.779669 128.793960 44.483547 10 1
20.820366 60.486427 -49.874161 5 1
8.020316 18.960258 9.279747 13 1
-14.821851 133.360550 45.539982 10 1
-49.899456 140.346390 -52.717087 23 1
-46.193615 123.356900 -14.003865 3 1
15.843647 66.761223 -55.397312 5 1
-30.103966 87.481247 44.374779 4 1
-59.075024 93.989143 -45.163975 23 1
-43.968567 56.184959 54.317890 25 1
-30.840605 51.391132 30.349962 0 0
-32.594578 97.169151 42.783554 4 1
-14.778036 36.453690 -104.306180 22 1
14.282736 54.984921 19.180946 14 1
-0.156286 20.007643 8.717364 13 1
-52.188953 144.388350 -45.664593 23 1
-11.697116 79.808197 -65.986839 6 1
-1.678344 63.562702 -1.021752 0 0
-14.540470 70.098198 -79.907471 22 1
15.854431 150.476010 -12.573090 7 1
-65.968117 55.558369 52.492313 24 1
-10.280975 72.405739 -71.033928 22 1
-17.986128 112.116270 -76.650894 2 1
1.665106 128.330410 -5.811420 0 0
-15.030020 123.322180 35.876976 10 1
-11.809433 128.835020 70.982582 1 1
0.229135 75.893784 -55.202888 5 1
-58.454403 115.934170 -53.152302 23 1
-30.971308 31.299641 -103.535550 22 1
67.472183 49.496891 11.536859 12 1
5.838626 60.859539 -61.737095 5 1
-32.588326 129.991100 -65.712547 2 1
-7.555456 58.533920 -90.587906 22 1
-30.731823 54.045044 58.973083 25 1
2.835330 73.645027 -63.364414 5 1
-72.414276 53.480846 52.769257 24 1
-24.592825 143.314250 -55.874027 2 1
-14.916890 111.393150 77.800591 1 1
-50.503654 107.425030 -62.170967 23 1
3.069521 135.944290 4.007309 9 1
-6.567430 53.110584 8.846653 18 1
-34.582108 131.308760 -47.703506 3 1
-16.720644 84.825027 87.903015 1 1
7.133830 114.011140 34.353020 10 1
-54.784466 122.785480 -10.992928 3 1
6.750244 50.912750 -67.236351 5 1
8.417495 143.692990 6.126842 8 1
-0.903368 123.497920 -2.187436 0 0
-38.452507 100.603640 29.135204 4 1
0.933087 129.100490 29.999662 10 1
14.308588 51.006023 9.873520 16 1
-36.336380 84.919746 38.637218 4 1
-12.267389 46.518147 -99.896767 22 1
46.780029 51.113316 15.681177 20 1
59.587646 44.029980 -12.515292 21 1
-41.876579 146.616730 -37.094032 3 1
-25.244219 71.178871 -46.525330 6 1
-34.369957 100.235260 34.122219 4 1
-64.628471 130.767150 -38.649960 23 1
-6.850360 123.981910 48.806286 10 1
11.053087 41.751987 -0.833116 0 0
-12.580760 136.554920 -58.370544 2 1
3.209518 36.765423 -2.817250 0 0
21.342999 99.522957 42.574963 10 1
-34.458084 38.800331 -98.926811 22 1
-31.917049 110.802120 36.858669 4 1
-57.505585 124.074810 -53.581047 23 1
-17.461752 119.388340 28.174616 10 1
39.733925 45.640331 27.307961 20 1
-0.569272 48.187756 19.914690 15 1
24.767519 142.849760 20.282635 8 1
-19.774767 134.650540 -64.591431 2 1
-61.274689 53.577900 39.122051 26 1
-5.104731 72.142151 -49.084694 6 1
-10.440436 53.080883 15.124082 18 1
25.203203 143.221800 27.318361 8 1
-50.248154 56.098324 38.480469 26 1
-71.348335 37.669613 27.501060 26 1
7.487411 49.515961 18.091507 15 1
-4.149962 36.605629 -3.547590 0 0
-31.574854 149.256810 -30.378515 3 1
-36.306347 129.107930 26.244490 4 1
-69.916550 50.342381 29.114754 26 1
-12.842799 5.819979 16.873289 13 1
-13.147933 70.770622 -45.260975 6 1
-18.694935 122.943540 32.390099 10 1
66.344093 43.774792 -8.956303 21 1
-29.316607 112.607150 -68.783768 2 1
-34.583778 55.325722 -48.887344 6 1
10.938313 64.757294 -55.786320 5 1
-34.230453 125.036730 32.807091 4 1
-0.305669 142.083530 18.305456 9 1
-8.175430 19.088129 2.559911 0 0
0.062367 20.070332 -0.502652 0 0
14.903553 110.198780 37.008102 10 1
9.911395 124.268040 49.434002 10 1
0.557232 57.809502 17.618641 17 1
-29.941832 130.728870 32.925152 4 1
-72.661392 44.101044 31.304775 26 1
6.425738 48.611732 -79.483536 5 1
20.397884 92.352577 49.330986 10 1
44.636013 56.571774 15.550046 20 1
1.015309 137.480510 12.207064 9 1
-9.042650 15.858738 -10.291795 11 1
-31.273870 48.221458 -59.641579 6 1
-6.315850 11.404878 13.581774 13 1
-5.291467 71.247711 -31.046503 0 0
60.211720 50.921799 -3.578668 21 1
1.008048 107.912440 50.716934 10 1
20.883364 51.671738 22.168982 14 1
-54.370068 126.917210 -15.362687 3 1
-9.924135 135.982830 51.999767 10 1
-27.868048 104.992070 73.606178 1 1
-13.026002 132.557630 -65.709663 2 1
-14.614185 92.516853 90.388794 1 1
29.201597 148.732480 23.326672 8 1
-55.920071 100.808110 -11.859585 3 1
-35.290447 116.082560 31.800436 4 1
-0.830311 126.763160 81.191032 1 1
-2.972860 46.871101 -0.663527 0 0
-51.718456 130.904370 -13.607340 3 1
-6.912999 56.519089 14.949282 18 1
-24.470322 46.493084 -94.806572 22 1
-43.792179 111.686000 28.818390 4 1
23.965977 151.022600 19.601757 8 1
-39.684315 107.315920 33.139610 4 1
-4.379534 89.834244 -2.426585 0 0
-26.531395 115.034060 -73.734047 2 1
-23.887299 147.404950 -42.876141 2 1
-40.051975 140.238310 -50.403793 2 1
70.157204 53.321033 4.743874 12 1
-2.708444 59.883671 9.350056 17 1
-17.654413 11.311819 -8.684138 11 1
-30.198935 40.578491 64.428711 25 1
-24.116783 123.785130 44.407047 4 1
-1.891798 143.253200 27.409155 9 1
-9.995078 14.516586 -19.697443 11 1
11.536045 98.186134 52.232979 10 1
26.971010 44.711514 0.655281 0 0
-58.953442 109.598650 -18.774603 3 1
-50.758003 118.642530 -57.558155 23 1
-38.764400 46.494576 -94.677353 22 1
-19.719492 126.041630 47.582909 4 1
-62.356968 112.592210 -43.091518 23 1
-45.497154 143.331740 -28.728674 3 1
-40.466175 124.593440 -63.138374 2 1
-20.085180 92.384422 83.449432 1 1
4.633255 107.016300 54.855000 10 1
25.530958 97.327011 45.941669 10 1
32.093212 94.203308 41.297226 10 1
-23.545713 135.092700 32.331779 4 1
-77.302292 44.889557 57.329071 24 1
8.172090 69.049667 -55.650715 5 1
-55.444607 110.151570 -24.059486 3 1
21.126722 44.285984 -62.553410 5 1
2.534568 68.144096 -60.360508 5 1
-21.410046 116.133800 -71.427063 2 1
-15.245571 118.621300 -74.663216 2 1
-5.049889 122.853520 27.652321 0 0
-5.428149 75.984375 -2.262947 0 0
-2.362577 54.157532 25.273788 18 1
-45.136425 121.291240 -34.216751 3 1
-9.476715 109.657390 84.434410 1 1
8.740765 66.365929 -65.804146 5 1
16.402822 141.384930 17.924433 8 1
-39.519695 149.785280 -34.479027 3 1
23.804356 148.851060 -14.682966 7 1
-30.709366 113.781730 42.510242 4 1
70.894638 49.540100 8.206837 12 1
39.454632 53.141441 21.502085 20 1
-32.218803 143.060230 -23.317099 3 1
-39.407078 53.275723 -90.643906 22 1
-71.400208 49.718063 56.400494 24 1
-17.364458 130.328060 60.628021 1 1
-30.009806 63.206223 -65.257729 6 1
-18.862247 45.051933 -99.060661 22 1
-18.633562 127.576260 -65.980568 2 1
2.232000 80.968513 -55.232822 5 1
-35.612686 51.817589 34.805405 0 0
-43.031284 32.784260 -49.586739 6 1
-7.090457 18.627132 -2.249625 0 0
-13.666107 100.571240 87.462685 1 1
-38.044922 48.727203 60.720497 25 1
63.759911 31.099272 -17.321846 21 1
0.021816 138.828930 33.774441 10 1
-37.335510 124.397710 -33.540783 3 1
33.934795 51.671448 24.173521 20 1
-15.382951 141.099110 -58.857517 2 1
6.293808 127.320950 47.759411 10 1
23.973364 115.139890 39.498558 10 1
14.472839 51.580231 15.475941 14 1
-61.018974 103.282910 -44.711994 23 1
-29.140432 51.326252 -71.156326 6 1
-3.430378 136.445240 14.332738 9 1
13.883370 123.839600 44.365116 10 1
-58.794422 49.739807 43.499355 26 1
3.369327 140.600010 15.586884 9 1
31.628572 90.288620 44.564209 10 1
0.205421 61.571457 -67.000275 5 1
19.051458 53.400219 -62.863686 5 1
-39.206127 126.604460 -21.393549 3 1
3.033416 133.929670 30.383753 10 1
-3.214687 111.923210 91.525200 1 1
-24.214165 111.779030 52.371319 4 1
-21.707737 133.474790 37.933964 4 1
-27.714941 58.810093 -88.436325 22 1
11.377489 104.175830 43.772961 10 1
-20.579617 43.563175 20.051016 0 0
-25.427759 144.835740 -35.658665 3 1
-17.190125 128.952130 39.675323 10 1
-46.383038 120.535630 -65.042717 23 1
-11.618234 14.436278 -1.824683 11 1
1.690081 115.001560 35.961857 10 1
-52.423885 110.776480 -55.775238 23 1
-6.471464 78.637573 -53.113689 6 1
-22.904034 99.276016 76.009613 1 1
-37.203236 113.525040 -63.431736 2 1
46.652489 46.521935 23.970463 20 1
51.422798 53.592815 -4.158146 21 1
-43.563232 134.069760 -53.916054 2 1
-5.094986 64.333603 -10.412162 0 0
-41.145443 117.257290 26.095129 4 1
-24.996277 81.000145 -44.762005 6 1
-41.709843 125.482980 -55.477367 2 1
-79.956367 49.970219 53.127987 24 1
-5.529316 16.575577 9.741656 13 1
-38.136784 120.676400 27.588213 4 1
-26.497290 47.821629 64.381332 25 1
30.921206 114.708850 31.970516 10 1
-36.766586 131.089690 -61.991386 2 1
-3.466556 47.093292 -100.936280 22 1
-45.456520 123.971120 -40.663399 3 1
2.218483 120.301270 28.964514 10 1
-35.271240 92.714905 38.295570 4 1
-5.228720 99.555847 -4.601180 0 0
-35.966824 150.165560 -27.213367 3 1
14.025312 98.291580 46.481926 10 1
-39.262421 145.472030 -11.315885 3 1
11.324327 72.421661 -49.577297 5 1
-21.701517 121.641200 64.123917 1 1
-24.185526 2.543662 -18.676012 11 1
-57.934288 115.395060 -48.610466 23 1
-47.943943 124.340450 -7.375648 3 1
23.787945 109.080730 36.747093 10 1
-33.949589 58.300125 -86.752800 22 1
-48.432308 132.341870 -40.740265 3 1
-44.041546 118.097410 -59.890095 2 1
-16.978928 50.993561 -93.498474 22 1
-34.251278 112.202780 -71.054626 2 1
-23.953327 54.537197 -90.154388 22 1
-32.368927 104.599690 36.955856 4 1
70.330696 42.559822 14.215177 12 1
2.547953 71.442642 -67.398346 5 1
19.321079 123.310590 28.529564 10 1
-34.971035 51.155506 -60.262119 6 1
-23.133799 7.988632 -20.748838 11 1
64.964325 39.240501 -9.549197 21 1
64.491745 56.025589 5.542336 12 1
-11.261432 134.538770 63.273319 1 1
9.859186 53.920429 -74.191734 5 1
15.395106 141.098180 12.896083 8 1
9.972843 132.087710 34.905170 10 1
-46.799850 52.712467 53.478214 25 1
18.620005 46.627197 29.685213 14 1
-4.972087 103.121570 93.558212 1 1
-14.027496 12.417353 12.060358 13 1
-57.083061 55.040340 56.405865 24 1
-12.567176 115.740230 -17.265356 0 0
-67.937721 116.467260 -38.142422 23 1
-22.693117 117.870160 28.236391 10 1
65.286957 48.039051 -1.393918 21 1
10.943476 56.341011 -61.144909 5 1
-11.066570 42.944481 -102.770940 22 1
-20.426159 8.354288 -12.897546 11 1
-10.041234 111.068950 -10.724157 0 0
-18.362371 47.399067 16.526051 19 1
48.371887 53.076962 -15.059331 21 1
-2.552662 72.119583 3.279147 0 0
-26.192064 120.407030 63.765579 1 1
20.116795 122.968060 37.803017 10 1
-6.991320 50.921310 17.961010 18 1
56.561512 48.921116 -9.025515 21 1
15.751794 71.490814 -49.894520 5 1
-27.587471 63.433186 -83.362411 22 1
-26.538506 115.380870 41.750801 4 1
0.814435 58.259968 -71.803162 5 1
-24.587822 149.659390 -47.325272 2 1
-4.418303 31.681282 0.245820 0 0
-3.394392 59.651165 -4.501510 0 0
-23.456484 92.052460 80.421661 1 1
-46.821850 57.253139 46.086914 25 1
-25.779678 132.980240 -50.854713 3 1
-19.159004 130.063370 45.008072 4 1
-73.502708 49.100723 31.980021 26 1
-32.629311 64.294708 -82.992943 22 1
-58.027843 109.952540 -48.690170 23 1
-30.737806 98.452858 38.778744 4 1
-57.839981 54.594624 45.747459 26 1
10.329420 140.834350 1.654678 7 1
-4.364922 140.321270 17.456360 9 1
-39.609070 37.732178 64.273285 25 1
-1.688118 62.925133 -77.511902 5 1
-50.637611 115.956790 -18.005779 3 1
-20.029837 86.054382 84.954933 1 1
0.338672 114.726730 -5.186199 0 0
-33.893574 116.850110 37.260696 4 1
-39.771069 125.403050 26.186558 4 1
-40.799892 138.064480 -8.918261 3 1
-53.091709 87.707672 -54.100525 23 1
-34.315334 123.261050 -59.978714 2 1
-26.128307 70.846939 -67.787872 6 1
2.075063 140.475710 6.911456 9 1
-25.151686 63.162720 -67.527351 6 1
12.365346 55.414150 11.259609 14 1
-49.664215 129.912950 -8.280859 3 1
23.143166 152.226240 -5.552219 7 1
-0.296527 15.788245 12.765373 13 1
7.729455 77.483040 -53.091011 5 1
-13.265088 16.389004 8.869310 13 1
51.754166 44.826199 -20.205463 21 1
14.841398 47.617382 22.707804 14 1
-51.764874 115.462760 -9.186855 3 1
-38.753899 58.140034 -45.616611 6 1
-1.330046 82.712891 -4.640819 0 0
-1.279698 78.674873 3.353432 0 0
-35.910690 56.220367 -54.688110 6 1
-31.218225 98.587418 74.582253 1 1
1.757603 49.388382 16.314692 15 1
4.260067 130.584460 -2.988172 0 0
52.330719 56.028164 11.155087 20 1
-57.749477 130.785400 -46.880020 23 1
-51.095867 55.898548 52.720619 25 1
12.823906 146.235140 8.426745 8 1
-28.940632 105.942570 49.489204 4 1
-60.861176 47.521023 63.098293 24 1
9.688932 49.807163 -76.717751 5 1
67.743073 44.087963 -4.753961 21 1
13.630259 60.361866 -64.422607 5 1
-64.491074 57.981030 22.206846 26 1
-32.094967 51.029709 61.930344 25 1
34.447807 48.335720 27.053095 20 1
-3.800234 13.955519 5.680253 0 0
-3.469667 55.969189 17.813021 18 1
-22.667204 38.770504 -99.827133 22 1
-24.604939 74.807716 -54.166008 6 1
18.390722 104.109490 41.295841 10 1
-28.742777 59.723412 -70.039246 6 1
-19.870575 105.333530 75.883514 1 1
15.975059 63.548683 -58.668251 5 1
15.286052 143.842040 0.675080 7 1
-52.180439 103.955900 -56.899075 23 1
-65.402443 53.280216 26.266804 26 1
-30.391775 54.019756 -57.198597 6 1
6.923467 101.748890 53.527031 10 1
-36.849930 125.182230 -28.716068 3 1
-20.241880 118.211470 48.421093 4 1
20.358665 151.665500 -12.702722 7 1
31.664303 141.712600 27.223696 8 1
-17.863619 114.559360 72.771545 1 1
-20.748665 138.422560 -61.442509 2 1
-63.247250 54.587528 35.302578 26 1
45.797096 53.149033 19.456116 20 1
-4.127776 139.395540 35.413769 9 1
-20.767036 29.868732 -105.973080 22 1
-5.233761 140.080690 27.744598 9 1
-3.973781 111.190040 -4.071604 0 0
-26.491104 40.297241 -98.202034 22 1
-20.575108 124.127880 -71.491142 2 1
-11.201912 136.771090 59.499157 1 1
-32.185089 127.140770 29.522200 4 1
-44.985016 103.340850 28.178919 4 1
-0.847995 93.886276 -5.824332 0 0
-20.621744 131.917390 -25.743128 0 0
39.297432 43.343758 31.882313 20 1
-30.419687 69.079247 -51.345886 6 1
29.587692 154.950640 -13.637588 7 1
3.854341 109.876300 41.867199 10 1
-7.398369 125.134740 75.790680 1 1
-36.509903 87.050278 30.541361 4 1
25.044922 120.297560 29.326334 10 1
-35.377304 130.837370 -55.238323 2 1
-25.468315 115.183840 68.714783 1 1
-31.357925 100.328400 45.633060 4 1
22.106295 36.654457 -69.745872 5 1
-18.961464 100.190690 82.296318 1 1
58.863838 50.329952 13.136681 12 1
-58.734306 101.508450 -51.568363 23 1
28.342844 101.426040 38.482227 10 1
-2.117422 6.964315 2.746051 0 0
-19.542242 79.219551 -54.632030 6 1
-20.408306 142.144730 -42.483997 3 1
-35.030838 44.994583 -56.304245 6 1
-14.578444 135.088970 57.228752 1 1
12.837025 126.223180 40.872334 10 1
27.844006 47.128147 -54.919342 5 1
32.529648 102.647540 36.145966 10 1
75.470169 42.634636 10.254022 12 1
-69.667046 50.439323 21.726742 26 1
-21.463060 129.321580 -63.170383 2 1
-14.337058 14.304342 -23.979540 11 1
24.422874 112.824360 34.477097 10 1
-10.693007 74.125656 -43.978527 6 1
-19.598171 8.491069 2.063388 11 1
4.582226 57.881268 -77.423874 5 1
8.068214 44.765839 -1.847384 0 0
-1.600096 137.939560 3.775399 0 0
-67.819832 48.524746 36.661850 26 1
-20.867990 148.510600 -50.232426 2 1
-42.921871 121.519470 -26.823587 3 1
-1.656555 131.188830 -6.682310 0 0
-14.376666 123.859550 28.008776 10 1
-6.800261 106.812460 22.364065 0 0
-25.821915 103.296880 52.863041 4 1
-17.889725 77.391113 -68.081001 6 1
30.202866 97.872490 42.612530 10 1
-23.026232 46.782463 18.497858 0 0
9.041861 145.919330 -7.561047 7 1
-14.720816 120.591680 -19.440403 0 0
-20.160442 71.366844 -71.062447 6 1
-14.166818 132.093900 65.822639 1 1
-46.023430 60.199532 49.440056 25 1
-17.836086 135.587140 38.229950 4 1
-13.571150 115.647200 79.915977 1 1
-30.620247 37.729984 -100.915470 22 1
5.092485 51.557064 10.817192 15 1
-2.202644 136.214370 22.604240 9 1
-4.200524 0.654158 -1.357457 0 0
-4.294116 121.839250 83.192039 1 1
17.031219 42.841923 -68.943047 5 1
-49.801029 137.303570 -33.584217 3 1
17.252853 149.457930 0.503274 7 1
-3.620393 67.640892 -3.208581 0 0
-9.405869 10.829395 -0.444871 11 1
-49.260849 125.978600 -39.605457 3 1
-3.293515 84.272530 9.923907 0 0
63.868122 45.806816 16.601206 12 1
-24.986103 117.805150 47.703079 4 1
-22.607851 135.694350 -43.952644 3 1
-24.877020 120.092760 41.041893 4 1
50.660503 53.345955 5.663053 0 0
-41.888119 61.057693 51.072651 25 1
-6.954204 42.187767 -103.866360 22 1
-32.306332 130.916980 -28.949804 3 1
27.736565 107.298350 36.296566 10 1
-47.841476 111.457310 -64.007469 23 1
-32.601471 62.869789 -44.475906 6 1
8.199764 46.300270 -74.740158 5 1
-31.463329 110.305930 64.225433 1 1
18.501110 116.026530 45.964615 10 1
-5.045648 72.908745 -22.214209 0 0
-54.002769 138.509380 -52.440674 23 1
2.746438 54.634361 -79.764908 5 1
-40.149120 39.753395 -49.923950 6 1
-27.565870 118.889250 -71.895737 2 1
-28.225826 144.381760 -53.485928 2 1
-60.231941 51.671486 60.871132 24 1
52.895233 51.287395 20.137506 20 1
-43.009300 130.591510 -43.755909 3 1
0.179593 125.810180 52.090309 10 1
-10.418955 76.176666 -74.120911 22 1
-28.748701 107.148930 -72.886185 2 1
64.249062 43.662258 23.158617 12 1
-3.537641 55.728493 10.326460 17 1
-21.609062 130.600560 34.699440 10 1
2.671600 134.748200 34.787338 10 1
-7.312129 108.075940 -8.645672 0 0
-7.706093 114.630150 24.379116 0 0
-26.172426 95.143234 46.921421 4 1
-12.365694 137.254710 46.814713 10 1
-24.283976 3.026996 -8.691753 11 1
-26.472065 74.483330 -43.446274 6 1
61.183830 38.768337 -16.737114 21 1
-52.732685 112.551370 -14.879176 3 1
-22.795771 124.627540 39.750496 4 1
-10.304148 69.072189 -79.669106 22 1
-54.091412 130.233660 -27.796129 3 1
14.604698 117.717810 49.014942 10 1
-24.032459 102.879130 74.048958 1 1
26.310450 38.518848 -65.495209 5 1
-75.787102 48.205681 59.528572 24 1
-8.929771 73.171021 -55.945663 6 1
-32.442810 87.832504 40.011280 4 1
1.129859 41.211895 0.395155 0 0
16.766680 145.717580 25.281073 8 1
-27.150028 44.653999 -97.537796 22 1
-29.552685 124.967480 37.221592 4 1
-61.189220 123.954590 -48.238297 23 1
6.727408 134.769610 33.107025 10 1
-3.234075 117.060070 41.947315 10 1
-32.627625 128.389710 -35.661953 3 1
-12.073556 128.157030 28.083374 10 1
-1.667838 74.268738 -51.353817 6 1
-12.863594 140.983640 -54.562897 2 1
-26.514334 114.672630 64.313492 1 1
-36.385849 49.264000 -50.957275 6 1
-8.189239 132.287410 70.997391 1 1
-3.506932 77.330170 -64.460838 5 1
-58.383595 115.412570 -25.938610 3 1
42.108299 47.535728 24.070204 20 1
-36.938339 96.972557 35.475395 4 1
-34.871769 93.996147 32.044388 4 1
-3.850588 65.446480 -72.483856 5 1
4.037612 51.424053 -74.774178 5 1
-4.080574 75.281242 -69.372101 5 1
-17.039186 131.770520 28.131948 10 1
-1.312037 97.897339 -4.584259 0 0
-49.504440 99.205330 -62.983894 23 1
-1.395728 71.510002 -1.457712 0 0
-29.667906 151.300750 -42.644318 2 1
-13.502268 12.589275 -15.579243 11 1
27.737560 149.646270 -13.385777 7 1
60.325363 46.714687 -8.998214 21 1
-5.969690 103.217700 -6.648645 0 0
-2.927941 116.337010 24.356495 0 0
0.571814 137.139570 -4.842938 0 0
-35.638393 62.271511 -47.784775 6 1
-55.385540 127.224020 -20.328711 3 1
-24.432966 114.468700 30.509691 10 1
1.903275 133.121520 39.179790 10 1
-7.047504 74.595108 -77.347641 22 1
-11.051905 53.026909 -95.602127 22 1
-10.174912 49.892460 12.394184 19 1
2.206886 76.513794 -51.488766 6 1
-20.041283 113.709530 53.201450 4 1
-9.407483 52.900726 22.883696 18 1
-10.294428 136.683240 35.826805 10 1
-18.135172 127.554630 -19.621653 0 0
-9.615898 113.898800 84.566727 1 1
-11.359564 45.598209 3.826480 0 0
-23.091314 119.303020 -68.588921 2 1
-59.350895 95.960991 -48.989353 23 1
-29.196112 137.183460 -27.297359 3 1
-61.782734 98.869118 -42.290714 23 1
-63.896107 120.026070 -44.253574 23 1
-14.557189 40.540977 -103.380200 22 1
7.895165 117.726160 31.679617 10 1
-13.716765 87.109276 95.288086 1 1
16.127876 127.510020 37.741047 10 1
-24.471313 69.224091 -50.151352 6 1
-17.728792 10.696185 -1.317850 11 1
-22.875338 111.141590 73.862915 1 1
9.498012 68.460892 -61.924320 5 1
-49.238731 138.542760 -26.412298 3 1
17.920887 65.399864 -48.705360 5 1
-36.880859 51.855930 -55.574417 6 1
-4.274556 68.196945 -15.281720 0 0
-23.322222 6.539498 -4.817127 11 1
18.568298 141.759540 23.075483 8 1
-24.893394 67.375389 -81.227371 22 1
-50.509674 51.724468 51.832764 25 1
-21.435253 84.160904 81.222664 1 1
-54.410633 126.474590 -57.478035 23 1
56.113365 55.984257 5.113301 0 0
8.384896 54.075237 8.010985 15 1
-15.755211 129.885150 -68.041512 2 1
48.955570 55.880508 -6.811531 21 1
-35.289516 64.759987 -38.636879 6 1
-48.667168 127.585620 -62.700336 23 1
-40.138866 51.004421 -48.907356 6 1
-7.489799 60.212570 -5.003871 0 0
-2.900225 119.321710 -4.288828 0 0
-4.575921 131.805420 74.658974 1 1
-5.767006 16.126925 -5.389277 11 1
13.474203 121.664820 30.114723 10 1
7.491074 16.580688 13.668725 13 1
-0.284823 11.782221 6.642601 13 1
-26.707115 111.890500 49.042957 4 1
-53.262260 113.489160 -25.346012 3 1
-40.459511 44.265594 -51.068256 6 1
35.878441 47.192677 0.550810 0 0
-30.472256 105.877470 70.440315 1 1
7.126179 94.295715 54.419624 10 1
-4.315058 114.738850 86.554077 1 1
-47.977493 103.824650 -64.186798 23 1
-15.323135 45.729233 -96.987320 22 1
-2.732377 102.326930 -9.468553 0 0
-57.443874 139.418810 -46.625099 23 1
23.846592 146.799640 18.447914 8 1
-18.369406 69.833305 -77.790634 22 1
-50.314251 57.447132 43.445831 26 1
-44.207897 50.140598 60.958282 25 1
-19.999205 122.352350 45.626389 4 1
-8.496651 39.185432 1.671027 0 0
-23.121799 97.816589 79.888763 1 1
-47.351109 114.919670 -61.660019 23 1
21.448288 98.074768 47.882198 10 1
-33.786469 52.792927 -52.189896 6 1
13.954521 59.242485 -57.388752 5 1
-42.845104 41.935223 63.753448 25 1
-53.662037 115.798120 -54.048363 23 1
-31.194738 93.158012 38.820179 4 1
-58.508465 59.066776 52.326069 24 1
5.501794 68.550720 -67.870781 5 1
2.921752 144.233440 12.305741 9 1
-25.846327 131.423100 31.618763 4 1
-17.534437 68.757324 -51.960201 6 1
-5.990083 119.001370 36.023636 10 1
-17.493649 120.390890 69.220345 1 1
14.614111 53.780697 3.222478 16 1
-5.522650 70.719856 -62.537643 5 1
-9.228165 122.507470 78.478149 1 1
-41.132637 115.953580 -64.607559 2 1
-45.598328 142.738780 -32.811665 3 1
-55.578293 119.506360 -56.569622 23 1
-1.523816 106.276580 -4.386916 0 0
-68.639557 46.735897 59.871414 24 1
15.005750 150.006350 -7.760559 7 1
-24.973274 132.859180 -56.882317 2 1
-64.846306 55.311935 56.442623 24 1
2.639528 103.956950 52.011166 10 1
-42.836861 137.608180 -5.102520 3 1
-33.176502 53.880474 -63.217346 6 1
-31.477610 64.413727 -57.825447 6 1
-4.977661 86.280800 -5.168951 0 0
-5.024708 91.413628 12.086740 0 0
11.682185 144.873840 12.125941 8 1
-22.281260 74.889297 -61.490139 6 1
-35.544880 116.130330 -69.151115 2 1
-22.777601 138.773120 -30.029224 3 1
-10.636693 120.627310 29.097454 10 1
24.085894 43.617569 4.903337 0 0
-17.960293 12.745590 -22.737785 11 1
-11.094627 77.262283 -49.056545 6 1
-23.842037 127.315650 58.977722 1 1
2.441120 76.556290 -59.827225 5 1
17.388369 47.238964 -65.135490 5 1
-28.470427 55.023907 -65.182213 6 1
-52.293198 95.327766 -56.977077 23 1
-31.363056 69.427315 -47.248867 6 1
13.286889 93.146408 50.677551 10 1
16.072638 144.651820 10.494200 8 1
-10.546434 80.744614 -62.178356 6 1
-27.606298 33.241501 -102.272030 22 1
70.033150 42.354202 18.380457 12 1
-39.644608 44.595428 63.620625 25 1
-29.760931 49.854984 -66.441666 6 1
-29.902765 126.950780 -60.452549 2 1
-35.502274 42.618793 -62.429028 6 1
-19.668049 41.674400 -101.201810 22 1
4.708117 97.692451 55.078857 10 1
-29.457569 142.737080 -26.322065 3 1
43.905640 39.353271 32.332470 20 1
-13.555376 120.434680 76.303658 1 1
-27.039127 103.743070 43.948421 4 1
46.163067 55.755962 11.866425 20 1
-8.322401 136.464810 43.581604 10 1
9.157631 48.364182 0.342401 0 0
-4.329110 57.557301 -93.293610 22 1
-10.460912 10.753833 13.401907 13 1
-16.851139 125.031430 50.279144 4 1
4.848622 70.243713 -57.735523 5 1
-30.709820 92.590164 45.264317 4 1
-47.259266 139.165120 -40.088665 3 1
-57.430878 86.153694 -47.105434 23 1
-10.023871 116.319270 -14.143273 0 0
-17.924349 135.581820 33.299774 10 1
2.896280 143.726670 20.177929 9 1
-7.378037 73.637871 -28.401489 0 0
-4.109248 70.707329 -74.284462 5 1
-13.568069 133.514910 -61.057983 2 1
-18.530914 104.378770 81.305428 1 1
-37.491638 145.197270 -16.514671 3 1
-51.604755 134.041370 -20.472868 3 1
-17.017477 139.291750 -48.802643 2 1
16.402052 145.076220 16.226299 8 1
32.124825 139.228360 30.606703 8 1
-32.884525 103.412340 42.027260 4 1
-5.830449 60.246929 -1.299723 0 0
-34.651016 68.233078 -41.137863 6 1
21.609118 144.208070 -7.693111 7 1
16.844536 38.410667 -71.673988 5 1
49.753273 53.059128 18.008444 20 1
17.270393 94.184608 47.548096 10 1
61.851933 46.915577 -3.324620 21 1
24.845604 93.358246 44.419830 10 1
-20.058451 108.765440 78.122818 1 1
-5.526294 10.630661 17.461390 13 1
-68.832794 46.394791 28.787083 26 1
-38.862484 114.179480 32.665691 4 1
-31.321463 109.405750 42.945267 4 1
22.063789 105.994690 46.767570 10 1
52.155849 43.248276 29.349258 20 1
7.884204 120.940610 52.602448 10 1
8.506462 130.012790 38.630325 10 1
23.129753 49.495224 -60.355339 5 1
-6.207663 48.187420 -2.714879 0 0
-17.799215 126.794420 67.505432 1 1
-61.302235 59.826557 23.934975 26 1
-26.581160 110.394870 -71.918968 2 1
-19.138916 117.506940 52.238613 4 1
-37.664513 135.610600 -57.053688 2 1
-5.279565 108.629150 89.352539 1 1
7.770886 104.168450 45.691860 10 1
50.143879 58.002598 0.963480 21 1
-55.397747 96.296204 -54.598331 23 1
-37.242161 123.700900 -66.130180 2 1
16.428129 56.928875 -63.793587 5 1
-2.770159 8.721343 -0.918478 0 0
12.909085 122.007140 47.795082 10 1
-22.149055 111.928840 -77.165352 2 1
-15.016529 92.437981 85.833023 1 1
-57.958282 144.455180 -40.833096 23 1
-38.285580 124.433170 -39.239189 3 1
-28.526024 63.215771 -51.415466 6 1
-51.337669 114.903430 -60.761513 23 1
18.801041 120.825150 41.224255 10 1
-26.135511 66.026924 -71.185463 6 1
-8.664468 70.526711 -67.896072 5 1
-2.604964 55.716476 -3.067862 0 0
-4.841186 40.498486 -4.133840 0 0
19.410391 151.264850 -4.457026 7 1
-15.971893 109.580580 81.383499 1 1
-43.010918 107.833880 30.198450 4 1
-55.255703 124.718130 -32.157558 3 1
-57.652302 123.066300 -25.376701 3 1
-49.577766 49.097122 55.317902 25 1
-16.981236 42.732220 11.212213 0 0
-56.599213 110.758690 -55.693085 23 1
-14.250036 80.646698 -54.840828 6 1
54.766758 48.909100 -5.107752 21 1
-20.621092 61.459457 -86.313461 22 1
9.609222 51.015785 15.071209 14 1
1.716815 68.066673 -74.957253 5 1
-29.156641 90.695625 42.005821 4 1
-42.782696 136.891970 -46.394772 3 1
26.051847 55.799397 -51.204945 5 1
-65.968918 123.048580 -36.382511 23 1
-37.414333 143.141200 -49.048420 2 1
0.104539 141.003130 10.360568 9 1
-21.220411 50.515995 -92.833855 22 1
-23.851429 115.375730 44.771175 4 1
-36.489628 104.961740 36.746731 4 1
3.718779 128.753830 45.097027 10 1
-13.276450 68.409012 -52.078651 6 1
-31.554773 122.111950 33.013187 4 1
21.656576 144.708250 22.750248 8 1
-13.917992 145.683580 -51.555634 2 1
-67.401115 49.645802 40.544491 26 1
6.994392 110.120430 54.128880 10 1
-2.716384 20.362267 2.313244 0 0
-26.743097 97.023102 75.041321 1 1
-24.913019 61.792362 -85.894424 22 1
-45.599552 122.255970 -18.989201 3 1
-47.243736 132.444140 -6.425814 3 1
-1.753649 76.139709 -3.737688 0 0
-38.557533 39.790001 -56.829849 6 1
9.939797 49.833569 -69.912025 5 1
53.475517 54.212708 14.597198 20 1
17.830429 49.532154 20.757309 14 1
-10.833351 16.612732 -23.067366 11 1
-69.523125 42.613655 33.208107 26 1
-50.817505 107.611680 -58.130051 23 1
-5.525244 52.445469 -96.248734 22 1
-50.492268 126.253780 -56.827892 23 1
-0.894238 112.648800 53.383293 10 1
-1.491791 15.919701 -6.162130 0 0
-10.749411 56.263073 -91.560852 22 1
-35.196823 121.188600 30.184578 4 1
-5.784802 116.088800 28.951761 0 0
-1.455475 24.529537 -2.407537 0 0
-22.579443 108.468860 48.829529 4 1
23.425661 61.852467 -47.154686 5 1
-46.796062 53.632423 57.319695 25 1
-4.814197 72.814850 0.026479 0 0
21.171188 50.572224 3.188352 16 1
8.867664 61.624088 -70.751152 5 1
-11.364224 41.662239 7.569587 0 0
-39.939884 51.300049 58.292484 25 1
-22.262249 120.111360 68.232231 1 1
-36.076500 110.788370 32.586521 4 1
-1.020037 113.168710 45.387154 10 1
-35.861839 148.388430 -23.703394 3 1
-41.252483 102.403020 31.317760 4 1
-58.244892 100.708500 -47.747498 23 1
8.459251 126.355460 29.818808 10 1
-13.156405 125.622480 -70.234604 2 1
-72.177879 41.935280 20.045826 26 1
-56.870930 120.780800 -49.493450 23 1
-42.283367 123.652830 -22.427366 3 1
-59.154869 112.200710 -52.144356 23 1
-26.936857 70.221008 -79.315559 22 1
-4.356656 96.066063 16.100853 0 0
-67.422623 50.244213 33.076408 26 1
-43.224068 122.718830 -61.064030 2 1
66.883400 45.948734 13.112677 12 1
46.572018 43.830753 30.304247 20 1
-23.864832 138.564100 -36.625553 3 1
-32.057091 141.951020 -54.102528 2 1
0.842469 124.469730 -5.563989 0 0
-71.266335 46.691025 35.803413 26 1
-57.729855 134.204150 -49.687088 23 1
-24.422018 87.009247 80.380089 1 1
5.906508 100.647090 49.750969 10 1
-71.816162 48.221291 24.131868 26 1
27.238049 139.333710 26.380938 8 1
-33.276909 113.528260 39.312183 4 1
-40.524574 34.578903 -56.019421 6 1
-26.287228 120.361180 44.865402 4 1
-4.953680 75.729897 -45.162682 6 1
-56.706818 113.006060 -6.883060 3 1
-17.790567 142.218730 -45.935726 2 1
-9.717084 115.386370 80.506454 1 1
-54.568172 107.945430 -53.179142 23 1
28.354216 89.587067 46.963688 10 1
-19.961964 81.613838 -51.514774 6 1
11.457014 51.139477 7.160453 0 0
-21.642830 135.473080 -24.383831 0 0
-5.764727 132.453640 29.440239 10 1
18.017780 52.661270 -59.120026 5 1
-23.480637 73.301208 -66.118248 6 1
-6.408894 55.831188 22.442028 18 1
-21.152037 115.867270 68.591415 1 1
-31.589018 109.442020 -70.345612 2 1
-10.753383 123.413340 40.554085 10 1
1.583437 56.870968 13.976206 15 1
-53.751560 116.555950 -31.030153 3 1
17.730501 128.692500 27.697725 10 1
-4.641978 79.761612 -1.641919 0 0
-36.758286 110.756950 -66.242546 2 1
-24.624023 133.087050 -65.822395 2 1
-52.394875 122.809380 -54.965981 23 1
-3.791984 69.576569 -81.915283 22 1
-33.066128 119.624510 -69.423470 2 1
16.777708 142.910720 -2.878195 7 1
-9.456214 53.633274 11.397831 18 1
-53.126003 110.966710 -59.595421 23 1
64.052971 50.785198 10.210100 12 1
23.336090 58.988579 -52.655273 5 1
8.907077 117.209990 53.086739 10 1
-35.639771 109.797780 37.331520 4 1
-5.008757 101.834900 19.166668 0 0
18.396664 43.622475 0.518453 0 0
-4.590625 109.419750 20.008749 0 0
-34.644829 96.464333 39.068657 4 1
-16.087366 13.981409 -0.073622 11 1
-6.067886 128.726350 50.910412 10 1
-28.166876 130.675720 -45.754501 3 1
11.582108 67.450989 -53.026188 5 1
-7.185638 7.908854 19.906845 13 1
27.768600 106.414220 41.499046 10 1
-26.113525 111.193800 70.684418 1 1
-45.576275 144.065460 -21.552078 3 1
-6.532872 119.998370 80.518112 1 1
-30.112988 113.880870 63.117916 1 1
-9.327066 71.049812 -63.181889 5 1
-54.109375 51.199265 55.316349 25 1
-12.058459 103.222570 84.770599 1 1
-55.849003 105.272960 -12.608827 3 1
-1.828352 38.661983 0.213656 0 0
54.617317 46.729362 23.447622 20 1
-3.859133 75.799362 3.332731 0 0
-47.273808 45.948940 61.924931 25 1
25.697399 119.595970 33.456638 10 1
-22.877193 121.031040 47.939072 4 1
11.477008 43.562904 -74.635979 5 1
-69.677994 56.132439 53.379642 24 1
-28.603737 128.530080 35.798286 4 1
-6.723446 13.195803 -2.851646 11 1
-4.256720 60.684456 -90.515442 22 1
57.585312 44.084599 -8.334634 21 1
-1.959489 43.167408 -1.203068 0 0
-30.475786 44.580662 -95.594566 22 1
-32.406731 43.497635 -67.967194 6 1
59.490742 40.005741 -12.780552 21 1
-34.602757 150.544200 -38.343693 2 1
-0.391935 60.102997 -74.958420 5 1
-40.650902 113.691180 27.452522 4 1
-2.870957 116.897160 50.904079 10 1
18.840033 56.582222 -60.714230 5 1
-13.288998 127.993180 67.534370 1 1
-29.972980 151.692890 -33.123413 3 1
-6.598608 21.327440 -5.146504 0 0
-58.365173 119.957370 -53.082314 23 1
-0.851048 30.225670 0.614968 0 0
-16.607956 72.350800 -46.024265 6 1
-55.112858 89.837044 -51.509983 23 1
4.181114 54.166740 -65.599709 5 1
-40.957729 133.635250 -51.054214 2 1
-1.538649 141.940220 22.384621 9 1
58.078552 50.582245 -0.406891 21 1
-7.672607 138.552060 18.778358 9 1
-55.737312 126.687440 -28.592123 3 1
18.164555 59.998161 -52.724262 5 1
-15.339462 75.773697 -73.560539 22 1
-50.702423 119.144960 -7.580118 3 1
-41.899837 52.808258 35.450653 0 0
-13.803441 50.129738 13.604813 19 1
-43.359196 146.450520 -28.108995 3 1
22.104017 56.388409 -56.370285 5 1
-53.949894 130.843980 -51.824810 23 1
-4.989854 66.913910 -18.838610 0 0
5.170972 134.254460 -2.414930 0 0
-10.809317 120.494450 34.178413 10 1
-37.349617 86.953964 35.148758 4 1
66.094734 34.904598 -15.386335 21 1
1.765670 13.736978 10.286700 13 1
5.998032 120.732630 30.277678 10 1
-3.796684 80.508842 -59.197521 6 1
-29.933002 44.506725 65.725342 25 1
-18.765448 8.870708 -16.329815 11 1
49.492561 55.418686 8.649662 20 1
-22.866339 106.481740 -75.845490 2 1
-50.562740 130.105000 -56.184052 23 1
-2.267918 81.005951 7.755519 0 0
-28.170527 69.183380 -45.107876 6 1
-40.350075 58.535015 -38.498863 6 1
-1.348653 134.019620 40.958038 10 1
-51.012897 99.277023 -59.480293 23 1
-22.856432 74.356384 -45.053501 6 1
-6.293576 52.443668 -3.591334 0 0
-39.603119 128.394180 -62.145264 2 1
66.699501 44.916195 20.362104 12 1
27.446785 146.012950 25.421082 8 1
22.452505 52.161079 -55.050900 5 1
-56.428410 100.006940 -54.208305 23 1
-42.885830 131.606200 -56.845600 2 1
-60.322865 59.927914 30.698925 26 1
-28.331669 101.295430 72.436462 1 1
-2.118364 49.507626 23.137796 15 1
-18.214363 123.788150 27.591543 10 1
-3.596952 107.241130 -11.543434 0 0
-30.203571 150.026440 -36.936150 2 1
-12.296840 71.137947 -57.982346 6 1
15.648123 50.529594 -63.314587 5 1
-61.017147 60.498619 49.861546 24 1
-25.359009 111.965340 44.086956 4 1
-4.575477 136.294100 39.051624 10 1
-21.683786 114.596550 72.857567 1 1
20.857458 120.011450 29.826630 10 1
-37.728432 104.718440 31.115164 4 1
-0.225658 12.751031 -0.760850 0 0
-56.493805 128.035640 -54.043854 23 1
60.195595 49.069820 21.150797 12 1
-16.821957 84.936165 91.736168 1 1
27.370901 113.133670 37.090202 10 1
-42.146141 146.216310 -15.176710 3 1
7.571587 56.929722 -75.090240 5 1
-12.340454 108.426560 82.170769 1 1
13.936543 47.196503 30.844799 14 1
-7.718432 18.070036 -13.056545 11 1
6.368155 135.965730 2.069833 0 0
-4.339759 126.702210 77.604988 1 1
25.837713 41.449646 -58.769421 5 1
10.190119 72.784645 -55.964233 5 1
13.789561 50.457111 26.052464 14 1
-33.963234 42.010513 -96.885033 22 1
1.344971 104.775190 55.461449 10 1
4.149854 106.638450 44.994877 10 1
-35.314865 37.636887 -60.739582 6 1
-18.104460 135.744290 -53.055485 2 1
-64.444191 108.338870 -43.485737 23 1
54.493732 47.982960 -13.347695 21 1
0.947238 45.144379 22.047239 15 1
-26.992466 92.566666 77.595253 1 1
-4.523806 56.672562 -8.040531 0 0
-5.838581 121.304660 46.299389 10 1
-38.321434 55.654335 -48.547421 6 1
-20.646132 68.391502 -67.210587 6 1
-3.237298 80.161125 -54.429207 6 1
-30.172630 64.172600 -47.214153 6 1
10.999226 75.327164 -51.946621 5 1
19.477673 41.485542 -66.426773 5 1
-2.310751 132.404530 44.684101 10 1
-25.450697 75.929039 -50.427662 6 1
-4.876472 65.313309 -0.103387 0 0
