-17.987226 104.831470 69.743729 27 1
-39.485874 276.622250 54.740536 30 1
-18.925337 90.679558 -1.076140 0 0
-20.499622 276.529110 28.681335 29 1
-66.528816 186.099260 -18.931454 50 1
-29.568541 112.488600 -9.710809 0 0
-62.578716 156.548430 -47.284370 50 1
13.464981 96.797295 70.450089 26 1
-63.894176 99.216553 28.065239 16 1
-31.816454 263.093600 48.170376 30 1
-92.805687 262.983000 54.057224 54 1
-35.678402 113.859920 8.724721 0 0
-93.981598 259.174440 -15.747874 20 1
-84.688652 173.148420 -41.113480 2 1
-14.591030 168.267070 -63.845203 39 1
-66.730774 293.905550 1.278202 18 1
-14.119893 156.799120 -63.735489 39 1
-62.271088 111.966260 20.471556 16 1
-47.684052 183.525710 -35.821171 50 1
5.234044 62.250957 11.987848 0 0
-45.244373 238.309040 16.474585 0 0
-58.700527 250.769330 7.993843 0 0
-74.490921 133.917280 -57.960869 48 1
-8.047709 178.182590 -29.252684 39 1
6.059527 125.088550 1.677296 0 0
-16.205063 65.699532 15.711149 0 0
-35.512871 287.661220 13.234780 31 1
-13.997705 185.179610 -37.154446 39 1
-66.128204 183.680790 43.778034 40 1
-3.382412 121.915740 35.280807 0 0
31.420187 159.055160 6.077948 47 1
-9.048348 100.560930 7.136180 0 0
8.249793 212.084760 -15.268203 22 1
-91.576958 241.487410 -4.102709 20 1
37.258743 129.390440 -29.210911 3 1
40.964935 252.049120 21.337355 1 1
-45.468849 279.951200 14.860003 31 1
-43.775562 266.451110 50.725365 30 1
-23.969763 86.959457 7.653837 0 0
28.545437 116.328910 -0.887052 4 1
33.518116 200.372510 45.827385 35 1
28.955179 123.628840 -6.571606 4 1
-21.781582 194.843890 37.923889 0 0
-73.637344 187.048320 -5.522778 42 1
8.961565 214.823490 29.413500 35 1
10.210831 231.005230 -1.510561 22 1
-100.852010 280.580230 0.866868 53 1
-61.399925 137.577850 -3.991803 43 1
-130.296690 255.843720 -23.982361 12 1
-50.894917 187.719010 45.010288 44 1
-50.614994 256.463350 75.554176 11 1
-55.817295 229.462800 31.555754 0 0
-91.140030 161.642730 -36.865921 2 1
-43.129330 198.736760 -18.769653 50 1
-27.414066 172.643220 26.125021 0 0
-2.771339 29.946371 -0.466000 0 0
-20.329277 182.876750 -8.519438 50 1
-44.152843 151.454640 -22.111223 46 1
-15.298831 241.147320 43.491821 32 1
-28.755955 218.544040 68.942215 33 1
-90.339302 140.516830 45.593029 45 1
-16.736614 178.919690 -50.353951 39 1
-101.687740 268.392580 73.094482 52 1
-10.959356 94.598740 75.594551 27 1
6.500846 239.189250 14.034467 22 1
-88.398239 261.970280 -1.143535 20 1
-26.296186 204.263600 42.408779 44 1
-75.314125 157.657670 4.436481 42 1
-46.002434 182.590760 -24.946495 50 1
-20.857660 153.849320 24.091410 0 0
-9.591577 146.803180 14.881253 0 0
-109.222500 237.331540 102.045620 52 1
-97.664879 268.077060 47.697826 54 1
-59.086079 277.106200 63.100639 11 1
-52.383797 282.951750 9.345688 0 0
-101.660990 129.638720 76.763939 23 1
-67.497589 131.495740 40.981865 0 0
-90.608597 161.907260 7.584682 41 1
-9.956939 161.622150 -8.774164 0 0
-82.522087 142.016200 54.138710 34 1
-83.887917 267.364900 3.908038 20 1
-57.212498 150.260930 -22.626564 43 1
24.126225 208.091920 44.297825 35 1
2.448801 123.769940 58.002350 37 1
-104.373060 234.157520 43.352539 54 1
-58.483982 252.801700 70.475426 11 1
-1.543830 176.986360 -48.275448 39 1
-41.261017 189.292800 -10.127071 50 1
-37.950283 122.446010 -16.415882 0 0
-21.852730 60.791275 17.250095 0 0
5.231268 158.903640 5.026478 0 0
23.823238 180.296860 -12.615553 47 1
-55.366226 263.857030 -20.367010 8 1
-122.859750 264.160520 -17.751215 12 1
-61.182022 118.142500 -7.811781 15 1
-54.699757 175.044400 45.973724 40 1
-47.895023 162.863850 -44.294033 50 1
-58.630466 184.511960 -20.176533 50 1
-8.273086 126.151850 22.878418 0 0
14.371426 108.639790 37.619736 38 1
-48.818890 186.913910 31.898956 44 1
7.034921 165.599170 9.351843 47 1
-98.732430 254.022090 51.754902 54 1
-3.953947 237.194490 11.746171 22 1
-7.852885 233.884550 45.579445 32 1
-53.624607 154.627170 -55.174778 48 1
28.895296 96.121826 29.912870 38 1
-76.667229 262.337680 -35.198677 7 1
25.864525 166.534070 26.622108 36 1
-106.770610 268.703800 19.510487 53 1
-38.217255 133.893590 25.475712 0 0
-120.793560 278.593350 -15.549912 12 1
-28.002562 173.839660 17.092495 49 1
-2.414347 80.982048 16.252054 0 0
18.357338 255.733000 27.207291 1 1
-90.226616 246.266970 -11.735261 20 1
17.607567 111.293000 51.087540 38 1
-97.389900 279.712650 8.177830 53 1
-65.847580 130.060490 65.298531 34 1
-17.865227 268.851410 25.884964 29 1
-89.122910 193.016820 42.343426 13 1
6.210133 92.113968 -11.632387 0 0
-17.603199 220.091280 62.707302 32 1
-8.215644 186.018800 -32.083256 39 1
-45.483021 198.453920 27.220680 44 1
-46.333748 196.484220 39.774521 44 1
-5.091877 203.124820 22.204681 0 0
-86.837036 281.929350 -1.130069 21 1
-83.915962 277.147250 -27.805571 7 1
19.838163 126.457980 -32.871399 5 1
53.377022 232.393140 26.701998 1 1
-6.494565 65.047966 5.659228 0 0
-70.310005 199.318360 86.950775 9 1
-62.767719 114.819670 6.842103 15 1
-77.749184 196.437210 29.144037 40 1
-91.468033 256.867400 7.729535 20 1
-75.104416 144.168550 -51.234074 48 1
-50.898972 249.976590 70.882339 11 1
-60.981670 164.459640 -43.261486 50 1
-17.911676 287.890140 30.164349 29 1
-75.594795 110.915450 24.289734 14 1
-8.914684 82.953415 84.254211 27 1
-68.414993 257.907710 -0.435276 20 1
16.176090 85.405922 -30.240135 25 1
-24.105200 174.526960 32.512691 0 0
-86.174706 252.973790 2.077301 20 1
35.623718 160.741850 42.245811 55 1
-42.827785 165.860840 -21.224604 0 0
-46.709908 97.811340 13.602898 0 0
-12.047271 50.623936 5.572095 0 0
-67.639259 273.849210 74.605949 11 1
-122.027900 216.573100 99.569336 52 1
-11.773410 153.789990 16.023800 0 0
-95.306992 231.541340 -4.983846 20 1
9.683788 215.471410 42.654991 35 1
-95.939346 273.219480 77.076981 52 1
-57.247044 195.493230 -21.774702 50 1
5.725482 178.687790 -9.561580 47 1
-46.323311 190.393920 85.892937 33 1
-31.307255 282.551300 49.094643 30 1
-36.707207 220.304290 58.740059 33 1
-19.597651 80.823380 8.105911 0 0
-69.932838 181.694920 -27.756577 50 1
-64.758377 140.350080 -64.468170 48 1
-67.211853 145.694290 -15.154365 43 1
-6.374176 176.180730 -57.128330 39 1
-39.918736 241.953640 -37.466789 8 1
-86.727814 252.323850 -51.232929 6 1
-111.528550 252.257780 34.787006 53 1
14.625463 180.543470 -13.691105 47 1
-75.956940 271.709140 63.584732 11 1
-8.593793 86.277367 2.869986 0 0
-27.474569 184.673020 16.216045 0 0
35.092075 157.317340 24.178549 36 1
-51.479698 240.492650 9.443162 0 0
-64.219810 211.406780 91.006348 9 1
-36.963234 180.933580 -27.884809 50 1
-17.434793 120.396980 47.980618 51 1
-7.741949 213.112440 67.909256 32 1
-84.808212 175.687520 14.636518 41 1
-109.212360 278.420260 -23.152193 12 1
18.731693 60.650856 -13.440516 0 0
-4.931528 72.498192 16.703833 0 0
-45.580688 218.792360 97.726791 9 1
-42.826183 241.127440 -46.577110 8 1
-70.492172 149.029310 -20.907568 43 1
-35.471981 178.946910 32.421791 49 1
-92.170860 173.989300 -33.164917 2 1
-81.601585 186.084490 22.409918 40 1
-58.013378 167.637910 15.314896 0 0
-70.038597 168.182750 3.264966 42 1
33.423752 170.432560 39.064507 55 1
-13.737862 134.114970 19.846136 0 0
-44.212784 232.810650 83.187195 9 1
-66.975136 131.251570 0.582977 43 1
-58.176716 185.480060 12.843557 50 1
-35.591614 78.993248 19.582788 0 0
7.246847 185.867000 -21.379681 47 1
-98.681488 137.503850 50.174446 45 1
16.345028 164.011170 21.661194 36 1
-81.564476 289.164430 -0.097001 21 1
-89.004333 239.748580 -64.940765 6 1
-95.028481 153.054860 -34.606934 2 1
41.861206 122.618150 -22.539833 3 1
16.027319 123.858250 -43.128304 5 1
-66.545486 154.006990 -40.561691 50 1
16.942009 116.369510 -15.657829 0 0
-69.758858 177.808940 -2.518054 50 1
6.582845 229.226640 24.188786 0 0
-81.903610 180.234570 5.556141 41 1
-98.640060 167.024520 53.958103 13 1
-78.566772 142.226290 60.561947 34 1
0.796336 107.968640 69.258965 27 1
-75.806152 267.488340 48.628139 11 1
-56.682774 107.931270 22.495380 16 1
5.913372 207.532590 -20.346846 22 1
-22.452291 103.960400 82.290649 17 1
-42.165791 257.663640 -27.282738 8 1
-94.282585 96.677956 28.052738 14 1
-25.367809 182.520900 9.776281 50 1
3.665505 210.133670 42.069962 35 1
-76.853264 266.629940 3.276934 20 1
-43.062679 210.343060 17.980179 0 0
-77.925964 116.289960 -11.702436 43 1
-20.082787 78.905685 80.366432 27 1
2.302125 230.087890 60.711346 32 1
-25.426376 190.074860 -11.985461 50 1
7.081038 72.551712 2.170430 0 0
-7.890532 180.768570 -15.609986 47 1
-93.844673 136.515200 67.782631 23 1
-56.533100 190.046840 6.716495 50 1
-32.661842 176.981890 -20.756615 50 1
-5.512899 196.130690 24.714571 0 0
-91.171890 270.408660 43.136417 54 1
-79.874374 256.179260 -9.565350 20 1
-6.634228 105.373140 30.571241 0 0
-6.767068 111.687710 19.162504 0 0
2.492160 213.127610 31.723576 35 1
-7.493806 242.218490 15.752543 32 1
-4.387645 70.585464 -7.872188 0 0
-114.960130 226.730500 96.188652 52 1
-47.795033 140.222290 5.993747 0 0
-40.123718 179.812350 -38.902897 50 1
-39.585083 186.700930 -3.328175 50 1
-68.066467 116.896060 13.950077 15 1
-102.312190 241.474300 47.044815 54 1
-20.248896 212.198360 42.118027 44 1
-46.422325 193.536060 14.386600 44 1
38.382034 166.058780 -2.875264 47 1
-6.253568 40.210609 -2.625494 0 0
-45.100170 211.666470 74.910088 33 1
-5.222382 64.065933 -18.194124 0 0
-101.292150 286.591250 5.016940 53 1
-13.551733 122.527050 17.825705 0 0
-2.421972 133.509890 -6.650257 0 0
-65.746758 184.300510 -5.908480 50 1
-86.214424 177.132250 -27.904608 2 1
-103.617170 242.355190 32.683517 53 1
-70.121758 192.021320 -17.006002 50 1
11.811503 179.853940 -27.536230 47 1
-42.526997 153.334200 -40.496021 46 1
6.971385 87.990265 1.629016 0 0
-29.513842 100.911380 7.407588 0 0
-50.405075 256.715060 -29.203293 8 1
30.884111 175.690900 -8.438620 47 1
-51.980263 156.048780 -12.801104 43 1
-33.646778 278.321560 28.255089 0 0
-71.998497 189.070540 9.839888 41 1
-8.776029 183.357510 -3.532722 47 1
-5.613126 201.208600 74.829132 32 1
7.114002 79.238976 -32.219658 25 1
7.012290 243.163570 41.036118 32 1
-91.153252 278.631230 -19.861170 7 1
-97.999138 237.704930 -56.495865 6 1
-39.737610 286.089940 29.395082 31 1
-46.792496 249.665500 -34.219727 8 1
30.297489 252.860520 30.917439 1 1
-62.000092 120.332050 72.476875 34 1
-99.437721 224.541200 -66.022835 6 1
-79.341141 271.176240 57.059986 11 1
26.658545 187.039200 -13.569296 47 1
3.450195 178.934770 -16.182205 47 1
-82.227448 155.252000 4.085848 42 1
8.503499 95.978363 -6.318644 0 0
-53.924541 179.501210 -2.133827 50 1
-13.398082 287.781250 56.267643 28 1
12.964441 178.702090 0.627865 47 1
-132.752260 237.793690 -20.878197 12 1
-83.417160 148.491070 6.203220 42 1
-79.228386 190.303820 13.773503 41 1
-109.652170 252.148280 26.773426 53 1
-70.121086 187.226290 88.730835 9 1
-56.362099 224.858960 88.400101 9 1
57.717930 228.635710 22.553503 1 1
-95.453201 132.726230 76.606026 23 1
-82.518463 292.030430 -11.866922 7 1
-64.661003 157.929810 -34.859066 50 1
-57.747623 270.588320 71.722977 11 1
-13.091860 265.397640 31.052031 29 1
-84.422401 137.152970 41.008705 34 1
-61.242691 168.535230 36.321014 40 1
-42.872913 121.378230 5.937613 0 0
3.006101 54.576122 3.165559 0 0
22.567757 82.506767 -41.652744 10 1
-35.748718 254.787430 52.284046 30 1
6.090369 238.686190 2.203457 22 1
-89.655167 174.621860 8.928368 41 1
-20.944561 166.889680 26.472294 0 0
-113.428170 286.319060 -13.109879 12 1
27.297503 77.300415 -42.038631 10 1
-39.662849 132.631120 6.472401 0 0
-3.144919 238.838260 24.113079 32 1
50.270771 240.104970 20.004604 1 1
-58.017136 151.612790 -59.586006 48 1
-32.798504 213.971270 72.158379 33 1
-18.699301 225.902010 58.532253 32 1
-72.652611 199.121920 21.755520 41 1
-40.292618 175.120480 -14.739188 50 1
-92.545135 259.511810 -51.881649 6 1
-51.824543 172.181960 5.355110 0 0
-43.813614 227.799850 90.992889 9 1
29.063253 166.962110 16.313719 36 1
1.161085 227.468810 -9.231534 22 1
-28.011478 288.121250 22.217228 31 1
-44.814762 190.015930 41.854481 49 1
-29.137087 151.279310 18.881741 0 0
-40.959782 160.343200 -27.043987 46 1
18.400446 176.801220 -9.420252 47 1
-65.714561 174.579530 28.986498 40 1
-77.682175 181.685620 80.901894 9 1
-0.554300 114.236980 2.143749 0 0
-105.886700 117.359760 81.173828 23 1
-50.116508 174.400920 -33.558681 50 1
-45.030483 227.583950 -48.028500 8 1
-98.276779 122.222260 83.065315 23 1
-93.478188 287.983860 12.160828 53 1
31.942860 155.324890 13.833101 36 1
-64.261902 192.472760 26.629511 40 1
-98.252777 238.770830 -3.479538 20 1
12.436818 110.656480 67.122787 26 1
33.070923 164.985690 26.416927 36 1
17.654181 172.168000 29.261560 36 1
-100.260970 281.547790 17.388765 53 1
29.423418 208.342480 35.312248 35 1
18.836550 126.612430 -22.843016 4 1
-7.433895 71.136520 -17.358694 0 0
-74.210213 273.550750 13.524163 19 1
9.919054 218.396330 35.169567 35 1
-70.385307 141.012660 55.118080 34 1
-67.534439 293.948880 -5.844518 18 1
-26.812384 207.420670 35.189995 44 1
-26.704956 164.549180 -39.685265 46 1
-85.179909 271.206630 -30.813986 7 1
-14.363910 232.193020 51.307232 32 1
-72.733643 150.959820 -41.498848 48 1
-44.098583 262.264010 56.030849 30 1
-57.744587 176.557500 -27.602245 50 1
-42.145496 188.236820 -25.094025 50 1
-51.770412 194.504870 -28.195539 50 1
-67.282608 281.327760 12.154600 19 1
-38.687439 173.503220 34.982407 49 1
-43.345234 220.405810 14.651441 0 0
-80.460274 203.274460 38.460674 13 1
-4.713158 20.825441 -1.296840 0 0
-112.848830 232.509610 36.572773 54 1
-34.504848 175.435460 26.738726 49 1
28.784452 135.559720 49.643036 55 1
-9.092765 95.017296 2.839413 0 0
-95.182816 255.145190 -47.245163 6 1
-108.011470 257.471920 37.228416 54 1
-17.943405 281.396270 24.312210 29 1
-108.952770 249.724210 48.141190 54 1
12.374825 155.532780 10.594875 0 0
-68.117790 145.965990 -62.429523 48 1
14.711063 172.008770 9.222001 47 1
-80.537437 196.285830 43.215061 13 1
-46.901989 151.806990 -35.624657 46 1
-28.689636 183.439090 22.867556 0 0
2.660953 234.680850 50.112980 32 1
5.744414 167.416500 2.879092 47 1
-31.989408 293.964480 47.174381 30 1
28.768938 125.608870 48.814468 55 1
-118.332830 271.105710 -24.105730 12 1
23.632627 126.330980 -12.898393 4 1
-6.652634 99.062599 -4.812608 0 0
-8.105294 114.033740 12.998490 0 0
5.832261 96.077560 12.372813 0 0
-21.984653 68.694176 10.768178 0 0
-0.027023 215.986600 23.497192 0 0
-34.956673 271.533510 56.549858 30 1
-72.889450 296.727050 4.376589 21 1
-85.020683 178.729290 -36.918903 2 1
1.406271 152.290970 4.734435 0 0
18.416338 171.286410 22.561918 36 1
-26.798496 82.800606 12.196467 0 0
-9.653709 239.754680 2.536672 22 1
4.372120 77.947853 -39.900059 25 1
-32.790195 183.030810 47.083862 0 0
4.840334 109.168300 -0.726475 0 0
-10.627219 24.270231 -0.121455 0 0
-94.064636 267.119780 82.807335 52 1
-43.426163 281.725830 8.402609 31 1
-18.151754 175.997700 21.211428 0 0
-62.039978 176.420200 -9.239180 50 1
-100.963990 228.146640 -58.453999 6 1
-93.177498 261.050630 -42.284615 6 1
-44.108353 136.432210 1.689816 0 0
-54.157562 215.664090 89.047325 9 1
-66.856094 262.205930 69.632141 11 1
-70.592880 130.556760 -6.438326 43 1
22.639898 120.226690 -5.888140 4 1
-57.262699 256.952000 75.894730 11 1
-108.377430 242.399170 89.042625 52 1
1.572997 176.436160 -4.590230 47 1
-7.856930 213.563720 24.853451 35 1
-88.040039 267.584050 55.222336 54 1
-44.461884 265.219970 -20.664507 8 1
24.026663 251.290770 40.952301 1 1
-8.967960 5.743190 0.130047 0 0
-23.473612 180.348390 -2.525104 50 1
-77.882790 255.993330 -40.819744 7 1
-29.485273 190.536040 13.576459 0 0
-65.268547 106.955580 30.909447 16 1
-42.303478 143.622470 13.962536 0 0
-61.598202 295.452880 -2.977504 18 1
-4.742898 167.022480 -66.089600 39 1
-41.523075 267.502200 21.837471 0 0
-32.222290 187.569260 -32.034931 50 1
-96.859406 245.558460 -0.612105 20 1
-122.452640 259.443120 -22.417133 12 1
-52.644394 257.654050 -40.514225 8 1
-94.080551 268.693700 -33.112106 7 1
-3.273967 186.760130 -21.529963 39 1
-43.589725 230.840760 13.092425 0 0
-59.399544 264.182310 61.293472 11 1
-13.169916 68.882812 10.745858 0 0
-2.571228 104.473540 74.941620 27 1
-16.216072 280.893460 55.368294 28 1
-13.198502 74.206329 5.958405 0 0
-8.193931 60.693489 -0.073204 0 0
-27.569633 290.006130 30.042530 31 1
-59.000027 183.177050 43.747944 40 1
-96.802635 274.485930 12.845450 53 1
-11.285869 259.613250 52.693375 28 1
10.086684 160.296970 39.416485 36 1
-73.377609 260.167080 -14.795737 20 1
-41.723610 213.206670 24.952063 0 0
-106.676670 276.484590 1.765540 53 1
-87.909851 167.227870 -35.426186 2 1
15.647713 212.315200 32.751457 35 1
-80.843903 264.178500 -11.035276 20 1
-6.618198 180.226240 14.057521 0 0
-21.353548 143.726810 22.581844 0 0
-34.435608 103.696620 15.513910 0 0
-52.497242 266.139740 -14.875011 20 1
-81.044792 262.021790 -57.522942 6 1
-75.135132 172.451320 3.807148 42 1
-51.371277 264.172580 70.148193 11 1
-87.407082 256.212400 -17.321262 20 1
-52.920769 187.564990 -32.424049 50 1
12.340551 103.788490 -14.672524 0 0
21.557219 170.736250 -0.103889 47 1
-24.554815 193.970230 -22.196808 50 1
-50.077869 248.820820 -40.943871 8 1
-54.134754 161.012100 45.257507 40 1
-65.618073 142.580960 -3.257324 43 1
30.326355 171.917330 26.278828 36 1
-8.744598 210.589540 37.098141 35 1
-99.140266 256.339110 83.139343 52 1
-68.118217 264.684200 -24.401806 20 1
-67.930428 285.976530 -14.184112 18 1
-15.660412 115.326300 69.292198 17 1
12.568771 221.194900 -9.975466 22 1
-105.120110 270.328520 12.536111 53 1
-85.708099 202.995070 34.526455 13 1
30.701958 170.957170 -0.864764 47 1
-103.534500 217.793490 5.149959 20 1
-93.559540 248.940640 -58.781708 6 1
-57.161789 227.861510 78.596153 9 1
-35.485313 226.744980 95.064598 9 1
2.778704 65.889687 4.687902 0 0
-52.895390 175.594800 -14.521293 50 1
-32.631016 141.619960 24.379967 0 0
-27.423237 162.580780 27.673111 0 0
27.625008 154.516450 44.460602 55 1
-58.918442 165.983810 43.926617 40 1
-2.821931 233.823490 59.119110 32 1
0.646197 177.066500 -56.707066 39 1
-47.327003 195.761510 33.357643 44 1
-43.331306 245.533460 79.863876 11 1
-45.678814 186.942110 1.728987 50 1
-43.287834 170.657420 8.709240 49 1
-27.345020 216.548070 81.538231 0 0
-95.789268 242.408020 -13.182467 20 1
-2.865523 43.466267 2.220913 0 0
-17.086901 291.735720 49.941021 28 1
-80.985474 122.337180 -57.897076 48 1
-82.397255 192.628040 23.088894 40 1
-63.411816 149.029630 -57.014339 48 1
-67.356544 191.511630 -24.075590 50 1
4.733234 136.220660 0.409664 0 0
-90.179657 276.907010 76.423080 52 1
-70.844994 185.409160 -12.389529 50 1
-20.084272 216.603550 57.494934 33 1
-15.443231 269.471860 56.756573 28 1
7.176798 226.840730 -5.641225 22 1
-56.846371 184.859800 19.179129 49 1
-2.592335 206.739840 72.677773 32 1
-13.185251 175.577960 -54.721321 39 1
30.072166 145.122210 43.989552 55 1
-47.389839 271.543670 11.878190 0 0
-91.107506 180.267490 41.311497 13 1
-30.729038 250.075560 -33.265259 8 1
-41.950886 233.104840 -43.883141 8 1
-99.070244 287.886690 -0.935364 53 1
-15.957070 184.974490 -22.336021 50 1
-1.551521 116.252220 -3.963403 0 0
2.707088 82.942978 5.249643 0 0
-1.826475 93.326569 13.810896 0 0
-76.938576 265.176570 -41.030830 6 1
-19.086327 107.008670 76.886932 17 1
-19.864222 167.651730 -55.381905 39 1
-71.966141 178.127470 18.506618 40 1
-19.106874 283.310060 34.585529 29 1
-106.583110 261.170010 25.332571 53 1
-86.089813 263.017820 -14.759008 20 1
26.634089 171.891340 20.222618 36 1
-39.193672 179.754640 -10.213897 50 1
-110.371460 263.922060 35.480885 54 1
18.932871 185.894620 -21.350227 47 1
19.699535 101.716020 68.036682 26 1
-54.315250 167.929150 -13.050114 0 0
-22.707895 94.881004 75.620186 27 1
-22.799910 296.622590 37.302654 30 1
-57.341137 256.914860 -32.535820 8 1
-107.812090 253.086580 83.188644 52 1
-71.137428 137.165890 64.843605 34 1
-106.891580 227.682970 9.381329 20 1
-25.573774 291.851350 49.067478 30 1
-55.205933 154.012080 -48.232376 48 1
-113.514780 274.061520 -18.314941 12 1
-85.536407 272.280300 48.353413 54 1
-48.222095 261.265840 13.273170 0 0
-4.739888 75.480873 -3.636825 0 0
-65.157387 218.150020 80.917892 9 1
-2.713647 82.356895 28.997383 0 0
-98.317574 163.314270 -29.140488 2 1
-64.678497 273.139160 58.048775 11 1
-30.441601 191.838070 -23.975050 50 1
-31.661577 142.438260 11.008415 0 0
-79.871681 192.362730 -25.768204 2 1
-81.240753 179.667720 -31.811556 2 1
-17.299334 239.086170 54.488148 32 1
-5.775106 179.466190 -44.011078 39 1
-75.362572 269.435730 -31.835756 7 1
18.437010 249.474990 28.617451 1 1
-47.858021 222.507220 83.744743 9 1
-76.538811 128.119110 -64.446136 48 1
-51.158012 147.330200 -17.062895 43 1
-47.081093 250.172970 14.552648 0 0
-7.443904 153.803190 -44.182163 46 1
-48.531826 155.357850 -24.868040 46 1
-14.714234 274.313540 26.935579 29 1
-91.269859 103.378870 21.287872 14 1
-2.439661 211.469220 44.002453 35 1
-26.721132 139.933040 22.636307 0 0
-19.340763 162.617690 21.826336 0 0
-88.507622 260.241670 -37.069790 7 1
-46.712368 279.920840 31.253372 31 1
1.395336 239.172680 33.319633 32 1
-53.299862 220.150620 100.404610 9 1
-2.782099 218.464260 69.034683 32 1
-8.386557 127.468930 3.499582 0 0
-109.829550 244.132340 41.686577 54 1
-57.307007 92.933884 38.576241 16 1
-31.847116 160.468510 -34.985058 46 1
-27.820238 190.608990 54.263309 0 0
34.041096 161.108630 12.205334 36 1
24.325443 169.396840 32.209499 36 1
-31.768007 227.384830 89.949768 9 1
-61.496029 265.145140 -26.764938 8 1
-103.444400 263.626310 84.726860 52 1
-12.624159 178.582860 -45.529041 39 1
-82.760017 109.846180 21.326010 14 1
-60.213215 182.198300 2.610921 50 1
-74.349342 121.128210 -3.441203 43 1
-59.795929 214.260850 96.386475 9 1
-7.611159 157.842240 18.570892 0 0
1.035563 180.808810 -25.659592 47 1
-5.449496 186.286910 -39.932743 39 1
-11.309026 273.675810 54.076984 28 1
-100.823830 238.109680 5.340021 20 1
12.468694 167.180740 31.957104 36 1
16.951550 252.577410 21.896465 1 1
-58.694897 146.465670 -8.727107 43 1
-52.312485 271.050840 60.861320 11 1
2.640487 105.297730 63.826763 26 1
-54.513557 187.407970 28.855955 44 1
-11.502825 288.017640 49.685139 28 1
-63.721645 277.835660 -16.252388 18 1
-101.246980 131.003340 37.369392 45 1
-45.132565 196.998180 88.333565 33 1
-62.191479 171.559280 12.180761 0 0
-4.263295 101.910220 11.023170 0 0
-68.379974 209.714130 86.348488 9 1
-65.407478 290.992770 13.228764 19 1
-36.142365 203.213640 32.780190 44 1
28.410534 161.439130 43.242989 55 1
27.438522 204.628920 40.118950 35 1
-6.221212 128.118010 28.503557 0 0
12.303604 213.393070 48.268848 35 1
-2.134618 111.691850 32.406223 0 0
-1.572267 144.038150 -44.696693 46 1
22.891441 99.877769 31.985535 38 1
-39.446159 201.110120 48.371315 44 1
-102.492900 273.027590 22.037865 53 1
-86.532349 269.620240 -37.167469 6 1
-16.855545 206.360210 35.261009 35 1
-112.865570 237.090900 90.763031 52 1
36.594234 125.956950 -23.946390 3 1
-54.574192 101.238590 29.395041 16 1
5.652987 239.029540 20.265045 32 1
6.640288 108.941270 51.638138 38 1
-69.636856 171.824080 40.913773 40 1
-12.788327 256.072750 26.681936 29 1
5.763438 217.820250 -14.833810 22 1
-100.670550 264.053860 29.045179 53 1
-81.119560 287.440030 5.908914 21 1
-77.678604 129.314250 -15.006862 43 1
-1.196411 141.237840 -10.810418 0 0
-57.753349 263.372860 -32.397797 8 1
-99.659988 262.964110 92.004677 52 1
-66.234695 267.340580 -15.649897 20 1
-9.226329 213.334460 48.938766 35 1
-60.006207 247.248630 74.403679 11 1
-76.059280 190.077130 33.873055 40 1
13.446473 184.892720 -18.207178 47 1
-46.203194 150.031070 13.291502 0 0
-34.491703 231.985760 -42.961933 8 1
-36.747520 177.247060 -34.316223 50 1
-10.612247 214.970180 33.073528 35 1
-95.766205 261.822420 79.994537 52 1
-6.179337 237.171450 53.303856 32 1
-26.215017 95.209740 9.108443 0 0
-29.972815 219.894840 62.981941 33 1
-9.912616 123.167180 -6.212956 0 0
-13.722664 273.717320 48.000820 28 1
-87.206512 194.642700 36.036201 13 1
-110.253590 231.270160 42.345699 54 1
-65.645134 181.042140 18.456120 40 1
-68.798691 134.994920 -63.721760 48 1
-70.538147 264.033600 0.584580 20 1
-107.133670 220.780440 9.465845 20 1
-4.703688 123.412580 48.387032 51 1
-5.339163 87.033600 -4.922106 0 0
8.688598 238.533070 7.929283 22 1
-3.844119 232.047390 -0.021618 22 1
-30.185276 163.739670 -27.482130 46 1
-75.915031 276.338930 58.071178 11 1
-113.309690 112.632510 86.498756 23 1
-0.429170 203.786960 26.260262 0 0
-53.563282 190.232640 22.901783 44 1
-36.802254 288.298190 49.964073 30 1
-70.249786 256.547060 6.369565 20 1
-55.162945 186.968310 35.404476 44 1
-63.777065 183.605850 -33.555256 50 1
-36.633133 226.453370 85.033188 9 1
-2.760655 239.462660 6.085883 22 1
3.539066 174.624130 6.839149 47 1
-40.332039 174.459610 22.445309 49 1
-56.194721 209.595400 98.569916 9 1
-99.863441 233.852080 -60.971397 6 1
23.561646 254.368730 31.902060 1 1
-15.118045 186.075680 -6.536767 50 1
-92.340958 172.405500 45.551220 13 1
-102.168940 228.959590 4.291772 20 1
-102.350110 136.178420 45.353775 45 1
-71.863663 112.482810 19.611364 14 1
-60.541428 204.162000 92.106995 9 1
-90.098518 142.825700 55.596794 45 1
-43.534645 188.343840 10.889462 49 1
-73.225594 163.043000 2.011529 42 1
-20.406969 146.085190 15.720068 0 0
-83.427727 185.037980 11.105159 41 1
-81.670029 282.297450 -15.632876 7 1
-33.287518 89.561821 12.795116 0 0
-76.811546 180.071760 12.394732 41 1
-15.707209 249.256960 55.361904 28 1
-54.048382 275.847600 6.563999 0 0
11.859966 252.587830 30.832602 1 1
-104.662770 215.669690 -61.098915 6 1
-40.792183 201.941440 24.771278 44 1
-9.400794 186.053130 -25.894211 39 1
-91.864212 233.875080 -63.875755 6 1
-64.776695 176.932890 -29.282534 50 1
-38.089767 187.684570 -20.303154 50 1
-90.208351 245.949310 -63.213551 6 1
-13.444414 114.290020 75.034927 17 1
-4.071062 240.009020 36.897697 32 1
14.119222 113.235330 -11.189639 0 0
-19.549059 96.696518 86.315727 17 1
-71.071556 147.272800 -47.803219 48 1
-105.108300 115.537610 87.399002 23 1
-87.010002 259.284120 -55.418365 6 1
0.485371 182.577060 2.319239 47 1
-45.820236 285.092530 20.224966 31 1
-73.063927 178.119980 34.774654 40 1
-90.767227 160.940980 -43.404617 2 1
-64.823639 150.161350 -49.202137 48 1
10.969397 171.493500 -0.504775 47 1
-90.906181 288.096920 -5.314077 7 1
-41.318913 155.454250 -34.876850 46 1
-61.624271 195.958820 -8.199530 50 1
-90.978729 140.631620 63.039051 23 1
-96.735558 158.826970 -36.026794 2 1
-1.279812 93.251968 45.323544 0 0
24.400892 86.083939 -35.728317 10 1
3.389451 82.905869 16.186447 0 0
14.090592 210.295550 -15.502257 22 1
-61.110657 260.904850 -16.522840 20 1
-49.537819 148.863920 -23.385561 43 1
-91.326317 278.956270 -26.188324 7 1
-67.876976 118.568340 -8.927036 15 1
-82.533142 139.437070 64.268311 34 1
51.133728 117.687010 -20.240398 3 1
-39.034130 125.204070 3.135045 0 0
-103.658070 278.163480 9.030836 53 1
-94.890396 251.364270 -3.943061 20 1
17.803398 183.364470 -9.331041 47 1
-9.178389 238.960140 27.503323 32 1
-3.214581 46.889637 -2.799308 0 0
-45.383560 195.141600 -14.318412 50 1
-27.330572 167.534530 22.830376 0 0
-123.000960 267.229610 -23.907816 12 1
-33.059277 236.015440 -38.352554 8 1
1.638576 87.784950 11.073919 0 0
-83.871239 264.175840 -37.420948 7 1
-8.802912 81.649712 -1.900279 0 0
-67.648636 190.800690 14.288555 41 1
-55.918774 260.880370 65.130074 11 1
-88.948341 174.032230 51.160812 13 1
-32.710606 206.287230 23.420708 44 1
-101.859860 264.164670 45.546623 54 1
-98.006516 137.811460 72.044830 23 1
-39.039574 284.227200 16.774302 31 1
12.044311 82.549858 -33.608551 25 1
-23.755575 92.248047 86.489288 17 1
-57.082951 166.179020 -35.668671 50 1
-35.594460 203.219350 41.726280 44 1
35.570244 151.439880 40.230824 55 1
13.408582 163.345280 12.423508 0 0
2.826281 66.314835 -1.328644 0 0
-45.683567 185.402160 92.016640 33 1
-12.953982 107.796810 7.776506 0 0
-103.744840 247.457760 94.748840 52 1
9.307488 243.642530 25.046482 22 1
-63.883984 173.235530 17.716599 0 0
-13.126527 188.076030 -14.417132 50 1
-54.078651 265.707670 -26.039402 8 1
-1.392826 74.026215 10.494208 0 0
-0.187993 104.038600 -1.932698 0 0
-84.746246 187.516970 -30.074165 2 1
-32.617100 221.842610 84.907875 9 1
2.945322 111.978810 40.694008 38 1
-19.340851 187.807570 -27.115049 50 1
-7.734792 157.086810 -65.063332 39 1
-71.732933 291.051480 6.551021 19 1
-83.434387 251.959550 -7.189602 20 1
-99.943634 136.856190 66.059608 23 1
-9.518237 118.139630 19.015482 0 0
-43.118797 174.333950 -36.280483 50 1
-73.631134 262.048000 50.956646 0 0
-65.167343 285.952090 -7.762304 18 1
-30.009369 179.499500 -32.932518 50 1
9.967581 92.529579 77.834839 26 1
-70.519440 184.050400 39.580872 40 1
-52.686363 188.720520 -5.966628 50 1
-61.331375 285.316130 4.240658 18 1
4.645047 150.279820 42.996765 36 1
-25.449369 82.185745 81.917679 27 1
-0.547223 91.774284 -5.304462 0 0
-44.214798 247.418900 -44.470276 8 1
-62.553898 262.417600 75.770576 11 1
-55.801968 253.149120 -12.327195 0 0
-83.561661 270.141850 -25.147240 7 1
-21.359850 117.929170 43.529636 51 1
27.540884 178.278410 -4.202831 47 1
-38.393425 285.303280 8.552276 31 1
-96.130203 253.989290 -54.112595 6 1
-99.337410 252.885070 33.578053 53 1
-5.108243 179.936810 -6.784994 47 1
-59.818096 171.992360 45.366787 40 1
-62.709747 107.346700 24.235067 16 1
-109.298680 274.336000 11.060902 53 1
-77.905502 297.226070 1.055226 21 1
-77.951424 272.953890 -2.136689 20 1
19.855707 109.878890 45.565510 38 1
-67.742821 189.444640 -3.627031 50 1
3.976483 217.817960 35.135029 35 1
-34.444035 241.781300 -39.841892 8 1
-1.092285 99.120964 54.050201 0 0
-83.500130 254.088200 -57.788074 6 1
-92.618080 188.196750 42.731522 13 1
-109.306560 125.897650 32.715153 45 1
-12.121093 118.930580 65.850418 17 1
-42.991039 225.062930 103.282390 9 1
-48.504265 178.411290 -5.298023 50 1
8.969625 103.363180 74.151482 26 1
-59.778454 275.090670 75.773102 11 1
-96.302696 253.102170 45.554581 54 1
-68.950394 119.608440 1.057900 15 1
-2.299987 122.135800 54.672493 37 1
-97.263832 259.311770 36.275066 54 1
15.420791 78.938965 76.277168 26 1
44.578789 242.359380 29.815536 1 1
-35.844051 127.040180 -13.275676 0 0
-21.677895 161.229570 -39.632561 46 1
-106.828260 264.415310 15.346521 53 1
-32.832840 214.025500 78.228729 33 1
-97.563431 259.371370 55.111977 54 1
-30.248329 192.411320 59.761131 0 0
-3.869011 215.470020 37.801449 35 1
2.796170 77.305771 21.245575 0 0
-54.325752 181.911560 -24.169792 50 1
-9.146101 228.038500 56.237488 32 1
-61.296013 118.517350 -1.616805 15 1
22.036964 176.633620 -0.613877 47 1
-31.113674 285.459590 32.209869 31 1
-47.921722 267.863590 63.600243 11 1
-81.577377 109.701500 -18.233006 43 1
-45.033272 186.953780 36.779079 49 1
-91.479759 263.877320 -47.548122 6 1
-6.729783 82.813431 8.232532 0 0
-36.813866 265.908140 56.476582 30 1
-63.870331 196.280720 -13.671655 50 1
-114.776790 268.313420 -18.991678 12 1
-26.304848 177.841720 2.111461 50 1
24.578161 163.658570 8.495849 47 1
-97.504463 246.322600 5.529440 20 1
-78.500130 120.593480 -15.833518 43 1
-49.363106 201.595170 82.452202 33 1
8.303395 108.477290 31.942379 38 1
-72.415718 140.115340 -54.594433 48 1
3.034312 83.514046 -2.892016 0 0
-15.338876 157.438770 26.780865 0 0
-41.345989 247.478810 -34.901371 8 1
5.594843 148.136890 5.053247 0 0
-85.595177 185.054500 -22.355043 2 1
21.000988 169.748380 38.054291 36 1
-72.533157 136.546660 -16.566172 43 1
-53.522141 152.391080 -26.800095 43 1
-4.957420 16.028910 2.137973 0 0
-62.873058 163.213470 40.435623 40 1
-9.546671 69.569420 -5.188743 0 0
9.990889 85.306076 84.698853 26 1
-78.176895 276.457580 66.293961 11 1
-7.864990 134.670240 19.751587 0 0
-42.423252 160.357680 -41.853493 46 1
-12.284106 221.508650 64.818108 32 1
0.594068 216.816020 46.723640 35 1
-132.347260 244.032360 -20.860052 12 1
3.918335 65.531998 16.703722 0 0
-29.394756 85.183884 6.198042 0 0
-36.746578 257.572570 -29.588617 8 1
34.087437 129.345780 -17.652929 3 1
-5.882266 158.431660 32.375622 0 0
-47.496284 254.935730 -39.632820 8 1
-15.486393 82.659706 2.052074 0 0
-97.623405 210.740430 -66.939857 6 1
-5.968738 194.272170 18.407675 0 0
-16.056824 139.281370 9.268169 0 0
-119.408020 228.328700 92.588882 52 1
-41.549492 221.192280 94.047531 9 1
16.598328 183.385770 -28.717421 47 1
-82.394913 263.130340 -19.734890 20 1
-9.309148 240.031630 45.021770 32 1
-42.802898 277.847230 26.863987 31 1
-93.561638 275.985660 18.018641 53 1
-62.256580 178.665150 -36.897457 50 1
-3.560174 217.595640 29.423635 35 1
-35.996323 222.326570 -47.421795 8 1
-78.235901 194.761670 17.825384 41 1
-86.953613 282.583560 11.781972 21 1
-26.161636 155.738480 22.440197 0 0
-7.517241 107.373830 2.833062 0 0
-62.959545 183.995250 22.764162 40 1
-74.075478 269.340820 -38.051888 7 1
-23.023855 149.173480 21.191967 0 0
-31.396433 185.781630 -4.241929 50 1
12.578136 210.277210 43.043549 35 1
16.789249 84.744965 75.719345 26 1
-38.168644 257.068450 57.185471 30 1
-73.918053 186.956250 83.985588 9 1
3.595071 143.063340 -7.265171 0 0
14.951984 162.969040 36.320663 36 1
-78.989304 172.514660 -0.832581 42 1
-13.871806 242.196780 37.547218 32 1
-110.887130 222.366760 37.275185 54 1
-72.858086 177.980180 24.983385 40 1
-15.865832 160.768980 -29.930477 46 1
-38.744942 202.371370 19.315092 44 1
-102.208550 247.728150 -51.213646 6 1
-96.953339 243.724990 -59.332199 6 1
13.085137 174.119860 -7.826777 47 1
-21.260895 213.666890 49.355560 33 1
8.416157 166.469800 -21.308140 0 0
4.285642 232.902240 0.987844 22 1
-2.430654 54.764217 6.051737 0 0
36.847805 160.303090 4.369913 47 1
-47.570385 138.251630 11.864221 0 0
-86.826546 269.980870 60.555767 54 1
-61.614429 97.187927 36.323093 16 1
-86.291161 185.922130 46.910160 13 1
-34.313980 187.563900 50.567364 0 0
-74.913101 188.260890 -17.627356 50 1
-45.394447 148.907820 -27.665466 43 1
-30.954109 202.156390 11.012124 0 0
-52.262257 152.445220 -4.030097 0 0
-12.852561 164.590520 -59.426292 39 1
-37.694096 186.980930 10.680541 49 1
-37.622772 199.530550 37.132656 44 1
-107.203450 253.855210 88.966637 52 1
-82.575111 111.886640 14.007589 14 1
-104.341070 244.715970 51.403534 54 1
23.298302 112.783230 2.071684 4 1
-98.238220 248.406750 41.303417 54 1
-37.536865 82.513191 15.408141 0 0
10.303029 80.020660 5.383114 0 0
-38.677135 290.685000 17.030506 31 1
-22.768724 165.522920 18.075583 0 0
-79.031395 278.509830 -25.013790 7 1
-7.852444 174.028880 22.977322 0 0
6.262549 95.351059 82.127304 26 1
1.627678 78.079880 -1.076914 0 0
-45.573212 172.095830 17.067610 49 1
-28.356943 174.626860 11.375145 49 1
-110.430010 261.678960 79.736702 52 1
0.166022 234.609540 44.885643 32 1
-107.473120 128.950880 37.437031 45 1
17.433569 102.047550 29.976408 38 1
-60.992496 222.465180 85.922829 9 1
-108.616650 242.770740 29.505016 53 1
-2.953035 183.090930 17.753799 0 0
-65.940994 123.652280 68.683266 34 1
-42.970451 238.494490 -41.446125 8 1
26.672632 81.874657 -25.064650 24 1
-76.799530 164.489900 -2.275014 42 1
10.477939 179.957660 -18.139223 47 1
-26.118586 180.943920 -10.359327 50 1
-112.418690 291.601200 -10.919231 12 1
4.426323 131.484280 -6.011996 0 0
1.795957 51.870525 -4.068480 0 0
-101.155870 221.717160 1.586956 20 1
56.155350 108.875370 -23.192223 3 1
-49.923656 263.083100 -22.048794 8 1
-20.573080 185.595780 28.670156 0 0
-77.292511 264.667820 -16.315369 20 1
3.332685 70.835197 11.201332 0 0
-0.394236 95.616592 -0.829657 0 0
-93.067772 270.763030 72.729187 52 1
-83.678947 192.039750 40.815990 13 1
13.241812 124.595120 -31.468809 5 1
-104.119320 133.534620 73.237450 23 1
-86.597565 106.597110 25.589207 14 1
-10.578605 108.470730 16.046616 0 0
28.386515 129.098340 -26.365402 3 1
-9.318390 125.403270 58.084297 37 1
-40.684723 193.808580 19.339092 49 1
-21.931494 159.215870 17.663076 0 0
-5.947926 50.516426 15.537845 0 0
-12.173542 264.915920 45.403412 28 1
-42.505508 283.051450 47.692535 30 1
-65.857475 137.521530 -8.682768 43 1
-104.313000 282.190700 13.041645 53 1
-27.761547 100.863510 -9.941285 0 0
-6.968725 174.657490 15.917607 0 0
-92.871872 180.359120 -28.918346 2 1
1.787531 184.189000 -20.867613 47 1
-64.899132 285.221100 8.716650 19 1
-12.369154 166.050900 -6.087514 0 0
-104.940160 126.354420 73.431435 23 1
-70.023773 268.675420 62.468693 11 1
-40.164093 222.511980 4.653577 0 0
-54.558102 177.460890 37.519623 40 1
12.877398 70.049385 6.406125 0 0
-3.192546 176.492890 -24.629139 47 1
-95.681763 278.928530 2.635829 53 1
-6.714438 105.550480 68.660683 27 1
18.524807 208.960070 42.252632 35 1
-44.702778 147.218480 8.324277 0 0
-52.518898 169.582120 -35.984310 50 1
-95.063522 251.156480 3.357521 20 1
-63.589424 265.618530 -10.411397 20 1
-75.923882 182.509480 -2.942378 42 1
-76.656853 265.434050 -46.829254 6 1
-28.477510 287.423030 46.498394 30 1
-13.921577 276.767180 33.571068 29 1
-17.623028 114.713890 11.467474 0 0
-31.456648 106.252760 2.155413 0 0
-68.604500 267.567780 -5.175122 20 1
-84.262123 250.921650 -65.470352 6 1
54.621784 114.372810 -24.341309 3 1
-101.535780 125.877260 31.515738 45 1
-67.534470 158.607850 -45.251236 50 1
-14.323208 135.621640 14.305208 0 0
-91.157570 262.265960 45.161339 54 1
-93.528229 272.323210 48.173897 54 1
-85.445847 283.447390 -11.120255 7 1
-90.485420 98.475594 24.098595 14 1
25.512087 113.126660 -4.605922 4 1
-13.484303 280.231750 44.451836 28 1
-85.243767 142.450760 49.115681 34 1
-11.965193 122.022680 49.247505 51 1
-14.422318 172.566730 -11.966515 0 0
28.865580 254.502240 25.684505 1 1
2.704541 60.806664 -2.853706 0 0
-89.337624 179.083970 14.890503 41 1
-12.624045 290.296360 43.445145 28 1
-58.017353 267.481230 -16.913952 20 1
3.128145 180.567230 -34.048462 39 1
-42.696091 172.938110 -21.078152 0 0
-96.571716 284.096310 -12.815018 7 1
-100.081600 123.644050 77.830879 23 1
28.573423 173.180480 31.754755 36 1
-11.769545 125.185390 13.158174 0 0
-64.936134 136.746480 0.344972 43 1
-52.734940 180.762050 -37.304222 50 1
-13.438874 235.975420 45.477726 32 1
12.340631 168.582630 4.773279 47 1
4.910560 106.989660 6.786103 0 0
-12.767870 211.261310 69.719307 32 1
-6.445539 98.826241 72.805435 27 1
-80.250450 137.458590 44.811302 34 1
7.074220 178.956710 5.501844 47 1
-30.375984 187.960360 -10.262201 50 1
-23.302322 203.414350 37.076950 44 1
-93.926537 258.018400 42.468842 54 1
-37.194057 158.191910 -23.424377 46 1
-80.249268 261.709290 3.636479 20 1
-12.104606 119.047000 10.414171 0 0
-48.420334 235.069400 -5.443888 0 0
32.055145 156.623050 19.469540 36 1
-56.452641 151.973590 -16.798475 43 1
46.704124 122.412580 -25.430838 3 1
-23.180878 217.671070 68.897583 33 1
-43.031178 277.239440 46.084393 30 1
-37.442848 197.752620 31.253031 49 1
-90.835770 271.029970 78.057205 52 1
-47.324535 232.697050 78.340118 9 1
17.339293 122.796260 -6.385692 4 1
-101.154290 253.420440 28.050106 53 1
-73.361549 199.313260 31.201288 40 1
-87.954773 247.919860 -54.847950 6 1
-8.680257 77.580345 7.439015 0 0
-29.540390 212.553960 8.678102 0 0
-20.625437 190.331760 -15.156021 50 1
-90.374893 258.995240 -5.594007 20 1
-104.209530 246.455140 88.183250 52 1
28.348024 128.954620 -18.116371 4 1
-27.935200 210.537550 78.315353 0 0
-72.022400 266.680760 -13.412340 20 1
-53.900841 195.870150 -15.074329 50 1
-16.131168 268.761260 51.202454 28 1
-8.420230 29.330235 -1.289937 0 0
4.379921 168.264540 -5.864974 47 1
-52.255341 179.897830 9.961614 50 1
-75.745934 174.998660 -4.853720 42 1
-60.007011 101.558480 32.649666 16 1
-15.288313 180.424770 -8.868609 50 1
-90.701576 265.595830 -38.289616 6 1
-4.233846 239.186140 42.770233 32 1
-12.583763 180.823880 -32.985310 39 1
-127.847080 260.832980 -23.118700 12 1
20.621799 129.568360 -27.277731 5 1
-82.192215 184.760890 -34.379135 2 1
36.602036 148.536580 15.029981 36 1
-84.686356 280.922820 4.094796 21 1
-7.770393 72.793503 -12.014708 0 0
-7.758777 177.650630 -21.039986 47 1
-7.402859 161.440600 -68.742279 39 1
17.565395 123.882390 -37.713150 5 1
-28.314943 295.732510 37.710007 30 1
-55.247757 155.764190 -22.674810 43 1
-81.249893 292.229950 -6.336112 21 1
-9.908452 141.471980 13.198221 0 0
-99.254898 267.245760 85.862801 52 1
5.713734 237.442030 43.025681 32 1
-22.882200 76.064384 8.381259 0 0
24.171635 253.096920 21.560122 1 1
-20.819756 292.441040 31.723530 29 1
-22.134407 294.522520 44.936989 30 1
8.068904 108.446210 60.034058 38 1
-75.068237 259.621670 -2.457879 20 1
-50.535305 282.303770 24.831768 31 1
-38.167793 89.900421 8.705613 0 0
-52.351505 172.496930 -41.237099 50 1
-55.208054 194.398770 -8.820796 50 1
2.518399 181.006900 -40.102264 39 1
-92.061119 238.359710 -58.936592 6 1
-12.796522 158.091720 -34.990826 46 1
-84.341713 175.437760 7.042154 41 1
-10.280423 132.912870 5.786849 0 0
-120.834730 286.162290 -20.923601 12 1
-36.565086 289.226230 24.769062 31 1
-35.355656 174.727370 14.193754 49 1
-128.440020 252.555180 -18.970901 12 1
33.666542 135.504970 43.582237 55 1
-125.036990 269.612920 -19.297901 12 1
-27.449978 178.958250 -20.774551 50 1
8.034022 173.444730 -21.328079 47 1
-89.710159 285.130460 -19.671873 7 1
-13.985676 229.394910 58.970184 32 1
-15.769163 208.929350 41.526634 35 1
-67.627106 175.938930 44.400585 40 1
-65.148895 281.295470 18.960463 19 1
-54.227451 245.659260 72.400505 11 1
-115.647150 290.212460 -19.047104 12 1
-57.930214 158.852690 41.714375 40 1
-110.079890 248.023670 30.630562 53 1
14.870140 173.874630 2.672546 47 1
-124.434840 276.299800 -19.079081 12 1
-54.393085 226.628280 83.509651 9 1
23.766502 95.704903 23.783026 38 1
-24.551514 209.404560 39.980556 44 1
-109.650960 255.941380 22.711830 53 1
-46.117092 179.127170 -20.192966 50 1
-101.300490 267.085720 40.853352 54 1
17.724478 127.768660 -10.526672 4 1
-95.357918 250.171780 -11.543684 20 1
-59.961395 187.466490 -31.450886 50 1
-14.927316 243.594180 52.240387 28 1
-92.952766 137.420930 39.265205 45 1
-11.265030 259.815190 58.240799 28 1
24.871981 175.576600 -9.660445 47 1
-8.907600 235.203600 10.006344 22 1
-3.846409 191.284960 22.573029 0 0
-74.152557 135.010560 69.763123 34 1
-52.612534 162.577530 -9.400407 0 0
-90.993179 107.589290 17.689743 14 1
18.543755 106.564070 40.622646 38 1
-62.829277 270.644900 74.442413 11 1
-61.527725 192.141540 -23.760128 50 1
24.996933 184.350800 -8.748741 47 1
23.350349 130.025910 -35.550945 5 1
-13.859865 210.172530 32.247898 35 1
-85.918777 261.283140 -43.210884 6 1
-18.156162 195.294750 33.573147 0 0
-69.520920 196.602980 34.252567 40 1
-68.753807 136.764560 58.322910 34 1
-64.921280 289.682920 -3.469579 18 1
-28.604635 146.003750 17.285622 0 0
-47.132626 225.117570 98.889366 9 1
-1.712679 109.683400 55.122898 38 1
-90.596222 259.670990 -11.329330 20 1
-100.399080 258.912810 25.964136 53 1
-92.683960 140.356770 72.028954 23 1
-98.877617 265.119600 76.557083 52 1
-5.686666 88.487061 83.644379 27 1
-49.955990 191.916790 2.681511 50 1
1.155521 102.073520 5.896698 0 0
-56.755146 273.414640 67.080643 11 1
-47.621964 173.033920 -13.353023 0 0
1.273095 85.749886 36.940159 0 0
-13.028933 55.701542 3.634807 0 0
-0.062748 121.302150 62.783207 37 1
-3.005670 180.913800 -39.465801 39 1
40.887505 161.131960 40.649834 55 1
-93.271317 275.663210 67.877220 52 1
28.983150 72.599899 -44.376896 10 1
57.650684 221.848620 25.502691 1 1
-38.260979 120.543010 8.834225 0 0
-26.333061 215.708470 54.117577 33 1
-41.029728 162.233180 -16.568340 46 1
-122.938590 254.091370 -19.672722 12 1
-77.387650 140.193620 55.575008 34 1
-96.247429 165.413510 49.268444 13 1
-21.694317 56.971176 13.289258 0 0
24.267504 103.981220 37.791832 38 1
-102.321750 252.022370 92.025902 52 1
-109.241870 237.333770 45.663616 54 1
-0.066501 150.366610 -36.207581 46 1
-51.579094 145.818390 -5.359643 43 1
-38.697319 173.889280 8.958605 49 1
-14.559020 162.251660 -65.105949 39 1
-42.174786 207.969940 77.735191 33 1
33.040688 195.183360 47.658722 35 1
-49.632263 239.994830 78.486588 11 1
-103.740660 260.697570 35.598240 54 1
-111.609910 257.255250 16.520050 53 1
0.634768 82.852837 20.936190 0 0
-23.604521 185.085560 -29.278648 50 1
-108.513900 255.801040 42.498177 54 1
-40.033104 246.073090 -41.090336 8 1
-30.919489 204.946580 31.993238 44 1
-18.060232 153.329620 19.351192 0 0
-57.426357 115.820420 7.867968 15 1
-96.891838 266.543240 53.202160 54 1
13.168274 88.446625 79.996849 26 1
-72.693275 279.427730 16.656294 19 1
-23.663797 64.098091 13.277027 0 0
22.490158 126.481560 -18.466314 4 1
20.650955 168.188220 26.804930 36 1
2.321942 237.586380 28.048414 32 1
-19.205341 199.790920 37.895817 0 0
-12.320148 172.603420 -59.927795 39 1
-48.858356 181.390060 20.487188 49 1
-1.528078 212.744110 27.638073 35 1
-14.526011 139.546740 19.654568 0 0
6.084621 119.637570 59.203243 37 1
-4.330509 35.085938 -2.312289 0 0
-72.802368 284.607570 8.404419 19 1
19.604034 169.434810 5.343916 47 1
11.543356 80.055374 85.185226 26 1
-88.930702 172.285870 -37.788979 2 1
-47.436852 284.453550 11.094903 31 1
-60.136047 256.212710 12.527827 0 0
-6.119212 174.992830 -51.447849 39 1
-129.711040 247.982650 -23.766167 12 1
-30.269648 204.239200 70.262016 0 0
0.697913 212.524770 37.095200 35 1
-82.341736 261.766910 -32.583736 7 1
-62.887455 111.842160 14.909079 15 1
-61.807350 153.311430 -23.353395 43 1
-87.922569 288.294650 -11.401026 7 1
-37.122517 187.892140 30.310970 49 1
7.735654 157.142150 35.526203 36 1
-60.568211 127.416900 71.442741 34 1
-84.895760 290.802760 3.897338 21 1
-90.139122 169.494250 -30.869455 2 1
-91.817360 281.271000 -15.150748 7 1
17.248262 93.373161 72.395699 26 1
-58.089741 187.182420 2.203613 50 1
-13.561267 172.477340 24.381231 0 0
-39.423149 270.249880 26.967682 0 0
1.267712 239.786120 12.322103 22 1
-112.597020 255.645030 83.004379 52 1
-47.966145 177.425800 15.998083 49 1
34.415428 155.705570 43.977665 55 1
-107.436740 124.949190 27.703169 45 1
2.257877 136.232850 -47.584156 46 1
-18.744896 133.471650 16.823235 0 0
-37.561924 223.925550 99.650276 9 1
-106.248470 259.289060 30.405603 53 1
-11.652034 278.871700 57.481773 28 1
-17.213673 279.273410 50.292629 28 1
-44.041172 207.580470 22.558496 0 0
1.329507 222.548390 -13.406744 22 1
-82.433632 199.087920 31.164152 13 1
-73.194733 209.828050 79.987640 9 1
28.807842 163.902110 5.128416 47 1
-46.639149 149.101880 -9.556827 43 1
41.268318 121.759650 -16.876640 3 1
21.437592 206.250850 48.612778 35 1
8.195205 165.675340 -15.636722 0 0
-25.106153 113.862080 38.143909 51 1
-66.913826 266.074370 -32.125366 8 1
-49.755627 248.488590 77.697357 11 1
20.677832 80.222351 -20.275145 24 1
-20.249874 118.531940 8.127016 0 0
-19.765877 286.393590 25.251482 29 1
-34.423618 273.374570 31.891068 0 0
-62.354042 146.852290 -12.681395 43 1
-86.349968 138.038960 59.830021 34 1
-14.053575 125.216800 42.628845 51 1
-4.889855 52.104309 -1.814336 0 0
-31.471310 293.812990 41.646378 30 1
7.036933 50.585876 -4.162302 0 0
-8.509184 239.165950 33.946781 32 1
-77.072426 157.704510 9.745697 42 1
-9.847756 150.818250 -48.750469 46 1
-3.521072 232.755130 48.722527 32 1
-45.443611 280.828860 3.484359 31 1
-67.938370 268.741730 -20.571968 20 1
-90.437332 272.435460 -31.511427 7 1
-58.761646 154.256940 -43.855762 48 1
-73.549706 128.565200 -59.971794 48 1
-103.057770 238.965230 -54.862999 6 1
-18.350412 288.888120 54.460991 28 1
3.805150 123.507500 52.534805 37 1
33.817749 140.667500 41.636375 55 1
-117.527230 283.245330 -14.767568 12 1
-67.557175 173.712720 -37.465454 50 1
-77.503349 152.674150 3.922020 42 1
-83.427223 265.873500 -46.593502 6 1
-44.611217 172.918060 -41.253571 50 1
-29.031931 206.375400 46.531635 44 1
-37.466816 284.266540 45.332851 30 1
-50.340042 279.049710 12.628462 0 0
-44.316883 236.123930 11.650018 0 0
-98.766769 248.975110 -55.556725 6 1
-4.496855 143.900680 -49.564457 46 1
-61.181126 146.034210 -19.414267 43 1
-74.064331 132.994550 -63.324677 48 1
51.078178 238.359740 31.771599 1 1
-66.986076 165.306350 -37.664143 50 1
-58.904095 140.567670 0.068044 43 1
-78.780121 133.473340 -54.758762 48 1
-6.904348 51.525013 4.312735 0 0
29.551008 166.399410 31.125496 36 1
2.995784 97.335571 4.060383 0 0
36.331928 164.194690 22.210155 36 1
-25.781519 283.723050 24.468416 29 1
-65.006317 115.028530 72.519325 34 1
29.064520 252.097270 36.213299 1 1
34.130749 165.368330 17.062527 36 1
25.505337 210.426760 32.299763 35 1
-35.298988 275.960450 51.453815 30 1
-82.931091 283.849820 -20.608532 7 1
-61.773514 208.901210 95.866669 9 1
-83.128693 254.897340 -40.953148 7 1
-74.059181 129.640620 70.765175 34 1
-0.300142 42.310741 -3.270542 0 0
-79.327736 161.192380 4.075231 42 1
10.668277 109.675760 41.462997 38 1
-68.441841 277.887760 59.254787 11 1
-50.234200 219.314700 87.590515 9 1
