-4.755267 47.969818 -96.785400 21 1
10.154888 20.592493 8.764928 24 1
11.328773 170.325180 5.756568 0 0
-42.515968 160.230120 19.069712 7 1
-59.684776 149.290440 -22.912971 6 1
-52.349163 183.142790 -3.966536 6 1
5.153894 9.672280 -19.652712 19 1
-78.913658 92.936050 -22.013645 8 1
26.173649 134.981220 0.260936 0 0
20.172098 66.534012 -61.410164 22 1
86.858040 147.628490 32.280983 2 1
-41.068676 121.197740 -67.265480 20 1
-29.380705 48.182598 34.301491 0 0
-73.429131 136.612550 15.252564 5 1
16.627211 157.068240 -36.532906 3 1
-30.913952 186.802050 29.066259 7 1
-1.892185 59.997513 -74.431351 21 1
53.677589 180.734150 34.447140 2 1
-29.377092 188.897870 -13.948402 6 1
-63.368958 178.008910 19.288637 5 1
-26.225454 55.690826 -57.601048 23 1
31.969063 181.060390 -40.842564 26 1
61.028992 182.814610 -14.815905 26 1
-0.915379 -0.218388 2.336275 0 0
-52.973221 48.063869 38.501892 10 1
-53.244514 87.780487 27.298159 9 1
31.992338 180.879430 1.008412 4 1
-40.311909 54.298298 14.235710 16 1
-11.418115 63.569942 -19.314222 15 1
105.553280 185.546400 -9.314973 25 1
-38.544678 163.962940 -3.597843 6 1
-22.608545 110.530110 -32.851761 0 0
-30.567606 88.192589 37.124348 17 1
-8.650090 90.531898 -73.877907 20 1
-40.582943 47.862724 57.774426 11 1
128.745150 187.755260 -12.655652 25 1
-24.175331 70.677589 15.843617 0 0
-60.378681 120.886860 -34.645588 8 1
71.681145 171.536510 24.158207 2 1
-28.253229 44.358768 -16.311945 15 1
26.132963 168.458110 -19.625732 3 1
-31.857611 196.956590 6.689406 6 1
-7.863882 57.810814 5.305936 0 0
-3.475731 130.002670 -70.559181 20 1
58.349880 154.359410 -49.249268 26 1
-15.001484 155.884700 7.794832 0 0
-69.826691 116.524560 -93.562759 12 1
-22.936255 145.686860 38.480061 7 1
46.526699 170.721800 -24.021976 26 1
-12.822752 176.564010 30.629490 7 1
-41.710300 154.695400 38.939697 7 1
-61.143417 151.864840 21.950472 5 1
-23.993517 60.013134 50.479603 11 1
74.546394 175.402570 -1.146270 2 1
-2.935119 184.984220 8.469079 0 0
0.744738 66.463280 -35.325409 14 1
-52.163689 132.867110 -79.622437 12 1
-0.764078 123.067930 5.424828 0 0
-2.892678 45.110115 -31.528410 0 0
-44.917622 137.319340 -55.882107 20 1
-1.424739 34.167881 -0.477119 0 0
-42.590298 76.085045 4.983935 18 1
-58.281281 167.772660 -15.435720 6 1
-36.960518 65.692741 -27.216354 13 1
-46.435135 143.059370 -36.493141 8 1
-55.557117 119.733570 -53.727943 8 1
97.361099 186.671300 -27.643381 25 1
94.324661 197.910750 0.765046 25 1
29.186811 16.635798 7.611174 24 1
-67.788445 165.348210 33.920494 5 1
-66.047066 54.463364 22.148724 9 1
33.490097 55.156246 -68.905014 22 1
-24.213318 164.096370 22.153049 7 1
-64.644485 73.309891 30.941725 9 1
6.311530 66.851021 -14.210104 0 0
-25.239956 81.393837 0.497978 18 1
45.121738 190.142620 20.758663 4 1
-58.220814 131.210390 -19.310549 8 1
-46.882820 177.581330 27.541132 7 1
50.424671 169.326220 -42.104580 26 1
-32.540997 107.141220 -76.565636 20 1
16.660805 180.241650 -8.857207 3 1
47.961002 174.371890 -5.574960 4 1
-59.247700 191.382020 31.843063 5 1
0.000757 93.137474 5.281432 0 0
9.703259 58.624130 1.528452 0 0
-9.331709 80.139999 -8.569757 0 0
-68.182922 106.417420 -27.533438 8 1
-26.391308 165.084920 -16.362053 6 1
-51.653801 169.282910 7.035575 6 1
-13.958156 55.871346 -40.007832 14 1
-1.881363 17.400312 -5.497898 19 1
7.000114 58.802933 -89.462952 21 1
-24.741213 74.791420 -18.151333 15 1
-24.290339 127.343900 -68.114204 20 1
-69.195534 129.761840 -82.198021 12 1
-38.997093 176.810330 43.024700 7 1
15.080709 13.694531 -6.178274 24 1
-14.416473 52.121025 -83.201881 21 1
-7.401611 74.150833 14.354236 0 0
-11.583659 63.604652 -60.991917 23 1
17.519220 186.158630 7.915939 4 1
-65.787590 101.919980 -100.983240 12 1
-40.922699 76.948944 30.284117 17 1
-16.899040 56.128674 19.111752 0 0
-31.833870 58.992382 -42.260460 13 1
-46.023026 144.929380 24.009743 7 1
0.926683 158.759260 10.667286 0 0
-38.433475 60.692711 29.191223 16 1
16.369881 122.439710 3.315499 0 0
-32.185532 41.307796 -61.912167 23 1
136.788090 178.965820 -23.379930 25 1
-21.274288 189.967820 16.725840 7 1
80.703117 152.432400 46.174404 2 1
8.319616 53.727776 -63.970890 0 0
-86.752419 113.109740 -92.155846 12 1
-50.297337 185.013810 14.163699 7 1
48.412193 190.010960 -7.362829 4 1
-1.215415 114.706590 -73.491051 20 1
-30.340101 132.517380 -54.096493 8 1
80.087181 158.593280 23.561438 2 1
-10.174517 8.625239 -18.402039 19 1
-43.128555 182.561550 -16.365614 6 1
132.634540 192.475770 1.267735 25 1
71.159782 190.508540 -6.328799 25 1
-51.482059 166.069370 36.234432 5 1
-22.685869 96.442307 -72.584602 20 1
-46.590343 45.706131 24.883545 16 1
-25.411963 58.332897 -20.949169 15 1
-63.995743 178.477460 4.320050 5 1
-48.078587 87.350899 13.200471 9 1
-16.602446 51.665604 -68.434944 23 1
-32.103970 40.721157 67.776573 11 1
-77.387177 136.236600 -71.542458 12 1
-40.577415 54.072884 44.198208 10 1
-33.511944 168.430710 10.330872 7 1
44.846569 181.105000 8.365215 4 1
47.036694 149.994890 -57.604473 26 1
34.336388 178.523910 -26.535753 4 1
-72.498268 135.917830 29.801521 5 1
-40.039181 191.074690 -4.240135 6 1
-10.133928 74.870705 -30.545477 14 1
-26.560938 176.515820 -6.865523 6 1
-54.221447 48.679813 52.927509 10 1
58.159031 176.149960 21.472809 2 1
-52.310211 160.794070 -27.550419 6 1
-65.886993 164.217560 16.211575 5 1
35.404598 176.441540 -12.214513 4 1
-3.970378 171.076000 5.501383 0 0
-51.841625 130.643510 -40.650948 8 1
-7.588883 52.502213 -9.480891 0 0
-71.573524 94.014595 -34.067669 8 1
66.802826 173.031980 10.779326 2 1
60.139709 169.831890 -20.517071 26 1
29.342852 148.634230 -1.070490 0 0
1.262177 47.310204 3.572671 0 0
-38.336010 192.982620 18.918251 7 1
6.073938 67.382027 -62.389774 22 1
62.590595 169.931240 34.534691 2 1
14.226244 166.164760 -26.366140 3 1
-33.505699 147.772350 29.774786 7 1
-24.619234 44.817638 21.096031 0 0
-5.247768 102.663090 -68.123459 20 1
-76.316711 105.370430 -16.501602 8 1
117.368080 191.893160 -6.426635 25 1
18.826656 57.583549 -71.647148 22 1
49.625534 183.762070 -22.046381 26 1
-24.646763 178.201030 37.897068 7 1
45.279972 179.230670 -34.513378 26 1
-67.574989 147.344570 9.274945 5 1
-3.961064 62.348190 19.879482 1 1
116.717150 182.393910 -16.314457 25 1
-51.219891 139.278530 -67.624405 12 1
-31.533998 178.513730 -22.238262 6 1
141.153290 185.525910 -6.460268 25 1
-64.387924 178.682600 32.566730 5 1
-45.496033 163.954280 -14.933954 6 1
-58.639019 113.046250 -100.024060 12 1
-58.588398 37.905834 44.899666 10 1
-26.306789 120.837930 -40.515785 0 0
-32.410984 78.743378 46.130085 17 1
-16.973711 43.972969 -93.240463 21 1
-53.226212 167.674500 20.777864 7 1
-59.461918 124.360760 -89.198326 12 1
8.451744 52.755856 -77.960556 22 1
-27.136013 158.414700 33.885471 7 1
107.349350 197.821720 -0.082930 25 1
61.968185 180.148530 -1.760814 2 1
-45.249004 42.720364 10.902235 16 1
-26.292406 188.388980 -1.406908 6 1
-61.703175 163.838590 45.139984 5 1
-18.186996 188.123760 29.111927 7 1
-27.964264 49.962749 57.503918 11 1
82.003387 196.274460 -2.625058 25 1
-18.408354 175.361420 19.168180 7 1
33.755478 186.968090 12.088284 4 1
93.160057 187.756620 -7.350747 25 1
38.978359 172.009260 -47.298412 26 1
-18.074682 62.944870 -30.288944 14 1
56.798824 174.045650 -32.093166 26 1
-36.937618 88.303291 26.136330 17 1
-4.069562 39.968548 -16.121428 0 0
-44.326420 194.080110 7.273070 6 1
77.120003 160.321750 35.712040 2 1
-51.325401 140.141540 -25.161831 8 1
-58.387310 111.819210 -44.348351 8 1
-0.396049 57.648232 -19.409485 0 0
-62.518147 57.581581 10.568248 9 1
-13.414301 130.810360 -63.022549 20 1
-8.834982 145.437530 4.919165 0 0
-64.193939 156.874590 -14.126352 6 1
5.865036 48.524712 -39.639545 0 0
7.117553 51.057823 -99.150002 21 1
0.016833 65.312729 -2.201156 0 0
-58.181385 167.024720 -3.125899 6 1
-16.400660 165.790950 35.575699 7 1
-30.690018 80.524490 19.010504 0 0
-0.503648 15.425567 6.377700 0 0
-58.755856 78.786568 21.432934 9 1
-31.371908 61.274727 41.035511 11 1
-62.320217 120.432160 -22.648216 8 1
-36.840469 164.949620 43.049725 7 1
-48.105167 156.442840 28.961134 7 1
25.630135 173.052900 -5.438278 0 0
-58.878712 191.089290 19.890989 5 1
75.453957 165.206970 14.571296 2 1
-18.333399 156.089770 42.287205 7 1
-29.656292 116.646760 -69.963669 20 1
0.195896 111.210290 4.133062 0 0
-17.316072 101.784620 -26.785133 0 0
105.957070 181.519930 -21.269272 25 1
-40.546150 136.750850 -44.865921 8 1
-5.443511 133.886570 6.800848 0 0
30.115627 44.920799 -73.843674 22 1
-35.729847 48.225651 -44.997852 13 1
-3.330814 53.710690 -86.674484 21 1
2.530090 59.115967 10.726052 0 0
88.731712 151.098790 21.290445 2 1
125.627430 182.466110 -23.779987 25 1
-69.208862 153.720890 30.342276 5 1
60.372742 162.984310 -41.749680 26 1
-40.743050 66.016594 -0.406818 18 1
-28.175266 73.008759 -29.274429 13 1
16.686855 175.140110 -19.191048 3 1
-12.620402 122.853590 -71.309624 20 1
-53.728535 77.990829 7.182176 9 1
-3.007952 55.549751 -36.540565 14 1
-36.101665 170.440800 -13.453894 6 1
-65.247765 65.947510 22.185911 9 1
4.871476 36.903564 -9.643413 0 0
5.700109 180.814620 -12.202613 3 1
48.685902 160.471690 -49.144272 26 1
-53.226658 128.858810 -29.321959 8 1
-20.119108 165.704040 4.335722 7 1
-9.379425 49.679317 13.135568 0 0
-70.048538 144.859560 22.943899 5 1
-27.861614 54.171341 -10.506319 15 1
18.561232 14.012468 4.677491 24 1
52.143192 190.948100 3.562243 4 1
-2.465286 57.391930 -63.410439 23 1
-45.375931 126.625560 -86.348389 12 1
-51.717983 183.700990 35.624165 5 1
-31.855104 72.429924 2.012890 18 1
-62.217300 135.766590 -75.565376 12 1
34.630054 9.712955 0.604169 24 1
-50.207432 174.137570 -19.882109 6 1
-38.306175 130.741550 -62.106277 20 1
-10.274636 66.226570 -37.647995 14 1
-2.560272 3.279066 -24.624784 19 1
3.198402 169.207490 13.863555 0 0
-76.268890 122.214060 -86.374046 12 1
37.927372 186.043400 -7.129907 4 1
-27.497789 137.102710 33.120426 7 1
-43.457821 51.692581 33.791481 16 1
-0.475078 73.581505 23.002346 1 1
-26.750431 47.476437 -69.712677 23 1
98.072815 189.791030 -17.021667 25 1
-28.387857 197.028020 21.426664 7 1
-74.744049 107.141910 -96.605591 12 1
32.786438 189.222060 -28.654503 26 1
-42.451752 80.824440 20.091629 17 1
-30.027002 156.341090 44.285290 7 1
-34.343651 83.080696 6.907932 18 1
-47.018021 57.060902 52.572006 10 1
-20.917875 57.839535 60.806618 11 1
3.846558 41.896038 -23.491011 0 0
-60.474541 187.407040 9.600434 5 1
-33.567741 158.271420 25.056379 7 1
-47.686707 70.675217 36.090534 17 1
-51.466084 36.480740 27.944170 16 1
1.874741 69.942848 10.689600 0 0
-69.482712 157.281270 41.500671 5 1
-48.528488 128.102280 -51.563221 8 1
-7.820548 39.835117 6.127067 0 0
-61.146793 162.401280 25.838898 5 1
-34.300579 45.323563 44.272224 0 0
3.222562 57.781204 -9.252866 0 0
-23.208704 65.298233 -13.165407 15 1
53.584183 185.234990 24.805681 2 1
5.822896 86.236603 -0.324796 0 0
27.879744 183.044160 -8.884580 4 1
20.557467 7.033477 -12.241695 24 1
2.033334 24.384451 1.372909 0 0
-38.467022 57.829086 -34.054207 13 1
17.310993 177.875120 1.423409 0 0
-23.680668 64.330231 -46.095116 13 1
80.449287 167.871890 2.949154 2 1
22.966263 161.182070 -28.871855 3 1
51.715416 172.514270 -15.129365 26 1
36.230297 190.610570 26.029329 4 1
-64.488693 111.206140 -35.907135 8 1
-38.324093 179.584580 33.125736 7 1
-30.835026 170.531450 0.310888 7 1
-16.816265 55.435658 -16.154703 15 1
-57.604778 175.584850 -8.734849 6 1
-1.044727 44.535194 -6.014304 0 0
-60.586678 171.565600 11.579067 5 1
-16.533655 71.588837 -23.229965 15 1
-39.919556 184.290340 24.264950 7 1
-54.596226 121.164350 -43.039722 8 1
-10.058432 15.718104 -11.188848 19 1
31.216127 184.117110 -18.736134 4 1
7.589314 15.805278 0.227282 24 1
3.039505 101.842920 1.228765 0 0
-28.004322 142.214390 -55.546097 20 1
-65.301254 172.823850 40.681782 5 1
29.228163 62.840683 -64.038452 22 1
-52.632973 185.620330 25.517975 5 1
-7.041525 65.494934 -28.111017 14 1
-48.406506 165.962620 -4.944570 6 1
-14.183530 101.822720 -72.448280 20 1
89.431641 188.856120 -22.007467 25 1
-32.742527 54.993389 50.406647 11 1
-3.710943 8.887157 -0.438637 0 0
-41.936737 167.411160 5.215849 6 1
-16.686905 45.397587 -76.209587 23 1
40.515087 168.344710 -3.092686 0 0
100.750520 194.015790 -6.586383 25 1
-49.571201 153.083920 19.741823 7 1
-9.544132 86.745407 -15.979426 0 0
-4.167984 74.230492 -2.433070 0 0
51.964752 181.899430 -0.646762 4 1
-40.147953 77.649467 40.068546 17 1
-47.811996 172.345320 42.842670 5 1
-31.620163 66.053841 -35.468147 13 1
24.774332 183.830220 14.424819 4 1
-9.313560 53.085163 -74.904770 23 1
-63.180202 155.300280 12.887613 5 1
24.256506 11.061671 -2.727721 24 1
51.844963 182.134550 15.270154 2 1
5.097626 15.988013 -12.163629 19 1
57.999928 178.926240 -23.245527 26 1
-26.641983 89.001396 6.428971 18 1
41.546623 184.965160 -27.509878 26 1
39.852661 187.059450 2.535464 4 1
-65.903084 170.921550 25.424580 5 1
-51.519905 188.273210 4.235416 6 1
-23.944607 186.664400 7.850108 7 1
-9.724064 64.275864 12.322029 0 0
-23.033731 106.006780 -74.079582 20 1
-61.704483 185.165800 39.253929 5 1
137.666180 184.567380 -15.569917 25 1
-65.593956 126.342920 -15.428512 8 1
-8.231222 47.909832 -39.242649 14 1
65.470818 180.602710 16.595707 2 1
61.902855 178.428380 30.033661 2 1
-22.826103 132.833740 -60.263927 20 1
-53.882973 176.340480 16.676901 7 1
5.197232 168.743760 -28.461184 3 1
-43.172272 54.589119 23.366074 16 1
70.302582 165.342000 31.292065 2 1
57.863117 187.217530 -6.681170 4 1
-30.405762 67.525383 -20.563974 15 1
-78.132111 129.841350 -78.959328 12 1
-0.383993 55.925323 -0.659239 0 0
-25.353588 170.822110 14.551112 7 1
11.041745 61.813004 -68.225533 22 1
-74.239182 97.768646 -100.288090 12 1
-59.779125 81.589134 30.381939 9 1
-56.639561 158.946750 -19.377439 6 1
-2.778128 176.640790 13.003609 0 0
50.303761 191.524080 13.035453 4 1
-26.751036 72.530899 -5.887245 18 1
8.736474 161.314130 6.156058 0 0
106.533730 182.283740 -30.590355 25 1
2.445669 150.775120 5.951503 0 0
-42.959076 147.766010 32.343746 7 1
-69.410820 114.400400 -22.748417 8 1
-56.047947 44.258873 60.891518 10 1
-62.524960 184.953740 25.997046 5 1
40.641960 178.422790 -1.614396 4 1
56.573353 177.273760 -8.857870 26 1
-31.798922 148.968370 38.785488 7 1
-29.756302 196.876360 -2.288925 6 1
18.571508 19.010647 12.404114 24 1
67.104774 180.771760 5.874157 2 1
-74.643089 100.504540 -24.871902 8 1
23.613586 184.499450 0.953190 4 1
-45.932846 167.021880 13.778337 7 1
-18.323511 169.487820 26.563662 7 1
85.770332 146.542390 41.256374 2 1
-40.032505 151.909910 24.402084 7 1
-55.894905 179.494250 8.290124 6 1
-32.339497 124.079360 -65.527084 20 1
-2.566943 12.942131 -16.041655 19 1
10.251093 162.871110 -33.789612 3 1
-19.066481 63.430336 14.109589 0 0
125.556300 189.362920 -3.578244 25 1
-67.527824 102.230500 -35.889275 8 1
3.115177 131.251590 5.736247 0 0
-20.984470 119.436730 -71.109856 20 1
-18.828943 58.225311 -62.041096 23 1
42.556732 172.592250 -16.198822 4 1
-60.147022 129.268020 -81.727264 12 1
-33.384102 162.818770 17.303802 7 1
-26.607964 60.324623 -29.636654 15 1
-30.630186 172.681810 41.613094 7 1
-46.872017 90.302353 21.531485 9 1
-38.123096 84.375580 34.347973 17 1
-48.341976 50.191086 46.189629 10 1
41.059460 183.567860 16.039434 4 1
-36.155254 139.043880 -52.468884 8 1
-16.600876 174.151470 38.595238 7 1
1.580648 60.431961 -82.590828 21 1
25.703833 52.596752 -74.349403 22 1
-38.738903 140.898100 27.830395 7 1
65.862007 176.175480 -18.127985 26 1
75.461655 172.152440 9.093313 2 1
-29.449717 50.640381 -22.488930 15 1
-50.657661 179.286670 -12.690074 6 1
109.707530 188.309190 -16.567699 25 1
23.465631 175.557170 -13.620205 3 1
-10.451608 57.935787 -67.675774 23 1
-78.177704 114.788730 -91.400528 12 1
81.409035 152.799670 36.933243 2 1
-10.196247 48.705193 -90.029839 21 1
-18.737946 44.472614 14.687586 0 0
-61.795048 163.468380 8.576349 5 1
-16.922752 183.479580 21.886784 7 1
45.555359 188.026180 -15.485099 26 1
-40.374981 128.838470 -48.710552 8 1
-48.650574 135.327790 -33.256912 8 1
-58.171291 160.575500 17.728018 5 1
-12.823004 18.412531 -3.343003 19 1
-68.628044 144.167680 31.487823 5 1
-35.639008 53.727974 36.886246 16 1
-63.992020 162.302350 -7.422548 6 1
4.548653 40.590996 -0.761506 0 0
5.663958 50.106743 -3.289245 0 0
-45.286926 185.628270 -8.607047 6 1
-42.715187 198.811490 14.281052 6 1
-46.293156 135.395810 -73.862671 12 1
-66.875267 110.142050 -98.742195 12 1
13.480321 11.424067 -14.279754 24 1
66.641464 171.569210 -25.806963 26 1
38.346645 175.812210 -38.155941 26 1
-15.312926 54.978924 -31.635521 14 1
-54.628231 81.998894 14.699059 9 1
-67.593590 122.173130 -87.597984 12 1
-39.402184 78.812737 12.402679 18 1
-19.941814 181.670140 13.664658 7 1
-14.085558 56.882130 11.026649 0 0
-55.592567 168.125370 28.930515 5 1
7.273827 94.593178 -0.102147 0 0
-0.096793 82.670410 4.603689 0 0
-24.117849 42.363197 70.106331 11 1
-28.568361 180.071330 -14.281501 6 1
-40.204609 178.016860 -22.983068 6 1
-49.270096 43.076004 32.746841 16 1
36.692982 183.837160 -34.323223 26 1
54.131584 174.261900 29.052946 2 1
-34.270023 47.657204 63.346245 11 1
-44.412552 162.788700 39.417938 7 1
-49.585869 41.430294 18.033939 16 1
-7.976775 110.341850 -70.941139 20 1
-22.515495 171.964050 -0.726825 7 1
-8.317450 55.976170 -17.187450 0 0
12.197379 115.236970 2.283849 0 0
-17.807236 181.903520 34.762756 7 1
-19.934891 73.427422 -30.682226 14 1
-37.634117 187.744640 -12.796207 6 1
80.012703 189.775410 -7.634814 25 1
63.614063 171.069240 26.243347 2 1
16.549170 54.769630 -79.153671 22 1
-59.776165 165.295720 36.224533 5 1
57.633289 174.757950 39.164772 2 1
113.119060 185.002880 -24.007025 25 1
1.645652 53.562294 -93.402817 21 1
19.725445 129.893720 1.595583 0 0
53.342632 185.734730 -13.543294 26 1
-28.775757 48.943623 -61.746140 23 1
85.065979 156.721020 16.429541 2 1
-84.024208 119.791500 -87.995956 12 1
-45.588421 175.997280 35.746639 7 1
144.634950 179.838780 -20.878199 25 1
-4.250364 43.864594 -23.421732 0 0
109.167240 190.799360 -4.045565 25 1
-66.789909 157.893810 21.454489 5 1
5.177691 56.765133 -71.524048 22 1
-61.446552 117.217990 -93.474236 12 1
-53.730057 167.110280 -22.405832 6 1
-43.979015 84.295448 27.719477 17 1
-70.227821 133.763020 -75.051590 12 1
-28.869881 39.421783 -69.216019 23 1
-56.465424 169.780320 42.284832 5 1
74.799240 157.651600 43.135605 2 1
51.338570 179.652830 -28.978960 26 1
-58.836349 171.870420 3.565391 6 1
33.411465 185.576000 20.164339 4 1
-19.669159 64.449150 -20.514185 15 1
-30.132507 60.867561 -14.658408 15 1
133.953020 190.070860 -6.766977 25 1
-62.757580 115.261460 -28.986111 8 1
-27.479303 193.346660 12.556887 7 1
-36.594097 113.742270 -73.117516 20 1
-44.241917 47.726204 17.339378 16 1
-46.108727 164.020950 -23.349482 6 1
-40.559673 88.050461 16.874928 17 1
11.311836 175.013030 -13.043091 3 1
-56.323410 45.664734 45.569317 10 1
-24.776962 180.354870 0.330123 7 1
-24.864519 192.122570 26.862841 7 1
-73.813103 132.775560 22.467791 5 1
88.984520 186.213780 -14.380008 25 1
-30.143061 131.652070 -63.479801 20 1
-67.685410 150.244260 17.408382 5 1
-3.486572 44.503620 11.088256 0 0
-7.801302 135.577470 -66.304153 20 1
-33.351540 50.850597 -15.371113 15 1
84.722466 154.575300 28.834185 2 1
-27.380205 49.966137 26.620556 0 0
74.220863 164.080580 22.548939 2 1
-83.396797 107.149700 -96.424110 12 1
130.496950 181.312620 -17.175797 25 1
63.569767 168.570600 42.389149 2 1
-4.406233 122.454460 -73.137276 20 1
-1.390004 47.893402 -43.435448 0 0
9.420190 71.644585 -8.584816 0 0
-3.096032 52.182781 8.832174 0 0
90.236092 194.987520 -5.528654 25 1
120.874880 185.562770 -10.246948 25 1
25.140879 176.355130 1.856311 0 0
-17.630281 63.219604 -38.318676 14 1
-56.833767 70.664803 5.572878 9 1
-57.810318 41.473713 52.307453 10 1
65.034172 172.391660 18.519526 2 1
-45.708195 191.369860 15.545164 6 1
114.558900 194.252960 0.688913 25 1
-31.584362 125.555830 -44.323605 0 0
-4.667551 72.647438 7.062418 0 0
-53.163059 128.170620 -85.925705 12 1
41.866802 176.162770 -27.404808 26 1
-14.754647 163.602910 9.767811 0 0
56.300850 167.416080 -36.606804 26 1
-31.174530 91.761589 21.831110 17 1
58.187706 186.204900 1.696918 2 1
72.641144 173.343660 16.371655 2 1
-6.858546 68.923035 23.138725 1 1
-46.582554 182.030060 20.416485 7 1
44.251686 166.254520 -46.241165 26 1
58.618958 184.440670 18.844503 2 1
-58.619091 179.141690 -1.480952 6 1
125.478390 195.679860 1.376594 25 1
52.958683 181.814620 7.175129 2 1
-53.508289 124.571850 -35.870140 8 1
-60.225227 127.148140 -26.253031 8 1
-42.577671 120.454120 -45.675499 8 1
27.323906 181.808170 7.291560 4 1
-4.668222 178.730590 4.052470 0 0
-33.177250 192.364230 -7.733434 6 1
-52.280479 160.343860 23.287897 7 1
-47.909214 134.398120 -46.223316 8 1
-28.090284 172.327900 -13.722383 6 1
-52.413189 164.119130 -11.380738 6 1
-6.651181 64.621353 1.762055 0 0
-40.226398 53.061111 51.892124 11 1
-32.660610 80.835320 38.584282 17 1
-2.909107 72.555779 -32.204300 14 1
-15.534661 93.989525 -74.763939 20 1
51.625114 154.528750 -53.151535 26 1
-38.021408 194.677540 2.594904 6 1
-53.657665 174.546490 24.276525 5 1
25.863905 57.039890 -67.859314 22 1
-4.895309 58.145596 13.475647 0 0
-6.433469 47.139919 3.925009 0 0
2.552685 174.388700 7.922509 0 0
-1.342867 51.982738 -14.144672 0 0
-5.922199 16.134104 0.958100 0 0
49.326630 172.701930 -35.278862 26 1
-9.623440 60.075741 -33.073936 14 1
2.941991 72.095451 -4.444593 0 0
2.369261 53.416542 -58.967213 0 0
113.165140 185.772140 -10.152145 25 1
-35.306431 52.700703 -38.786583 13 1
-35.231133 72.011963 48.450840 17 1
11.428040 179.040080 -3.335920 3 1
-68.718704 142.807880 15.328706 5 1
-55.327461 196.663890 23.741270 5 1
-41.864220 66.141815 38.027161 17 1
8.234142 63.097008 7.519614 0 0
-22.204962 163.111880 30.473562 7 1
37.001312 181.603910 7.019501 4 1
-30.864256 181.052230 34.558285 7 1
54.072346 172.350630 -24.358374 26 1
-26.712444 184.393360 -8.300191 6 1
-26.997845 45.254444 63.687260 11 1
-27.053207 57.749699 -48.042660 13 1
-62.437168 63.407780 15.597515 9 1
68.389816 173.652250 3.376623 2 1
-62.620804 179.512770 11.820441 5 1
10.783147 171.029130 -21.616678 3 1
-24.554819 184.941240 32.768845 7 1
44.643524 157.383790 -54.777512 26 1
-58.664944 137.997860 -69.244255 12 1
2.655282 62.286270 -66.834305 23 1
-5.995575 57.051792 -80.436455 21 1
0.883222 165.626250 7.477061 0 0
43.860313 188.212770 10.744863 4 1
60.720654 177.813350 11.124007 2 1
-27.944078 115.057170 -35.945808 0 0
-17.217272 124.791280 -65.504974 20 1
98.623558 183.195420 -20.975866 25 1
-17.947342 163.773390 42.657639 7 1
-5.746602 140.771510 9.943390 0 0
-63.258171 73.067902 23.540806 9 1
-42.087173 61.844456 44.259434 17 1
-45.270050 137.524370 -63.377377 12 1
-70.663422 138.063520 -68.717850 12 1
36.309135 176.138120 -19.701633 4 1
-25.459471 52.672531 50.951046 11 1
-1.957750 69.144791 17.086689 0 0
-9.942502 150.724910 10.120705 0 0
-59.971375 64.304024 8.103348 9 1
-38.951557 73.285065 -0.932041 18 1
-27.451073 171.586090 6.903963 7 1
-8.527298 125.888880 -65.835945 20 1
-22.918722 64.992928 20.521528 0 0
-32.333790 142.538680 34.944031 7 1
-57.047634 120.649730 -27.987024 8 1
-46.559586 189.084240 -1.248184 6 1
-35.302349 81.288109 27.988455 17 1
3.460422 39.692242 -16.402647 0 0
35.623585 151.988890 -3.205632 0 0
-34.621391 196.566070 13.574718 6 1
-51.198208 84.316765 20.900133 9 1
-0.161239 61.948986 4.433936 0 0
-34.225914 169.574830 -6.341980 6 1
-50.751667 53.170578 57.684097 10 1
-35.064888 184.132350 -18.719387 6 1
-0.494705 39.902142 4.604623 0 0
0.280327 135.212200 11.296519 0 0
46.918026 187.539120 -0.559318 4 1
65.953300 177.893140 23.446581 2 1
44.240089 173.336460 -41.908447 26 1
-18.067541 41.451790 21.397692 0 0
-38.169605 65.119423 50.087524 17 1
3.908237 117.572350 3.936418 0 0
19.929409 169.718750 -23.376036 3 1
122.924870 186.079760 -17.666656 25 1
-40.594299 167.561800 -19.133896 6 1
-22.397270 51.939777 -63.786488 23 1
-30.322935 84.818207 12.790124 18 1
-62.292774 173.175870 -3.654912 6 1
-65.949165 158.238820 35.163563 5 1
71.829849 164.562270 38.462765 2 1
-43.386700 130.925090 -41.471745 8 1
53.395649 162.639710 -43.900043 26 1
-31.263651 90.472412 30.198788 17 1
-54.684490 167.734100 13.617880 6 1
98.775223 184.632310 -11.912926 25 1
-24.715876 151.653690 42.546062 7 1
5.719204 49.156704 -47.010834 0 0
37.270069 185.591710 -14.365387 4 1
118.999920 179.627010 -22.813656 25 1
-61.312687 184.617780 17.054337 5 1
26.005186 142.221360 -0.206302 0 0
-56.720581 155.242260 -25.820557 6 1
-7.115682 63.400860 27.942923 1 1
-0.391976 75.937187 14.162597 0 0
-23.844610 112.399710 -70.788879 20 1
-67.938782 160.521940 28.248903 5 1
-33.324833 191.125950 23.801193 7 1
-25.922344 66.733398 -26.371202 15 1
69.179565 180.289730 -1.353631 2 1
-72.779785 111.653990 -16.759508 8 1
34.325775 178.438160 -5.366081 4 1
-21.449709 50.310692 -73.692429 23 1
21.875702 179.194610 -3.998449 0 0
46.637875 185.817600 26.613430 4 1
13.115154 67.791901 -60.724266 22 1
-64.967133 148.766360 27.205362 5 1
-45.190235 131.086490 -80.707268 12 1
60.087547 173.487300 -14.324596 26 1
-56.571846 142.070590 -63.702778 12 1
-68.984886 137.921710 21.099043 5 1
-64.868965 171.089200 18.070032 5 1
-46.484245 53.592602 40.150837 10 1
-61.597626 106.406850 -40.583950 8 1
41.505627 174.454350 -9.011124 4 1
-59.172062 114.009860 -51.131695 8 1
0.752623 69.958565 3.218365 0 0
-55.344372 195.422580 15.415748 5 1
-50.504162 179.317570 41.155792 5 1
12.161991 55.010166 -72.142868 22 1
24.069460 14.276525 12.012604 24 1
5.101496 53.478672 3.382421 0 0
-13.597742 138.661360 -63.500080 20 1
-41.963978 166.621570 -9.336563 6 1
-58.474617 114.598680 -37.646011 8 1
1.728167 64.736717 -9.191724 0 0
144.517440 184.715820 -13.411123 25 1
-38.006184 43.631680 -39.465431 13 1
-47.117184 77.975449 26.946014 17 1
-24.936831 43.403942 28.041910 0 0
-75.136856 94.041351 -27.934690 8 1
4.183918 13.527939 -5.560354 0 0
-55.389622 134.294430 -25.315195 8 1
29.142735 183.250030 -25.459627 4 1
-67.672226 164.115810 40.985058 5 1
3.809329 29.940483 -2.707010 0 0
-15.481457 70.485313 -35.429775 14 1
64.934425 186.843290 -6.578701 4 1
-5.423289 63.714653 -64.598495 23 1
-36.036659 172.717970 -20.818644 6 1
-55.147964 118.136510 -96.553604 12 1
-5.377005 96.603172 -71.759262 20 1
-7.601443 59.807987 -39.839489 14 1
-35.647415 76.142174 6.683839 18 1
81.303497 162.586210 17.566669 2 1
-20.790215 160.055890 36.994816 7 1
-34.375305 49.507565 54.594261 11 1
33.488331 176.135220 -45.723484 26 1
-27.932367 100.944940 -73.989586 20 1
76.879768 163.243790 29.307230 2 1
-18.916533 191.881770 23.079205 7 1
-3.841058 54.300533 -55.776264 0 0
104.027750 186.989460 -25.248663 25 1
-26.969122 67.228966 -40.606918 13 1
3.765153 45.363960 -33.736012 0 0
-27.544224 191.764500 4.660162 6 1
-36.704979 157.949830 42.751190 7 1
-73.274200 107.311530 -22.499565 8 1
17.930590 61.993797 -66.228630 22 1
18.901651 50.294518 -74.336601 22 1
-39.507133 59.043457 19.435419 16 1
-39.117847 133.107500 -54.634853 8 1
-78.453766 99.121475 -18.752075 8 1
-56.696499 42.065502 39.606480 10 1
35.675171 167.101070 -50.984722 26 1
-38.410870 60.081238 36.153645 16 1
-54.355953 182.798970 19.390209 5 1
-39.040165 165.771480 14.524562 7 1
-33.563007 54.971573 43.410721 11 1
50.095039 179.514160 26.678238 2 1
68.450607 172.039370 31.160921 2 1
-60.109631 105.703630 -47.330875 8 1
-30.312517 52.542309 -44.525127 13 1
-66.299149 66.659142 29.005079 9 1
100.944280 195.213990 0.392229 25 1
-63.776299 53.114407 15.714124 9 1
-8.874791 117.135350 -72.414513 20 1
-64.681992 165.752660 2.714947 5 1
46.991810 183.514400 20.007545 4 1
-53.147789 135.151260 -72.959610 12 1
-54.132103 125.289590 -48.639759 8 1
-56.640602 75.457184 15.698328 9 1
-12.650600 61.556988 -26.230349 15 1
80.535080 166.115100 9.971891 2 1
-23.654242 159.674360 45.643791 7 1
16.283190 160.928790 -30.825779 3 1
59.147892 179.919780 4.528098 2 1
-23.388092 172.192180 41.078934 7 1
-47.903152 137.091660 -39.888821 8 1
-52.330147 168.608920 0.128035 6 1
-50.474663 191.220640 10.362713 6 1
-60.592281 169.312360 -9.174050 6 1
6.370841 54.709656 -14.632828 0 0
-15.602601 11.985254 -12.634703 19 1
-66.117516 171.868550 32.184818 5 1
-67.199471 153.705050 6.830242 5 1
-52.987900 122.460520 -90.195000 12 1
-3.787756 66.230133 9.596580 0 0
-66.981804 60.512165 25.910797 9 1
52.580730 188.338900 18.611309 2 1
-32.308842 138.728730 28.543802 7 1
-13.524370 182.977720 28.488258 7 1
32.203762 186.219960 5.206745 4 1
-54.448780 173.958470 -14.541006 6 1
-40.963242 72.440437 35.640392 17 1
-19.444366 131.742310 -66.310982 20 1
-31.682224 79.215843 1.972771 18 1
-1.652777 38.774372 -9.551921 0 0
-22.768038 105.571160 -28.220566 0 0
-24.020452 51.719784 62.828560 11 1
-50.172951 160.960300 -18.866716 6 1
-48.512051 36.828300 12.430184 16 1
-17.436810 48.093655 -87.727173 21 1
-60.853058 106.535680 -100.767620 12 1
-41.163044 170.059720 42.102325 7 1
-31.671616 154.565280 30.677656 7 1
31.756142 185.609270 -3.994024 4 1
-48.180176 170.385330 -25.466866 6 1
122.498830 178.846130 -28.530233 25 1
28.523598 12.285148 2.341484 24 1
-19.957460 70.198608 -16.981661 15 1
40.107082 186.124850 22.846598 4 1
90.670372 192.231700 -11.709949 25 1
-3.005241 61.256168 -32.984116 14 1
-50.582314 162.600100 30.020456 7 1
-70.570549 99.546707 -30.127108 8 1
-3.858112 76.262321 -8.893415 0 0
-49.513203 162.729390 17.654430 7 1
5.350725 43.487888 -8.452323 0 0
-23.066111 72.488449 -24.446825 15 1
-27.961765 161.209990 27.257154 7 1
-63.434002 179.379530 42.238731 5 1
14.231517 16.471140 0.079163 24 1
4.873411 106.684100 5.608597 0 0
-45.902267 77.024361 34.716000 17 1
-64.435883 178.568860 25.899319 5 1
-49.624252 165.659820 42.620895 5 1
-28.211369 136.620360 -59.233810 20 1
-1.558128 9.001330 -21.312538 19 1
4.384743 60.278625 -2.279575 0 0
-61.932377 154.888400 -20.108145 6 1
-35.012623 68.239250 -2.947799 18 1
35.819378 185.976460 -23.151722 4 1
86.559990 188.734150 -7.857738 25 1
-26.565369 152.130140 35.904865 7 1
102.890200 190.904820 -12.143029 25 1
133.837520 184.226350 -9.846251 25 1
-26.682978 191.233410 -7.345099 6 1
-37.616425 149.793180 35.635029 7 1
-2.157387 48.986729 -36.811787 14 1
1.396449 12.979290 0.557508 0 0
4.770472 19.255970 5.205242 0 0
2.251944 137.825360 5.502193 0 0
-68.113632 152.084810 36.627758 5 1
-55.317772 183.090000 2.627752 6 1
-42.599659 142.189420 -41.767239 8 1
-28.070730 57.591427 45.922096 11 1
-55.850300 188.526930 14.273293 5 1
-38.249092 54.247017 30.457972 16 1
-26.930996 53.154728 -16.931595 15 1
-1.263297 17.974365 -12.025951 19 1
-66.356964 164.918210 22.733826 5 1
-15.513485 177.399640 24.703245 7 1
-10.319007 43.491688 -94.009315 21 1
21.269512 189.021260 12.476786 4 1
-46.449455 47.402122 37.743244 16 1
-3.012650 169.375580 11.759616 0 0
60.209423 172.750310 -26.651739 26 1
-30.643879 163.115740 45.063099 7 1
-21.673637 169.754520 20.036894 7 1
-26.155685 69.469742 -34.418579 13 1
-11.735804 42.411655 10.655917 0 0
-2.233684 108.426330 -68.514999 20 1
-24.985771 71.539391 -12.511385 15 1
-59.637402 161.548950 -14.079729 6 1
60.018467 181.877530 24.851814 2 1
-45.867214 157.861040 35.070202 7 1
17.551548 174.218030 -11.285027 3 1
6.073329 155.717770 8.095040 0 0
-20.592289 174.994350 13.044147 7 1
-3.218984 28.172045 1.332425 0 0
43.524422 186.597890 -21.567259 26 1
-14.736193 96.733040 -23.562675 0 0
5.796336 175.609730 -16.360731 3 1
62.112507 157.567180 -44.797634 26 1
-10.692474 59.141827 16.105465 0 0
-21.990231 43.958618 -72.767204 23 1
-49.937641 141.792770 -31.226416 8 1
6.248893 66.870888 -2.663750 0 0
-36.555580 167.468370 1.693377 6 1
-34.559872 135.012860 -58.748756 20 1
0.589741 4.355444 -1.942661 0 0
-35.313740 119.787840 -69.736259 20 1
73.963455 170.418950 2.857904 2 1
95.650154 192.467410 -3.008940 25 1
-36.687725 86.122513 12.048208 18 1
-62.646317 185.132860 32.907650 5 1
130.606740 178.646390 -25.088558 25 1
-29.051771 112.205380 -74.541626 20 1
12.427626 173.865250 0.365608 0 0
29.828003 179.829960 -14.072110 4 1
-27.671288 74.881516 19.282352 0 0
-48.022331 48.996017 30.207062 16 1
-16.060688 61.714233 -15.204575 15 1
-34.039021 177.689320 39.087261 7 1
-44.639004 82.043419 14.124094 18 1
-51.205589 138.318130 -61.166058 12 1
-5.654022 61.093494 -20.509338 0 0
-41.906048 69.732018 4.649184 18 1
65.440765 162.865390 -37.876789 26 1
-32.165207 85.538956 22.776680 17 1
-72.125580 140.033630 34.842587 5 1
55.443695 183.111600 -18.953623 26 1
-15.046716 89.084877 -13.789852 0 0
-3.592541 21.939457 -0.331729 0 0
-56.311512 187.885090 37.004139 5 1
-60.078472 117.956030 -43.426388 8 1
79.226067 157.418820 30.308432 2 1
45.764240 180.195740 2.141977 4 1
-11.420618 69.998734 -26.653715 15 1
-25.088783 55.795033 56.473785 11 1
8.322896 55.369732 -94.639648 21 1
104.764600 183.012820 -15.083003 25 1
-46.199642 150.501680 27.619759 7 1
25.435268 8.611626 -8.500276 24 1
-28.035133 82.787277 6.312782 18 1
1.800782 48.170246 -97.253616 21 1
-51.396217 41.548801 24.136698 16 1
-13.393407 128.786610 -69.029724 20 1
24.546503 44.614136 -76.898872 22 1
61.737614 170.081450 -32.491016 26 1
108.986740 190.901440 -10.438868 25 1
53.200089 187.937520 -2.081974 4 1
-64.139595 155.661250 26.745146 5 1
-3.877250 34.748516 5.997945 0 0
-30.378908 132.254940 30.170614 7 1
120.363750 192.307100 -0.885066 25 1
38.101341 177.889400 -32.166267 26 1
-34.165115 47.609039 38.391136 0 0
-67.637306 120.672310 -19.262556 8 1
-76.794090 103.455680 -101.292840 12 1
-38.608208 196.718320 8.693432 6 1
-29.037832 56.111881 -25.601179 15 1
-43.688747 166.347240 -0.792433 6 1
76.203156 194.301030 -5.485360 25 1
-50.725014 83.072693 9.424149 9 1
-26.306084 60.992729 -9.679516 15 1
-15.444733 51.516193 -75.070023 23 1
-64.200317 146.361590 21.229130 5 1
21.034630 181.408250 5.805244 0 0
9.509809 12.896817 -8.947491 24 1
-55.134682 82.143585 25.292362 9 1
-36.397621 77.758064 34.541962 17 1
103.998640 188.392240 -19.118347 25 1
-42.153908 53.198116 -31.822371 13 1
-36.969852 72.830505 42.468349 17 1
-32.080318 84.461266 32.344433 17 1
-39.711857 60.064564 -28.353167 13 1
33.818916 49.337994 -71.431831 22 1
-36.581764 81.826286 17.408686 18 1
40.697487 172.597950 -22.374346 4 1
-4.907686 53.029659 2.625026 0 0
71.024590 167.701660 18.628761 2 1
-8.299539 53.751472 -41.469936 14 1
-14.781610 170.869280 32.169430 7 1
96.861267 192.030590 -10.995849 25 1
53.203739 179.843230 20.924435 2 1
110.272490 179.854920 -26.277674 25 1
100.344850 187.801930 -6.814821 25 1
-26.845974 121.658140 -67.628326 20 1
-31.903551 45.032116 58.085369 11 1
137.880800 189.716800 -2.000939 25 1
8.455576 101.554980 4.202637 0 0
24.808386 163.966310 -23.665234 3 1
1.173261 49.612175 -8.974194 0 0
29.272974 7.597418 -1.642023 24 1
-27.714594 165.236860 16.856157 7 1
-55.283134 183.274280 40.986355 5 1
-44.970860 72.304863 30.752359 17 1
-8.587501 36.874290 11.514510 0 0
-4.261852 57.324512 -69.319862 23 1
57.282326 179.071460 16.097122 2 1
-52.622829 192.383450 20.049877 5 1
22.111927 187.839220 18.491543 4 1
54.312328 188.473160 8.780513 2 1
-54.297810 187.495930 31.149969 5 1
-27.233131 75.631401 -0.514865 18 1
-42.349129 187.668000 19.727554 7 1
-52.126671 124.611790 -55.246578 8 1
-5.784996 51.669914 -48.145451 0 0
21.093615 171.031570 -17.216536 3 1
88.228203 197.331330 -0.213466 25 1
-7.577955 19.304529 -6.755086 19 1
6.723690 80.286415 -1.781530 0 0
-33.063042 59.931656 -36.333599 13 1
-61.304638 69.613571 18.829355 9 1
-65.703476 168.660830 45.147057 5 1
93.235703 184.888550 -18.569324 25 1
10.791309 176.909620 -19.639362 3 1
-60.732876 125.534660 -19.683643 8 1
-65.550468 60.017647 19.649614 9 1
-42.129982 48.933701 11.744885 16 1
-53.453121 131.721180 -34.869686 8 1
-55.985435 191.362120 26.674835 5 1
-12.801387 62.256882 -41.909340 14 1
2.965710 55.948879 -65.843124 0 0
-31.952259 68.257446 -29.775351 13 1
13.482925 49.453415 -77.045189 22 1
31.344076 180.941960 -34.552402 26 1
43.491241 186.955900 -9.404345 4 1
-35.903938 183.339020 28.819719 7 1
5.557866 60.821911 -14.042357 0 0
110.710680 182.176060 -17.186800 25 1
-50.745598 181.774580 29.947071 5 1
-68.828941 140.005740 26.798273 5 1
2.235287 18.748943 -1.130822 0 0
71.056000 176.617110 8.351858 2 1
16.601215 182.171860 -2.836902 0 0
-74.770569 127.688190 -83.527428 12 1
28.666201 187.904020 16.668081 4 1
46.542503 168.896130 -3.409523 0 0
-28.946154 184.372180 -18.525181 6 1
-1.665085 75.815155 2.843560 0 0
10.499041 181.801940 -8.636352 3 1
-28.670139 48.206078 -11.664084 15 1
-66.821442 97.417664 -39.481243 8 1
-20.404661 66.908493 -34.214931 14 1
-66.045517 159.234190 9.260753 5 1
-45.036129 57.206474 46.790779 10 1
27.705370 180.687610 -3.331555 4 1
-2.283540 128.716060 6.907184 0 0
-63.922741 126.854330 -85.993538 12 1
-57.006172 182.379550 13.468605 5 1
-57.163742 171.262100 17.832764 5 1
-57.956112 126.228390 -31.980347 8 1
46.811897 173.265560 -11.607187 4 1
-11.286972 48.081512 -77.754791 23 1
43.197433 162.932330 -51.304901 26 1
1.233874 57.361073 -88.116241 21 1
-25.336315 170.663540 -6.168950 7 1
116.884930 188.133180 -14.511405 25 1
-57.039963 166.709670 6.358689 6 1
-43.297890 136.315000 -50.185581 8 1
-5.014076 73.833092 26.959358 1 1
19.639071 9.791073 -6.344105 24 1
68.338867 169.005160 36.334621 2 1
-62.690079 162.733140 31.623646 5 1
-13.418998 58.045269 -20.508970 15 1
-9.170023 54.062340 -85.337608 21 1
-44.858765 77.095741 10.640363 18 1
-67.776184 152.145750 23.076506 5 1
-0.226323 164.248670 13.182018 0 0
46.765648 187.927900 5.535539 4 1
-54.345306 185.702450 9.240449 6 1
5.746020 35.494545 -3.919855 0 0
15.482752 18.584194 6.942022 24 1
-13.011385 84.051071 -11.373701 0 0
-65.063896 137.204420 -70.551079 12 1
-8.191166 70.037903 -33.594727 14 1
85.293991 155.866730 22.752001 2 1
4.354557 97.149216 4.922481 0 0
-0.415936 179.623930 8.167579 0 0
-45.379581 131.422410 -55.334332 8 1
47.394817 175.456970 -30.385168 26 1
55.165154 182.045530 -5.618836 4 1
37.526154 188.245330 16.819969 4 1
-80.328812 125.459150 -83.415314 12 1
51.027084 184.391200 30.297422 2 1
-2.294804 43.732819 0.487603 0 0
-3.849000 51.662910 -92.187317 21 1
-41.882984 87.501045 22.981062 17 1
-28.053997 146.542240 34.244350 7 1
-57.961964 120.456970 -48.332188 8 1
-19.133564 136.647740 -62.835602 20 1
-39.657932 145.951310 24.945282 7 1
5.038600 90.572609 3.626590 0 0
-48.957630 51.530731 52.005833 10 1
-60.268051 182.898180 5.822193 5 1
-70.707619 105.117170 -100.520950 12 1
2.012436 172.418790 -25.138500 3 1
-45.458397 177.796420 -20.366856 6 1
38.412132 187.182010 8.225402 4 1
2.409172 148.208800 11.225712 0 0
71.274231 169.232090 11.970356 2 1
1.515381 59.254597 -36.170063 14 1
-36.909306 134.354320 -49.039162 8 1
64.498909 182.335880 10.920525 2 1
18.996113 13.569982 -1.701834 24 1
-45.856953 196.820140 18.825958 6 1
-4.675694 13.595523 -10.177309 19 1
-64.780029 131.540680 -78.697159 12 1
-66.956879 111.248950 -30.592381 8 1
-40.423218 125.405430 -63.220539 20 1
-44.249573 72.136063 40.584461 17 1
-49.996346 128.074580 -45.562851 8 1
95.246399 189.379430 -22.170221 25 1
88.326958 150.232060 27.049362 2 1
24.286459 13.808328 6.176127 24 1
-36.655003 63.136192 -32.469845 13 1
-9.245682 53.065384 8.395068 0 0
16.200216 173.483950 5.307988 0 0
-74.376671 113.001070 -95.430832 12 1
-46.050842 65.567116 42.024570 17 1
-83.820175 129.175570 -77.943764 12 1
118.212840 185.221340 -21.209679 25 1
50.041794 189.956250 24.377832 2 1
42.060787 191.987180 25.328154 4 1
-61.320000 76.716431 27.627117 9 1
-57.205803 133.088010 -76.728165 12 1
-52.706085 36.233459 22.229620 16 1
-12.507405 106.913180 -69.813316 20 1
16.339705 183.424590 2.947869 0 0
23.431845 63.008556 -64.648399 22 1
-44.869099 150.257510 21.683439 7 1
-11.303947 96.869171 -71.699608 20 1
-43.191265 81.924759 33.070351 17 1
-19.725615 69.139946 12.504298 0 0
-73.429070 118.172970 -89.356239 12 1
-41.574551 55.550430 37.810062 16 1
-7.182955 6.237000 -22.852371 19 1
56.955315 181.469860 29.720642 2 1
-64.836441 167.631060 11.686801 5 1
1.836999 43.186005 -28.737186 0 0
-15.245988 117.742710 -71.650284 20 1
-55.821331 136.625960 -20.073463 8 1
55.269367 159.063460 -48.045834 26 1
-1.945623 55.272747 -9.471170 0 0
84.446648 194.056900 -7.321604 25 1
-15.572262 168.710280 40.438595 7 1
-38.801266 157.238270 22.698050 7 1
-28.736423 44.353302 -65.316116 23 1
-29.290394 161.625380 21.258495 7 1
-20.645718 59.810528 21.357944 0 0
-30.990395 173.892670 -18.415043 6 1
-18.175346 106.169010 -71.080956 20 1
55.835846 186.881360 14.151792 2 1
-21.331022 171.181110 5.392518 7 1
10.402671 16.660763 -4.664537 24 1
129.464890 186.343410 -6.854989 25 1
-45.900509 169.794110 8.795155 6 1
23.412310 186.188160 7.809212 4 1
-35.526516 62.395454 -3.178075 18 1
-41.258785 180.430540 28.314034 7 1
-40.206711 79.973145 25.403957 17 1
-17.859488 160.578410 6.071071 0 0
-58.139084 164.171770 -9.092768 6 1
-5.934647 179.926530 9.540512 0 0
25.702324 50.414474 -79.628189 22 1
-36.116623 89.339859 20.195311 17 1
-60.844021 173.449360 44.160664 5 1
-39.392586 80.470390 6.772760 18 1
59.470238 172.610490 30.058779 2 1
33.030041 184.993030 -10.263852 4 1
41.932678 186.833910 -3.177715 4 1
-13.337136 13.669317 -7.023649 19 1
-4.730278 65.428131 -36.415150 14 1
7.225917 66.048996 -8.674065 0 0
47.028118 182.771730 -27.031868 26 1
-7.008216 66.129128 16.933271 0 0
124.650340 189.727650 -9.151512 25 1
46.346390 182.549270 14.016953 4 1
-46.485687 123.534720 -90.950409 12 1
-43.342838 51.376495 28.014587 16 1
-57.862030 166.641720 23.840187 5 1
-56.334682 73.641060 10.356338 9 1
-15.290602 67.728798 -19.111393 15 1
3.049363 36.020794 2.426285 0 0
-23.339909 61.771107 -25.267101 15 1
92.482513 190.508670 -17.293304 25 1
-60.946381 157.561840 22.500107 5 1
-26.900602 141.841430 37.141624 7 1
69.326485 177.177350 13.894494 2 1
-23.306658 194.617750 20.838018 7 1
-2.234518 56.900993 5.871933 0 0
4.267523 12.514826 7.064569 0 0
19.857126 165.561290 -27.172998 3 1
-37.919090 49.382908 45.790653 10 1
2.099638 145.193250 5.302532 0 0
-67.077484 166.176830 28.196892 5 1
-19.995480 101.330250 -73.431023 20 1
-52.648670 180.065120 24.153917 5 1
-62.608166 120.954100 -28.645866 8 1
-12.321324 53.734131 15.645336 0 0
-34.742741 194.076830 -2.635324 6 1
10.467281 170.227110 -27.289295 3 1
-21.413172 48.475060 -68.351181 23 1
15.633130 178.251720 -14.665714 3 1
-13.280550 58.427765 -62.708405 23 1
-0.316005 42.181717 -19.773262 0 0
62.831680 175.938690 -22.890070 26 1
7.686186 13.467437 -16.419989 19 1
-28.256340 66.064140 -15.624078 15 1
-35.425583 153.076200 39.846539 7 1
139.570660 180.153460 -18.401762 25 1
41.438034 191.692030 -14.638440 26 1
-23.557186 61.146427 56.204918 11 1
4.880599 59.586838 4.218630 0 0
-55.769562 119.467410 -37.539574 8 1
63.762623 176.879060 3.705439 2 1
-38.472462 57.424274 24.685268 16 1
-22.008331 59.320953 -57.492424 23 1
-33.320103 51.545135 32.270100 16 1
-27.793053 62.897736 47.623112 11 1
32.584915 183.632840 -29.848747 4 1
-4.219966 59.644966 1.291338 0 0
-16.874128 62.189152 -58.671459 23 1
-53.771660 164.451690 -5.668077 6 1
-22.332491 48.066441 24.975630 0 0
-6.558221 140.045910 4.499009 0 0
31.240152 188.346150 25.144901 4 1
-43.106903 125.838880 -44.262863 8 1
-38.012062 145.299290 31.885946 7 1
50.346180 170.253710 -20.002029 26 1
42.929436 173.575650 -3.392894 4 1
-49.009041 165.453600 -27.850418 6 1
0.537698 37.225681 -4.660712 0 0
-7.546130 11.145306 -14.222091 19 1
-27.147339 61.928875 -42.198032 13 1
1.669052 30.578531 2.369856 0 0
-11.356320 55.075314 -79.639320 21 1
-34.327015 81.056709 12.200288 18 1
0.398370 50.424267 -0.909002 0 0
-17.130880 58.443279 -35.535198 14 1
10.896123 16.449556 4.604777 24 1
-30.349380 57.090984 -18.750879 15 1
-79.910355 111.362400 -95.667038 12 1
-52.945934 48.087971 58.412193 10 1
-7.046461 58.157391 -75.135109 21 1
-59.332233 164.485900 13.406458 5 1
74.124146 167.462980 27.063194 2 1
-45.213516 152.739940 33.111450 7 1
-65.584618 106.301440 -32.722137 8 1
-36.618145 43.003380 65.135635 11 1
-23.227573 138.577880 -57.929688 20 1
126.272830 183.028120 -14.016573 25 1
-53.969463 179.752690 -7.985483 6 1
0.341358 57.591713 -13.958060 0 0
122.977280 180.786530 -19.147928 25 1
-52.960419 174.256090 43.068176 5 1
-7.834258 69.721375 10.876887 0 0
68.079826 167.931670 26.886473 2 1
31.750414 179.392610 -21.484282 4 1
62.099548 175.397980 34.712734 2 1
62.884472 183.689000 3.118399 2 1
-27.979044 62.936668 -22.484289 15 1
-11.204186 91.220276 -18.681761 0 0
-42.557377 192.426130 0.444104 6 1
-45.987812 168.124080 39.348660 5 1
-4.076460 11.881648 4.129853 0 0
-7.571920 84.623978 -11.339264 0 0
-35.618050 170.733230 42.722633 7 1
6.661210 55.262306 -1.773737 0 0
-1.769168 182.009460 12.983077 0 0
-33.115341 195.063740 19.526758 7 1
-52.280235 136.350850 -29.299109 8 1
-31.086641 87.261147 17.607792 18 1
-30.878712 89.497162 9.981507 18 1
-2.848574 67.068069 -31.215446 14 1
-58.322632 176.538360 13.525314 5 1
-67.447464 152.000690 12.162640 5 1
-66.311485 158.634030 16.085880 5 1
-24.843983 61.180370 -16.355312 15 1
-47.127018 168.010910 3.725928 6 1
-55.464542 128.941100 -24.351868 8 1
28.201069 186.147200 10.431214 4 1
-38.336582 130.253570 -43.884930 8 1
79.577698 155.184840 41.643330 2 1
28.951141 185.419920 0.776866 4 1
-75.510498 134.000470 -76.234497 12 1
22.023964 178.628630 -9.395794 3 1
-62.831451 112.857090 -96.392128 12 1
9.109717 165.962110 3.444996 0 0
76.083603 167.263850 6.901939 2 1
5.120613 45.889362 0.085459 0 0
111.730980 198.173320 3.070270 25 1
5.009886 56.595016 -19.493645 0 0
-13.292047 54.836025 -71.417351 23 1
1.971288 82.473808 -0.378310 0 0
58.544056 183.037320 -10.006361 26 1
-23.290607 181.832810 5.288277 7 1
38.520840 175.950470 -43.664616 26 1
-62.390846 112.624930 -40.847717 8 1
12.505161 176.685300 -8.072295 3 1
-8.245022 46.152370 8.997641 0 0
-63.001690 116.174220 -34.497982 8 1
41.624832 182.517990 -32.292858 26 1
61.613186 166.620380 -36.609745 26 1
-7.512529 126.317140 -71.086975 20 1
-0.659083 20.159832 3.785263 0 0
33.416031 14.382053 2.939735 24 1
-29.672266 68.955116 -3.177110 18 1
130.921050 189.020400 -2.443797 25 1
0.118815 87.994087 3.817188 0 0
69.688332 175.124740 20.459528 2 1
3.671607 53.919514 -53.691994 0 0
62.891312 178.032120 -13.334239 26 1
-30.767963 137.854140 -54.184124 20 1
32.194878 182.492660 9.364586 4 1
16.992567 177.113080 -4.552428 3 1
138.230800 187.576930 -10.417740 25 1
-30.736977 84.864319 41.494858 17 1
-24.963364 131.744830 -65.021530 20 1
37.317253 182.825330 12.193529 4 1
33.951511 157.087600 -3.159221 0 0
-35.684757 152.200060 27.459951 7 1
76.507187 167.749680 19.443697 2 1
-22.301096 68.595947 -43.130512 13 1
38.237919 163.625670 -2.176096 0 0
-53.428684 114.330360 -99.845551 12 1
85.523476 188.795060 -18.190029 25 1
-44.250874 174.402800 -24.306988 6 1
113.762880 180.300770 -21.613029 25 1
52.147331 177.645320 -5.459560 4 1
30.760433 143.609740 -2.128869 0 0
-41.327232 52.027908 19.092865 16 1
-55.713268 162.286010 -23.412766 6 1
-47.159824 165.503740 -10.133471 6 1
-63.317787 175.083180 14.855839 5 1
105.569140 194.704420 -4.461502 25 1
4.658411 112.438220 1.548236 0 0
-54.784634 126.014110 -40.907486 8 1
108.306130 186.888180 -21.816658 25 1
-1.030220 12.353110 -4.129177 0 0
-15.021538 73.537880 -28.716816 14 1
-38.938675 48.840843 -39.444263 13 1
-31.590714 42.680553 62.889057 11 1
-20.084230 124.787410 -70.036377 20 1
-69.747589 152.010790 41.706318 5 1
-22.636429 155.379610 38.610554 7 1
52.357075 174.222720 -9.750562 26 1
10.060781 179.717970 -15.081631 3 1
33.257664 5.672290 -4.516068 24 1
-45.422356 50.009674 21.945745 16 1
36.556568 186.424350 -1.969915 4 1
134.587460 182.592850 -20.238039 25 1
-3.593926 68.741730 27.268749 1 1
-58.236740 177.101140 3.532481 6 1
-47.145508 157.738110 18.804554 7 1
65.600624 181.787550 -5.272810 4 1
66.070541 175.730940 28.259859 2 1
-53.293674 49.350384 47.782143 10 1
55.831390 175.361280 33.897522 2 1
103.766610 181.736480 -26.162067 25 1
-23.144999 64.659157 -30.313097 14 1
-46.885498 191.364040 3.588079 6 1
10.462050 64.403755 -63.707355 22 1
-30.006998 171.980320 -8.292779 6 1
-57.800869 166.097060 18.379383 5 1
45.808865 189.657900 15.380195 4 1
-29.624691 53.919849 54.465996 11 1
83.399094 151.177030 41.747147 2 1
-5.687454 174.747020 8.897842 0 0
-51.416122 47.013912 43.376736 10 1
84.311722 187.640550 -12.466958 25 1
49.379539 165.317790 -45.917366 26 1
