22.128105 140.794170 48.169918 8 1
-20.452682 170.920120 55.543816 79 1
-39.549942 224.761350 108.704590 45 1
103.429350 216.265730 -77.562424 66 1
-32.937553 165.924580 -56.914467 51 1
83.248833 101.105490 -19.698593 6 1
58.730598 224.417160 -15.196838 93 1
-3.224769 153.321000 -17.983049 0 0
58.954506 223.734990 -88.258057 69 1
-50.251091 129.384670 -65.623779 27 1
-8.315085 248.914600 23.041599 72 1
-20.981411 229.674260 24.130409 0 0
115.231800 324.314300 -21.130955 22 1
94.427452 254.788510 30.483286 62 1
14.435594 174.194730 -25.852985 0 0
138.739490 313.465300 -29.696964 22 1
104.626280 241.174940 18.358479 62 1
73.370064 113.297240 -25.038824 6 1
43.842339 355.803960 -31.911322 46 1
73.004692 370.376890 44.590801 35 1
46.984875 358.504090 21.619749 47 1
48.970337 315.968810 39.378357 31 1
8.100593 66.675911 2.872582 0 0
-57.139931 159.528960 61.424866 48 1
95.959801 314.019350 -46.806835 24 1
109.284430 352.497740 14.417074 43 1
72.427803 299.085720 -41.281467 52 1
-67.531609 215.912690 57.521042 32 1
35.779995 209.558120 -20.367130 0 0
59.179070 300.898320 24.980106 31 1
79.986938 350.448330 55.418526 35 1
-1.889810 76.946617 -2.104656 0 0
100.248250 106.728010 43.339523 56 1
-35.557858 105.530050 -110.472640 1 1
50.684135 369.748440 3.286633 47 1
14.188114 281.533910 0.309232 0 0
37.384903 332.448460 -120.402850 4 1
26.136683 384.070860 -2.516757 44 1
-49.647484 215.783980 -84.587273 10 1
0.802839 307.630580 44.605099 15 1
59.803036 312.155000 56.343220 14 1
-27.189663 237.220780 55.274376 55 1
75.724724 124.224790 -6.655986 7 1
-41.985531 229.155330 0.412140 0 0
25.362240 211.304370 54.825958 58 1
57.384480 244.040150 -23.410131 0 0
-25.250416 252.287860 37.922077 54 1
-16.165359 32.332630 -2.819313 0 0
50.901752 256.141330 -57.676220 68 1
-48.680389 177.347240 -12.396532 75 1
152.284960 303.791230 -40.159447 22 1
-29.107126 125.425020 14.469475 0 0
90.024651 250.206020 -49.902626 66 1
-7.022767 97.961784 63.741791 67 1
-22.401669 157.515110 108.325520 34 1
37.890564 345.435970 -8.289836 0 0
-17.909966 175.842830 28.295731 79 1
56.428852 214.026890 9.696458 0 0
57.292999 398.409700 -18.575418 39 1
82.739777 241.315080 49.584484 63 1
79.767586 273.367100 0.859219 60 1
86.270683 257.762450 6.542164 64 1
-56.981743 226.878940 61.980667 32 1
35.391674 233.972920 -42.891876 93 1
89.767464 216.470050 -72.500694 65 1
81.993385 370.417850 -44.540398 41 1
85.389854 276.900670 -52.456024 52 1
-16.447849 120.841450 1.870758 86 1
64.265671 249.104630 44.836140 63 1
41.308708 134.666280 -49.189388 71 1
26.730696 282.788330 -9.660438 0 0
3.468733 169.624880 67.462143 50 1
5.256294 153.195830 -53.906235 82 1
61.956066 130.829770 -26.957180 6 1
57.479527 354.660800 -48.919304 46 1
36.961540 148.823360 17.471159 76 1
6.108453 111.483060 -4.626911 85 1
38.997276 312.745610 -85.789154 17 1
-60.056484 140.516240 -42.719688 26 1
17.262037 255.649030 -4.441633 0 0
-38.678303 86.556618 -119.782810 1 1
11.275099 325.634610 -87.659119 11 1
16.724796 136.782670 -52.666054 81 1
7.268306 204.316710 -5.599308 0 0
-33.803082 190.510090 15.453437 0 0
23.959488 384.416230 -25.622389 19 1
16.370081 141.488560 -28.158245 0 0
24.492619 141.727690 -14.163259 90 1
92.518867 260.169490 18.291054 64 1
29.164085 292.808650 -1.020429 0 0
78.555588 240.791210 -72.264542 68 1
8.723990 253.505710 -60.205914 70 1
-39.534145 151.765700 -13.415114 0 0
-42.186489 88.765831 74.409225 67 1
-21.005630 178.203200 73.602989 50 1
-23.490597 145.408140 -69.052132 27 1
-39.629032 239.927840 59.740974 55 1
-54.220642 181.834500 56.577919 49 1
61.086636 408.172610 -4.262076 39 1
40.319435 365.822200 -42.180595 46 1
5.664957 175.354630 11.896781 83 1
28.093229 172.350040 24.474836 0 0
39.576698 230.429400 0.273811 93 1
-39.045822 236.149340 100.928790 45 1
66.292450 130.626400 6.138132 7 1
32.279087 228.134630 -20.446386 93 1
67.391884 388.166410 -21.674305 39 1
-36.633553 122.884510 -91.829094 1 1
-61.444290 188.244710 31.286869 48 1
-57.637592 145.304600 -68.443047 27 1
70.252869 356.479340 25.682844 47 1
26.396202 184.037200 -22.181032 0 0
32.453259 254.861300 -73.481529 70 1
-12.499411 248.904110 53.482353 53 1
-51.443043 241.209700 81.961113 45 1
74.369370 293.247410 -3.266492 60 1
23.660301 330.385190 -14.727506 0 0
32.222404 84.846939 35.482880 2 1
-0.666086 139.019870 25.521141 85 1
-0.736202 166.417970 22.703444 79 1
4.182837 313.253110 24.917763 15 1
5.143268 137.772230 -6.159700 0 0
-1.646423 161.549990 -34.982685 81 1
66.923683 288.601010 49.001736 31 1
19.553280 160.210280 17.913544 83 1
-48.651360 168.761900 82.350441 49 1
47.377903 308.074980 -104.984880 17 1
52.061092 224.822480 -54.294613 69 1
-22.792402 133.249330 -35.557247 88 1
100.298630 277.841610 -35.142998 33 1
82.548683 329.228270 -47.213024 24 1
61.106091 230.625140 56.790424 63 1
-5.504354 11.938296 3.978521 0 0
-51.060295 238.686050 94.959862 45 1
6.793528 78.597733 72.470581 89 1
165.663130 209.392550 -19.296186 5 1
88.044022 281.798950 13.916023 61 1
43.318020 359.234310 -4.215941 0 0
21.260834 238.213180 -17.614395 0 0
42.569122 138.604890 5.213583 94 1
88.342010 320.902130 -12.264777 30 1
69.296852 196.569550 65.285561 29 1
61.083977 311.666410 74.791443 14 1
94.618904 240.835630 55.242920 63 1
108.346950 359.680180 1.560813 43 1
80.081291 244.645110 35.921585 63 1
93.484810 279.453160 29.286957 31 1
-27.169291 99.570641 74.009941 67 1
5.428818 160.243350 40.700867 80 1
13.761539 240.985920 -3.105907 0 0
103.166020 291.331090 -36.591232 33 1
82.743690 234.568240 22.414164 63 1
12.692811 152.181900 -16.290688 0 0
44.308800 315.223910 76.909790 14 1
92.465828 252.765930 -17.302521 64 1
48.048012 305.721220 49.478409 31 1
-11.761206 62.807499 -6.189950 0 0
12.445302 71.263153 -8.970619 0 0
89.782433 240.414370 69.706146 21 1
-92.606827 136.874300 -51.520077 26 1
102.121140 211.578160 -62.807621 65 1
100.373490 359.615750 -20.401836 42 1
83.090355 238.294430 -33.302750 66 1
-38.452007 168.489170 22.670568 0 0
22.416147 151.629810 27.965527 80 1
-37.654987 173.677700 66.998894 49 1
31.970362 210.281620 74.809326 13 1
152.182390 228.017170 -10.608334 5 1
9.184736 225.035370 -35.592583 0 0
78.371910 295.267700 -95.394836 17 1
12.663310 261.399540 -16.101818 0 0
71.229691 390.473240 9.802458 38 1
-21.144848 144.698490 31.133635 0 0
54.903194 124.571010 44.434277 9 1
46.091465 235.099180 -33.225975 93 1
-32.579857 208.748670 11.937353 0 0
-6.144114 61.069500 108.385500 23 1
121.749600 326.582060 -32.033707 22 1
12.024808 247.293780 -82.755272 70 1
88.249229 290.709380 -50.085075 52 1
41.165611 202.630360 -103.287480 69 1
130.506290 350.964110 24.957615 20 1
51.644421 259.821440 -101.408870 16 1
80.654900 380.490600 -34.091675 41 1
-8.115056 255.663500 -11.050121 74 1
-4.758745 89.414276 76.006516 67 1
90.148743 329.178920 9.507633 30 1
-58.626053 143.445340 -26.869642 3 1
63.577641 237.135410 -0.610046 0 0
39.024998 347.874270 -58.645596 46 1
-4.266289 37.647041 0.011014 0 0
-68.064423 134.903460 -66.014221 27 1
24.843651 224.439940 -4.049220 0 0
18.546368 105.612500 -4.032764 0 0
105.712300 296.857180 12.297770 30 1
-20.932943 145.908070 -42.851738 82 1
-76.908508 165.967000 55.956684 48 1
8.846338 55.848690 -12.519859 0 0
-53.843452 186.930190 5.569245 75 1
45.391636 133.224200 -8.521829 94 1
45.087982 266.297000 -23.589308 0 0
-52.063538 66.097893 42.035263 12 1
11.021206 252.353410 -24.968521 0 0
45.818970 202.340100 68.209557 29 1
-13.561424 165.277620 1.701958 84 1
56.127266 361.828950 -18.582964 47 1
113.613190 348.478490 -10.018815 43 1
40.538395 369.090060 10.871893 47 1
83.162399 240.893420 6.099591 64 1
-27.363293 153.818680 9.769094 0 0
101.955960 241.693480 -45.643604 66 1
33.347839 390.772340 5.665585 37 1
41.022789 307.092320 31.058985 31 1
43.574486 109.278790 60.579514 9 1
56.006680 262.658940 -11.337854 0 0
14.871925 132.787610 -16.373817 0 0
81.257904 223.917910 -54.867325 65 1
-70.347771 185.281160 39.748306 48 1
87.662933 361.561100 -0.678948 43 1
10.445111 161.515380 -6.012487 0 0
60.551231 301.956360 -82.681038 17 1
84.804504 267.304440 25.966171 61 1
18.598536 264.199860 -52.896729 0 0
27.015692 190.700780 101.587010 13 1
35.348820 122.611020 54.533432 8 1
-53.787266 72.429085 23.141565 12 1
151.922900 226.021320 -37.823406 5 1
-11.518678 168.006320 -14.952604 84 1
-35.009903 127.088490 -5.895253 0 0
78.969330 250.121830 -56.403168 66 1
21.386248 226.911540 -81.731316 69 1
92.949303 227.731280 -61.148308 66 1
-5.923064 150.661420 -48.775162 82 1
74.287926 299.236330 -74.101692 17 1
0.256823 55.220699 -1.403554 0 0
100.628970 360.635990 50.711285 36 1
40.813198 224.953020 -11.870070 93 1
106.785720 314.574620 -40.472889 24 1
-18.106329 114.164760 -8.553444 86 1
122.811970 231.816010 -11.690363 5 1
13.212474 89.859818 58.364758 89 1
-5.093957 140.825500 -61.502144 82 1
17.468685 249.572460 -71.776031 70 1
119.261720 346.793090 37.475300 20 1
-2.837285 91.228790 5.369376 86 1
-22.608944 97.585564 85.453773 67 1
42.009399 219.142460 -43.731213 0 0
15.301001 383.053100 -16.663538 19 1
70.294525 119.618600 24.434887 7 1
34.260181 209.111650 -50.832973 0 0
119.209870 223.286480 -57.040466 66 1
39.386383 325.255220 -109.519930 4 1
-23.062365 252.494400 0.046700 73 1
38.595730 302.713200 -1.187100 0 0
123.757010 232.854780 12.629585 62 1
36.556255 189.177120 -34.502232 0 0
-50.939060 177.285050 36.303261 48 1
-3.474553 229.944780 63.128323 55 1
-24.540045 214.914780 -57.273228 10 1
22.441656 254.293880 -42.806980 0 0
138.516130 231.608120 -30.294777 5 1
-10.281864 170.681230 43.109394 79 1
99.751572 320.898500 -7.485909 30 1
-38.888363 215.202640 -66.330101 10 1
70.834610 281.330140 32.155369 31 1
75.743141 124.445470 42.084068 56 1
41.111229 232.354170 -55.112503 69 1
-7.742978 124.438420 -22.495321 88 1
0.520915 137.610280 -30.398487 88 1
106.601290 235.164430 -19.849779 64 1
-7.086898 310.685460 30.193306 15 1
-46.070068 145.587230 -64.212341 27 1
28.513527 258.242740 -8.526551 0 0
78.804405 366.082640 20.557484 36 1
36.539352 375.398010 -18.717384 47 1
-9.417437 259.613620 29.587284 72 1
107.691090 251.098310 9.057001 64 1
75.732811 296.498290 26.976742 31 1
20.713133 76.682175 50.192974 2 1
30.013802 364.448730 -35.771114 46 1
-20.159504 174.744350 13.182487 79 1
22.626492 168.516140 -18.222565 0 0
49.296772 317.358830 52.942089 14 1
107.008640 224.123640 -58.142181 66 1
105.688660 246.202160 43.305069 62 1
58.968285 206.614590 71.929840 29 1
-18.194277 220.229430 -66.657005 10 1
3.041297 381.097810 -3.706236 18 1
55.009460 285.866760 -19.115784 0 0
-11.442644 100.236640 -6.872684 86 1
72.834419 268.500150 -21.274668 0 0
96.328217 297.685460 -28.884069 52 1
59.783028 283.408600 -48.181011 52 1
51.230927 141.351670 -30.444456 71 1
59.462212 303.875520 91.624069 14 1
90.802284 377.711240 -28.135942 42 1
34.006542 322.477450 -13.774105 0 0
41.969566 271.169590 -39.895645 0 0
-24.687593 163.017720 18.161476 0 0
89.002029 353.868040 38.420433 35 1
-8.266730 154.306760 -2.886064 87 1
100.922150 307.754000 14.448062 30 1
33.279846 359.745510 -55.443340 46 1
-30.865145 206.218870 38.433426 0 0
34.608089 368.617830 -7.822545 47 1
6.600786 251.374440 -13.423800 0 0
12.406636 380.135860 8.554703 18 1
70.411537 252.206920 35.012260 63 1
22.598959 395.319670 2.595965 37 1
26.519489 246.475390 -7.037361 0 0
-2.897053 150.527190 45.305531 79 1
35.430004 379.681950 14.640045 44 1
12.562270 217.989820 -13.524220 0 0
26.723680 320.663540 20.223658 15 1
42.102615 71.816040 17.363464 25 1
20.483570 297.851680 -7.540547 0 0
-31.739305 166.411160 34.308231 0 0
14.079883 309.855160 45.011055 15 1
68.042854 245.821110 -42.926651 66 1
41.098263 180.152950 -10.847948 0 0
17.762486 125.453520 -76.067131 28 1
59.070663 139.515750 -17.934679 71 1
56.404762 325.668430 -129.349520 4 1
100.263260 242.781810 33.088112 62 1
67.890503 232.566300 23.228323 0 0
-29.210428 179.181470 34.657726 79 1
38.866970 238.653340 -17.847263 93 1
80.810394 296.620390 16.251593 31 1
27.573305 315.834810 -84.426392 11 1
-21.515627 147.414460 -91.537567 28 1
90.260269 320.274170 -59.932117 24 1
74.606667 123.130370 -18.465219 6 1
12.833450 148.279420 6.866021 0 0
-23.650476 249.915500 49.667698 54 1
-27.672962 64.263275 -12.247019 0 0
40.171528 140.513060 39.027214 8 1
69.674225 364.177800 -42.648201 41 1
77.751656 370.057040 -18.239120 42 1
83.178734 237.745590 -45.411648 66 1
-19.546911 231.798250 -0.810568 0 0
45.601437 306.527040 -93.300987 17 1
50.728756 207.748920 57.614437 29 1
-21.099632 131.588990 3.077374 86 1
96.073547 231.007420 72.945694 21 1
107.527780 262.703120 -33.923233 33 1
69.788368 236.445820 -63.932076 68 1
41.683723 142.838870 -16.274858 94 1
75.439682 233.923360 63.228809 63 1
-41.821903 179.042500 52.391308 49 1
-36.228409 111.853610 -1.916271 0 0
122.874990 361.756350 21.260900 20 1
66.336510 233.941240 -20.790659 0 0
10.032228 149.531100 -34.249252 81 1
-41.356968 139.619170 -79.237244 27 1
41.312904 303.080200 -64.179077 17 1
49.492779 409.730500 -6.866625 39 1
73.963242 285.572570 -40.089958 52 1
28.706276 258.116150 -54.579552 70 1
53.704376 123.670720 28.006145 9 1
7.635499 184.094800 -12.376048 0 0
11.738875 134.898740 -92.558586 28 1
-39.409943 183.856400 27.178362 0 0
-40.352245 116.136160 -32.605095 91 1
52.155010 366.485720 14.892333 47 1
16.768282 243.396420 8.073963 0 0
-53.415760 216.580610 -68.183777 10 1
-58.865570 168.715060 69.445557 49 1
0.657562 240.839680 63.429676 53 1
132.546770 321.947170 -34.666340 22 1
147.202500 305.335940 -29.829464 22 1
2.337784 108.609450 -15.221537 0 0
8.708593 230.145610 -23.093296 0 0
69.166954 185.231750 68.091225 29 1
58.588356 250.022710 -63.779842 68 1
80.152924 287.143220 35.781452 31 1
44.778053 126.160960 20.776985 94 1
-72.036591 146.308700 -22.689287 3 1
69.680534 297.425200 -21.599182 0 0
45.606468 212.701160 77.241737 13 1
-64.893509 175.341340 45.788452 48 1
95.966156 252.550310 52.189556 62 1
-31.843346 172.337890 13.576962 0 0
96.345894 262.749300 4.158599 60 1
127.805780 334.102750 47.706429 20 1
-6.030076 61.789806 20.275558 0 0
70.837044 377.868710 -28.101133 42 1
85.005730 228.525740 -70.359108 66 1
109.985060 247.792890 28.077272 62 1
57.368500 211.989380 -10.434866 0 0
74.429802 258.553310 6.295673 61 1
-15.338037 239.932140 -31.476776 73 1
-9.447917 212.624250 -67.578201 10 1
33.501675 219.461440 -90.688774 69 1
5.738630 143.860760 -46.067574 81 1
13.037784 134.069900 1.213143 0 0
-7.259645 145.777830 110.003730 34 1
41.610512 321.846160 65.120346 14 1
97.703362 361.938780 -41.809097 40 1
-46.482304 184.536030 64.516739 49 1
-27.671896 179.800960 -6.423012 75 1
112.098350 218.972090 80.037323 21 1
103.993940 242.115880 -11.191197 64 1
18.830519 184.805820 -7.357643 0 0
7.803106 126.771840 -23.992538 0 0
138.121640 316.382540 -16.436291 22 1
68.566833 364.213750 4.611096 47 1
-35.522568 220.479920 45.895332 0 0
108.011880 239.851810 0.668212 64 1
-33.413208 243.898360 79.934608 45 1
88.935196 366.980380 -21.055233 42 1
56.092556 236.735370 -14.679463 0 0
4.211990 81.706779 61.699944 89 1
28.242609 339.809140 -10.301036 0 0
-16.757393 162.908890 48.250420 79 1
-42.936741 172.904100 -22.051682 75 1
-78.058403 58.890068 40.507645 12 1
51.973866 348.799320 -56.910965 46 1
89.839035 272.074650 -4.215870 60 1
-15.106524 304.147920 48.013393 15 1
84.029961 291.515960 -36.584888 52 1
46.764954 258.228240 -68.345116 68 1
105.780610 336.074620 -1.506330 43 1
-23.557644 73.178139 102.803820 23 1
62.693428 312.787140 18.520353 31 1
-4.850124 255.502430 1.735574 74 1
67.662125 299.524200 -95.302025 17 1
-15.757275 255.835040 9.168701 74 1
83.658051 315.060580 -51.058125 24 1
-8.220662 249.436780 34.310200 53 1
41.828201 199.837950 45.473732 58 1
28.277803 131.504270 -20.038754 0 0
-10.502991 17.422541 -4.581821 0 0
17.677126 312.291440 27.222237 15 1
61.942757 269.617280 -18.357450 0 0
4.801347 224.946960 73.061310 55 1
-74.181320 124.332470 -63.157627 26 1
48.060440 151.642990 17.500307 76 1
-36.878548 130.267960 -25.327578 91 1
-2.781358 253.204470 46.584251 53 1
101.963260 369.377590 -10.401916 42 1
61.753056 300.573210 41.494698 31 1
98.811745 237.100880 -31.250175 66 1
-29.770929 92.035690 -0.840795 0 0
63.531666 196.641200 55.677071 29 1
-26.275393 51.446629 9.403493 0 0
164.159470 211.646580 -39.953968 5 1
57.539017 363.111720 24.380171 47 1
113.479690 234.408130 18.455269 62 1
20.321171 85.540733 3.450302 0 0
32.233799 205.304410 90.518967 13 1
-27.158764 69.200066 0.595971 0 0
25.267090 134.099950 -5.560817 0 0
95.890343 246.158810 23.429077 62 1
3.195302 212.056720 -12.736732 0 0
119.469960 230.919370 31.836149 62 1
92.300560 362.529880 16.753391 36 1
81.551094 358.890720 48.295712 35 1
7.821113 319.253230 -79.251961 11 1
86.530945 270.508730 44.001263 31 1
79.512299 262.026460 -52.842110 52 1
15.367796 70.043343 69.716408 89 1
136.342220 321.579100 -46.637428 22 1
-6.866458 174.817760 28.824116 79 1
-54.297401 108.396800 -91.487305 1 1
-45.222969 226.642030 -79.138741 10 1
47.481693 69.395111 62.287426 78 1
-26.250483 137.749270 -86.770859 27 1
60.865200 217.398850 63.705807 63 1
75.888062 230.750380 -13.556391 0 0
19.587753 217.775700 47.774117 57 1
39.078117 313.713130 19.229010 31 1
90.627563 306.520110 -78.310478 24 1
96.231232 322.951200 2.757648 30 1
-19.236464 97.555962 66.163795 67 1
13.125540 88.231384 -14.422456 0 0
15.789968 150.150760 -54.697235 81 1
89.232819 248.868930 -28.043617 66 1
59.958862 117.576610 54.323765 9 1
26.401665 294.249540 -81.159821 0 0
9.984345 250.557690 32.597565 72 1
-19.885735 246.547210 -17.007006 73 1
-25.078402 123.236550 -98.288818 1 1
61.068707 301.316620 78.790749 14 1
69.295715 247.902620 -61.530743 68 1
155.107820 220.997970 -20.156025 5 1
67.444923 225.655780 -81.268921 65 1
66.061089 226.931000 -45.645042 65 1
108.399770 240.611270 59.748878 21 1
113.287170 212.022080 -75.575691 66 1
7.304714 77.995583 92.395927 23 1
5.660359 127.219490 5.670932 85 1
-17.354792 76.812515 -9.556822 0 0
-55.174461 132.953140 -49.770008 26 1
-24.051420 231.107930 63.693367 55 1
75.064423 272.399720 25.417448 61 1
31.710884 319.515350 -93.758263 11 1
41.089127 395.639860 -0.889988 37 1
45.642929 362.807250 -22.295794 46 1
66.036736 112.098590 39.970654 9 1
-70.551338 137.822590 -42.377899 26 1
-19.562460 234.446200 75.965515 55 1
55.189419 213.752410 -90.105087 69 1
25.842499 112.815830 -13.576772 0 0
-38.357731 188.181340 -40.283760 0 0
82.553215 249.734360 12.776914 64 1
103.518620 368.773680 -34.213253 40 1
83.646500 368.430730 36.939034 36 1
111.728650 355.781770 30.744999 20 1
-25.569151 136.754030 -12.315980 86 1
18.538219 155.927800 -0.559773 0 0
1.139563 151.378520 -27.743166 81 1
-38.289871 150.500660 -70.138954 27 1
40.931507 78.548042 36.970535 78 1
-58.022583 220.783000 -59.378094 10 1
-0.179622 119.962250 -2.400844 0 0
31.497013 205.700330 61.818493 58 1
49.233040 195.065980 -3.857663 0 0
0.072805 251.280000 16.612040 72 1
83.358360 291.814790 -9.561518 60 1
-54.002937 174.093000 46.117714 48 1
70.390785 300.264100 73.336304 14 1
-2.001448 159.513080 94.345886 34 1
59.552841 242.019650 51.397346 63 1
92.022598 243.566700 -11.789263 64 1
76.559387 113.351170 -5.641109 7 1
-67.962067 70.450935 31.903603 12 1
-28.643066 102.396900 59.641106 67 1
-52.731281 140.090710 -78.502876 27 1
88.742165 226.556780 -47.657505 65 1
-25.578623 174.435640 64.542007 49 1
142.263890 228.876430 -14.771944 5 1
72.463951 124.329080 15.029856 7 1
69.053818 376.468960 -16.590664 42 1
57.125954 226.209150 -64.446388 69 1
19.457449 279.381320 -16.907043 0 0
52.477119 265.690060 -76.917114 16 1
42.893661 342.618740 -17.688629 0 0
15.152090 72.860016 -19.170162 0 0
15.237437 199.586400 -10.942145 0 0
106.247830 232.158130 -43.601383 66 1
61.063339 182.447400 74.480621 29 1
53.601780 401.944370 8.837514 38 1
5.959675 137.883760 -72.680435 28 1
123.183800 324.219450 -13.999212 22 1
62.654041 355.223080 18.381420 47 1
14.664021 223.388350 -1.242471 0 0
-15.132832 222.601620 71.947716 55 1
76.110435 284.824770 18.865595 61 1
-3.847225 137.774290 -96.153343 28 1
105.491180 318.094240 -30.580566 24 1
40.926418 259.092710 -101.815930 16 1
59.529434 358.783660 5.380388 47 1
29.901318 202.819440 48.771790 58 1
34.460407 149.322200 28.030144 76 1
84.967911 326.592930 -34.426155 24 1
100.044300 247.092620 61.949688 21 1
48.519154 193.630280 100.853000 13 1
50.768177 132.575160 -45.031574 71 1
-28.353014 242.054820 12.231797 0 0
72.856575 282.284910 -25.720495 0 0
47.389694 312.688750 90.454369 14 1
-19.359560 130.384840 -18.781139 88 1
68.280663 280.177460 -53.471115 52 1
149.350130 225.069350 -47.977665 5 1
-25.821888 216.932420 10.540735 0 0
-89.442276 122.334240 -61.175838 26 1
6.886137 167.373150 -13.969631 0 0
-47.398762 231.428920 61.001812 32 1
88.615501 303.439940 -64.839996 24 1
41.790443 200.773640 -20.253933 0 0
-39.908474 64.802460 19.075235 0 0
72.507019 259.159180 -7.614651 0 0
100.566180 115.091390 30.406609 56 1
95.468742 242.933790 -55.143486 66 1
73.808296 277.600830 11.346799 61 1
-7.564442 144.348800 -78.985588 28 1
4.320813 209.059860 59.723358 57 1
-29.451431 214.364560 -70.753105 10 1
103.568550 257.765930 37.035530 59 1
-18.337330 257.751160 -10.397598 73 1
101.903020 221.464160 -68.438644 66 1
37.215210 217.129360 54.703426 58 1
2.804686 320.788940 17.833681 15 1
60.038151 249.920680 -14.598817 0 0
-43.891495 177.704420 79.911339 49 1
95.852692 253.314530 -7.362168 64 1
-10.611396 145.387070 -40.953281 82 1
98.672043 208.616320 -72.177528 65 1
91.662895 378.260220 -2.456770 42 1
25.278517 375.804930 -19.932728 19 1
-13.040028 210.494950 60.604176 55 1
-61.316055 219.249570 -75.133392 10 1
73.399681 244.057220 45.592964 63 1
17.619930 122.928990 -14.607720 0 0
20.724434 141.672380 23.541378 80 1
87.589081 279.333040 37.943752 31 1
47.803562 358.646820 -41.862576 46 1
-13.834520 152.829120 104.845830 34 1
-10.643124 140.201160 -88.215652 28 1
92.359421 317.523770 -25.054449 24 1
41.008816 129.143860 -26.119621 71 1
-36.006741 226.094470 -73.406479 10 1
124.565120 353.480290 43.388161 20 1
41.366188 319.639740 45.364422 15 1
72.329216 353.374180 10.955625 47 1
45.074978 71.300507 52.415771 78 1
27.413406 258.888760 -18.881632 0 0
71.247231 111.915860 -35.069736 6 1
44.405800 317.133670 -97.732727 4 1
103.149280 203.493880 -80.311737 65 1
-8.705172 171.679570 83.658142 34 1
55.493496 266.216220 -25.813662 0 0
95.630219 213.758700 -47.626266 65 1
-46.729156 209.683170 117.597950 45 1
83.222923 108.811960 10.498493 7 1
-17.378115 253.205350 30.961660 53 1
45.052288 127.614510 44.559872 9 1
11.909022 325.586460 -72.133316 11 1
94.805710 370.102330 10.079674 43 1
95.815552 312.648190 -12.234462 30 1
-4.487886 143.161470 -14.755032 0 0
77.862640 283.439240 -1.690069 60 1
27.113552 237.326630 -36.261272 93 1
86.725113 252.403030 37.001495 62 1
64.631157 381.136110 21.630558 38 1
-78.754761 148.800950 -32.314678 3 1
4.478184 119.220400 -13.883918 0 0
92.069214 272.723540 19.090014 61 1
13.727865 168.651250 12.345467 83 1
75.533081 217.970700 -76.141075 65 1
108.131840 282.008510 -30.012651 33 1
1.083028 148.928130 23.577648 85 1
-20.938278 47.127537 -1.274005 0 0
100.056800 365.516200 31.187202 36 1
88.631142 119.287690 29.730230 56 1
-48.708553 85.897514 -110.874990 1 1
108.243030 237.064800 27.007681 62 1
25.669256 159.089510 9.785294 83 1
105.977810 230.360820 70.462379 21 1
86.471954 313.218510 -32.237061 24 1
-63.412476 229.431930 69.515198 32 1
-38.736641 138.963060 -68.017479 27 1
-3.676951 150.590900 -58.813015 82 1
65.891563 291.844240 -46.958195 52 1
21.386387 304.508610 55.201351 15 1
42.258518 209.636980 -94.373367 69 1
94.557671 355.041140 -4.694552 43 1
-34.184917 99.220184 -13.704623 0 0
16.587639 253.556400 6.077816 0 0
90.337570 281.068360 -15.086359 60 1
58.347420 197.970400 77.553223 29 1
35.088688 235.202880 -74.269875 69 1
-30.584328 227.367680 17.345411 0 0
36.739906 323.632630 84.499268 14 1
71.172340 192.955310 50.028744 29 1
71.228546 368.113890 -32.508076 41 1
34.782158 240.702590 -51.096272 93 1
23.657959 229.182750 -13.550794 0 0
63.516369 315.971980 65.884537 14 1
-37.117611 182.693830 7.461033 75 1
53.831409 153.317730 8.769284 76 1
112.052100 243.932170 -17.246277 64 1
9.974122 160.561770 66.986794 50 1
83.303391 340.766940 53.596485 35 1
65.437820 235.725720 64.435669 63 1
-33.798752 144.580960 -85.036003 27 1
-15.815503 153.968150 31.177086 79 1
-74.968613 135.848770 -57.320980 26 1
-13.511522 132.321040 -10.310103 88 1
-5.925162 261.272310 20.029600 72 1
86.387161 251.166020 48.157417 62 1
26.844809 260.271670 -79.966415 70 1
-17.428711 138.269680 -28.015905 88 1
127.852820 341.160160 40.434776 20 1
102.036290 323.784520 -45.987667 24 1
-35.056641 232.280620 67.774300 55 1
55.968018 299.777220 101.214150 14 1
89.108681 377.361110 -18.154118 42 1
-53.340195 95.772110 -103.825000 1 1
26.835796 57.289749 66.794502 89 1
-14.356184 170.641300 72.581017 49 1
44.035046 267.784940 -86.763695 16 1
-57.516045 136.049260 -63.354347 27 1
90.163147 273.720340 -44.125748 52 1
-28.510649 171.188230 49.437824 79 1
75.138680 307.049680 -23.703232 0 0
-23.804152 118.357520 -107.987900 1 1
2.639216 161.522750 31.079458 79 1
5.846775 146.168260 41.697258 80 1
32.948704 312.412260 34.174667 15 1
-3.184092 131.992460 -2.816614 87 1
1.237171 303.676120 54.223629 15 1
54.566341 304.639500 -70.036316 17 1
80.892792 296.245330 -46.005981 52 1
98.419182 255.560520 10.906128 64 1
92.885880 236.297640 -67.458168 66 1
54.221523 303.822510 16.154121 31 1
57.702633 390.271090 -12.700600 39 1
100.735020 345.152070 4.586554 43 1
42.241482 212.558070 62.181992 58 1
81.003693 308.259950 -88.275734 17 1
41.797455 219.652850 71.120728 29 1
117.022920 233.133100 -36.326042 66 1
25.496784 120.864060 58.590256 8 1
-11.990837 157.769060 -16.144522 84 1
81.571198 250.167390 1.175248 64 1
-18.473677 309.933410 34.258057 15 1
102.331620 310.690340 -4.711643 30 1
89.729225 322.117550 -47.502083 24 1
108.410770 266.314540 21.517006 59 1
54.219116 308.312840 -86.990860 17 1
-32.984989 217.736770 -45.766911 10 1
-28.553770 235.339400 4.281359 0 0
105.001390 355.986110 -45.048546 40 1
83.267670 106.466870 -8.217770 7 1
5.768698 146.834610 -11.372247 0 0
-7.230157 144.763380 52.146721 80 1
44.620506 213.296680 49.080109 58 1
25.916510 140.391770 -25.591793 90 1
-54.160297 120.536230 -67.853279 26 1
-11.207941 171.411590 9.588126 79 1
100.013570 243.527600 5.607854 64 1
22.860722 237.227430 -4.501307 0 0
21.068048 384.883450 6.855393 18 1
-33.187405 200.215550 17.287594 0 0
79.484070 93.900558 -25.337999 6 1
34.431236 133.710510 2.438741 94 1
29.130623 301.104310 6.577940 0 0
65.691223 347.703190 25.893965 47 1
25.398853 74.796867 58.695763 89 1
-13.065916 76.364784 95.835060 23 1
26.452816 143.535100 -2.850354 0 0
34.319862 391.512300 15.536895 37 1
15.700231 248.318160 -38.460918 0 0
7.813924 258.476140 -6.613966 0 0
96.160110 311.501980 6.651487 30 1
14.364186 142.356990 -14.010246 0 0
15.440907 316.848480 -85.995125 11 1
41.038147 404.258180 -5.689448 37 1
125.812190 235.000430 -25.378159 5 1
-9.152307 2.422333 3.802999 0 0
99.215515 270.546230 28.146584 59 1
-1.972527 124.482090 -30.862820 88 1
-62.603500 61.847225 15.672618 12 1
113.023850 246.302190 18.699617 62 1
53.952770 231.564850 -38.043312 93 1
82.521896 259.605900 20.278866 64 1
116.621420 363.709780 37.533791 20 1
3.380302 90.879051 58.246376 89 1
17.074295 128.063280 -85.646286 28 1
16.170300 161.475680 -20.524113 0 0
54.115955 324.652310 2.178614 0 0
85.118629 123.456860 38.873356 56 1
21.810093 118.519740 -6.272040 0 0
15.377696 234.868610 -32.857914 0 0
-28.686058 242.081820 88.331001 45 1
28.995888 150.432620 -14.438176 90 1
0.137461 88.965752 -5.034364 0 0
115.353770 309.865750 -15.625150 30 1
-38.693157 120.696180 1.529502 0 0
-6.836971 264.798610 4.631385 72 1
13.222453 315.015750 36.415863 15 1
35.419003 305.346280 15.743036 31 1
86.898613 297.026820 -22.737356 60 1
29.551758 370.793580 -27.980232 46 1
73.845039 290.824250 42.411461 31 1
48.284557 364.563660 -31.950842 46 1
74.941742 240.637180 -38.154217 66 1
62.120098 208.561710 49.588249 29 1
-40.816872 114.804000 -95.973061 1 1
-5.082288 117.528330 -15.648429 88 1
53.116314 373.220890 -17.391035 0 0
-40.413860 95.015282 7.128345 0 0
60.165230 228.564290 -5.971541 0 0
87.205109 309.323460 -44.025116 24 1
77.658218 278.661130 -46.792755 52 1
53.046055 370.935120 -6.338711 47 1
27.632475 131.920270 49.537354 8 1
-22.549442 167.986970 92.821617 34 1
87.776802 102.905000 2.052734 7 1
24.415390 279.379330 -70.772324 0 0
145.598590 223.856640 -30.718500 5 1
50.563351 140.595310 -12.976190 71 1
67.196487 305.963040 8.819700 31 1
67.395638 301.795870 30.097736 31 1
27.465590 135.049910 15.188636 94 1
9.711698 101.651630 -8.243494 0 0
-50.494522 168.989550 63.966354 49 1
10.079332 211.630220 69.055801 57 1
30.373171 233.435420 0.860249 0 0
64.585449 122.583790 44.557178 9 1
36.736725 210.259830 83.255257 13 1
52.340885 361.367250 -8.886326 47 1
92.384071 283.325620 -54.814457 52 1
42.856449 368.796540 -2.693104 47 1
-3.821305 170.248980 60.981316 50 1
-56.245071 173.754170 78.125839 49 1
-34.580276 220.193910 -55.717396 10 1
39.114758 240.705600 -37.006470 93 1
88.528526 268.847600 4.820504 61 1
31.389029 140.221980 44.452991 8 1
60.783855 353.508730 -16.992649 47 1
-3.275237 217.922650 75.747902 55 1
11.074277 318.507260 -94.450027 11 1
21.448280 65.285484 78.379059 89 1
-3.877733 88.622765 65.069763 89 1
106.833670 282.974980 -41.103046 33 1
91.383896 329.828520 -14.305539 30 1
102.504650 364.744540 7.327279 43 1
-9.706604 249.065200 -17.897671 73 1
42.136024 328.205930 -12.740149 0 0
91.187592 287.347230 -41.509636 52 1
16.007000 225.398790 -18.633097 0 0
28.358528 317.929110 -7.429615 0 0
-7.292221 245.769640 61.121094 53 1
61.861252 291.403110 -23.004707 0 0
85.357559 281.767330 4.656842 60 1
35.947914 378.106380 -9.153400 0 0
94.837601 325.470700 -29.869787 24 1
52.563629 111.350420 57.874260 9 1
9.115887 151.178220 32.205135 80 1
-43.020756 244.932560 79.233925 45 1
-48.614250 164.955870 -22.431025 75 1
54.192364 242.520570 -110.250680 16 1
65.498024 271.221410 26.067907 61 1
-33.620827 75.444244 11.107716 77 1
17.859980 384.585510 -7.341796 19 1
75.011841 224.772030 60.380058 63 1
-4.018784 323.176850 -79.688171 11 1
-37.413078 95.858315 -114.747180 1 1
47.341686 225.882430 -62.573101 69 1
25.948395 215.980160 69.719704 58 1
-19.483030 216.120410 18.969738 0 0
2.642535 135.121280 -63.081917 28 1
1.394365 309.384220 34.439667 15 1
62.272007 254.594090 -73.777679 68 1
37.121349 300.950930 -10.811108 0 0
65.725433 259.397670 1.545662 0 0
98.362175 306.992950 -53.073334 24 1
-15.910585 108.238720 -0.666664 86 1
20.979172 263.151180 -11.733409 0 0
27.497414 385.399260 21.769361 37 1
-2.864550 217.025830 58.715099 57 1
-35.209980 223.556640 117.102510 45 1
4.975835 169.087390 52.602047 50 1
82.881523 298.483120 -103.138300 17 1
49.408325 313.122680 13.000319 31 1
40.947403 304.618010 -73.944710 17 1
81.477745 349.628540 45.718708 35 1
34.042877 326.928280 -22.602846 0 0
76.143852 290.708980 -15.859032 60 1
68.044250 124.610890 -1.006878 7 1
-9.383488 97.163239 1.883450 86 1
22.524742 308.194730 -11.638515 0 0
33.591381 360.204590 -45.965279 46 1
19.086555 139.290120 13.721201 85 1
29.499126 144.335690 6.698591 0 0
44.429897 401.745150 5.557925 37 1
-3.352120 164.335450 -25.901293 81 1
69.097641 124.235210 -26.104591 6 1
43.852093 313.400360 -77.359810 17 1
19.336702 178.356260 -18.887306 0 0
101.178220 231.338790 -65.134254 66 1
71.401154 299.570890 -30.966589 0 0
67.878288 221.684740 -71.256447 65 1
81.733406 276.797000 -8.120331 60 1
80.688789 363.152920 29.526854 35 1
42.626190 271.815550 -16.309946 0 0
-83.913513 135.669110 -47.996784 26 1
-39.336422 202.210540 37.184483 0 0
-25.202482 160.379580 38.613930 0 0
-3.178055 136.720500 -21.747366 88 1
137.010560 338.693360 42.266045 20 1
35.657417 334.791660 -7.287297 0 0
54.882755 399.824370 -27.597612 39 1
-20.674868 66.518585 108.845060 23 1
77.687057 274.742710 46.079479 31 1
-26.802177 208.164950 19.360487 0 0
80.054916 117.688240 11.284217 7 1
-38.101517 242.706010 69.025345 32 1
100.199810 356.541960 13.936234 43 1
112.600750 237.030300 67.353378 21 1
26.158871 82.716873 25.502506 0 0
91.407356 116.773550 47.891647 56 1
91.960129 310.919460 -59.475506 24 1
54.347061 301.602050 -105.093150 17 1
-37.393631 179.488750 -6.933392 75 1
33.421669 138.485920 -15.443188 0 0
68.743462 242.962690 -21.598570 66 1
33.870827 154.107850 10.375128 0 0
37.676304 262.883270 -53.275848 0 0
-3.424240 206.512800 -71.589607 10 1
86.886047 250.923680 -9.070864 64 1
64.987358 250.387540 -100.292690 16 1
33.875942 320.418150 -103.050640 4 1
96.181595 267.719120 12.094294 61 1
-47.546413 184.715390 12.526855 75 1
55.800983 206.233720 90.977974 13 1
40.872890 355.461980 -12.469925 0 0
60.008286 368.017430 3.969811 47 1
134.186980 234.676130 -9.344187 5 1
1.084831 233.237060 70.846931 55 1
64.447006 258.543820 -13.245718 0 0
128.673030 350.750150 35.448269 20 1
110.736110 231.645950 -53.297318 66 1
-9.787863 70.151352 -11.619681 0 0
26.200729 218.533810 41.217590 57 1
97.182556 369.732240 -46.935879 40 1
87.383713 107.128980 18.692438 7 1
12.877918 151.804410 -25.636620 81 1
77.387558 293.219210 -24.783890 0 0
36.247242 131.493670 -7.569689 94 1
-44.042332 216.984910 112.433210 45 1
-14.850024 169.582640 35.038944 79 1
82.367989 364.790040 -11.953113 42 1
96.808083 224.663210 -39.374222 65 1
55.989838 256.855190 -49.800911 68 1
49.861248 251.761840 -110.183600 16 1
54.303410 115.963330 33.549156 9 1
37.691322 187.809420 105.137300 13 1
-34.932152 94.579620 75.248085 67 1
33.158676 203.931920 -42.558372 0 0
-8.057301 225.444460 54.805046 55 1
-39.758766 171.897570 57.981503 49 1
-10.427221 118.323070 -5.231190 87 1
70.315895 361.850280 -4.213646 47 1
69.794151 389.266940 -12.758294 39 1
-11.183167 162.660510 -7.260683 84 1
25.705122 233.991170 -27.395456 93 1
-14.997282 246.866270 -25.216475 73 1
40.511703 233.602980 -8.482860 93 1
-21.485403 233.774980 15.515272 0 0
77.573639 244.237230 -63.628078 68 1
72.347343 120.654100 34.145767 9 1
-19.271847 165.990370 10.202887 79 1
-25.932440 163.168400 27.633482 0 0
5.741720 140.251400 18.769287 85 1
59.172718 224.116260 -77.135170 69 1
11.578229 81.361259 79.924011 89 1
58.163746 389.174440 -21.911057 39 1
106.164570 353.336460 -15.120000 42 1
32.731834 312.891330 -77.268784 17 1
98.842567 219.740800 -58.562752 65 1
21.974276 150.000700 -8.400224 0 0
0.869685 135.978230 -80.658310 28 1
4.050506 71.938576 -26.889233 92 1
3.396954 152.972950 -44.230984 81 1
5.231705 166.832020 15.542964 83 1
68.577309 233.497650 -8.460320 0 0
58.349056 258.510770 -95.002258 16 1
43.525295 143.269790 -25.689732 71 1
-38.048431 171.567430 -29.796076 0 0
72.344254 233.959010 -72.861801 68 1
25.909286 322.113740 -18.234921 0 0
94.804382 375.211150 -10.952852 42 1
52.044106 311.692780 72.826782 14 1
52.351124 298.122250 45.131599 31 1
42.827255 112.285290 17.350037 0 0
-10.900214 262.417360 -16.714975 73 1
67.583374 306.129210 -78.255630 17 1
-18.249798 152.269700 -72.673882 27 1
55.328739 403.636510 -11.214807 39 1
20.405655 104.751380 -13.577060 0 0
-2.387656 46.737999 1.114614 0 0
7.395766 60.807301 -4.304474 0 0
-25.339354 91.665108 78.412788 67 1
55.944237 200.448910 60.138138 29 1
-64.133286 137.234190 -35.121700 0 0
-29.652943 105.628450 -117.753710 1 1
50.011250 177.846370 -10.300905 0 0
35.879387 359.858860 -29.653118 46 1
33.877090 189.574430 36.411789 0 0
-6.319647 55.574131 -7.918268 0 0
-2.642632 132.229920 -38.132633 88 1
27.864916 310.278840 44.384460 15 1
97.682137 350.732120 -18.097420 42 1
-48.087051 180.957610 44.493660 48 1
-21.623423 240.926930 1.564229 0 0
78.047661 246.272810 -31.478252 66 1
113.248540 269.497340 -36.406990 33 1
7.562619 74.891327 -1.224191 0 0
58.327000 309.170010 -77.096596 17 1
-49.427208 132.822340 -27.493608 0 0
112.971500 288.197420 9.621045 30 1
98.933105 364.122190 41.284412 36 1
52.178612 257.385800 -17.805149 0 0
43.291821 223.823260 -51.523079 0 0
3.063412 74.317749 -9.371118 0 0
108.912740 241.540050 -26.621536 66 1
-65.646355 222.569440 63.784439 32 1
77.638306 235.357120 54.336182 63 1
20.062737 148.029250 -19.903421 90 1
105.786370 112.078120 23.497091 56 1
66.147400 385.637570 -30.395048 39 1
-3.331728 102.401630 -11.059562 0 0
3.848973 324.266570 -92.921570 11 1
84.096695 300.937990 -38.821682 52 1
57.947445 231.457580 -56.782837 69 1
90.578354 368.741880 -30.736948 42 1
-29.988960 146.636400 28.530098 0 0
102.773480 232.444020 21.307964 62 1
-48.453426 232.864850 70.675278 32 1
42.510506 315.626800 -106.656190 4 1
20.400171 144.991590 34.590397 80 1
71.745079 294.305880 -87.755074 17 1
44.683998 199.610640 95.045937 13 1
40.360752 225.498730 -23.778610 93 1
-6.354395 306.927800 50.334709 15 1
111.782420 244.714460 36.673317 62 1
92.100044 239.109090 6.626620 64 1
56.478611 103.602260 62.745609 9 1
101.463390 245.882110 -30.662970 66 1
-52.082764 173.214770 -20.724476 75 1
60.455967 398.492490 15.622519 38 1
14.342029 280.925450 -8.807794 0 0
17.033506 254.938190 -56.787304 70 1
11.118336 57.265659 -24.537834 92 1
-18.720680 237.620480 58.571537 55 1
49.900673 225.363130 -11.816680 93 1
79.762642 119.541270 0.544148 7 1
99.295677 318.685300 -37.399956 24 1
44.640095 260.636020 -93.606667 16 1
-32.089603 156.600310 -21.518393 0 0
50.942886 222.663960 -20.749405 93 1
-5.866925 69.541702 98.663727 23 1
66.669098 112.008280 56.794842 9 1
62.874004 300.544070 15.656507 31 1
30.158775 237.043200 -19.768156 93 1
-9.726107 168.472500 21.870951 79 1
-45.754677 230.838060 97.462616 45 1
-4.080428 142.628390 -52.538860 82 1
71.998375 218.638840 -84.741806 65 1
7.648101 195.061550 -8.968992 0 0
127.882060 225.212490 15.272166 62 1
90.438812 360.927190 7.924992 43 1
-57.041874 174.066310 60.265476 49 1
121.744740 231.800160 66.646019 21 1
28.647984 304.691860 -1.911207 0 0
-4.116354 82.814270 85.139664 23 1
113.041440 302.713590 0.518112 30 1
18.016897 119.201130 -87.698044 28 1
70.834328 301.645050 -113.565250 17 1
-25.188560 78.718742 -0.050038 0 0
77.583221 365.452030 -38.415226 41 1
43.495041 327.586490 -124.944470 4 1
72.959221 226.821880 -51.506294 65 1
-71.559357 215.211820 65.762741 32 1
-18.849649 164.520650 -45.655575 51 1
54.308495 357.761510 15.678814 47 1
5.872543 315.183560 42.710629 15 1
107.067980 302.549320 -58.254124 24 1
-66.281502 227.104280 -73.431793 10 1
41.613926 394.545840 -9.818800 39 1
73.222534 266.391080 1.868271 61 1
3.893096 242.674560 -11.890582 0 0
44.614563 140.609040 -3.430336 94 1
-29.933825 236.207320 18.903502 0 0
-37.332478 182.585010 18.054419 0 0
-19.662903 232.301330 -29.512880 73 1
-16.123665 228.328930 60.502728 55 1
33.169327 226.699250 -7.480822 93 1
30.901342 100.905260 10.553933 0 0
-11.575112 169.953170 92.243027 34 1
-6.805432 234.800090 -28.730707 73 1
-3.525314 161.054780 0.710522 87 1
-30.637260 133.112150 -31.114098 91 1
29.819859 199.351560 99.429680 13 1
-42.421539 214.604200 -57.995350 10 1
-14.013620 62.351486 104.065370 23 1
43.847290 225.309460 -85.121964 69 1
-29.889183 176.758710 84.364403 49 1
1.440117 247.341050 24.553148 72 1
78.920113 378.489170 -12.845522 42 1
131.308010 227.241090 -42.424759 5 1
-10.739403 127.096870 -1.041908 86 1
95.404007 289.531560 -32.463482 33 1
73.464569 359.555850 17.562996 0 0
104.373280 328.480380 -6.381974 30 1
-62.350441 181.512790 51.736927 48 1
16.834793 216.615920 56.270378 57 1
49.882668 303.628810 27.889807 31 1
35.802620 148.207900 -20.442089 90 1
-33.975246 219.303510 56.137253 0 0
23.271160 256.586300 -72.446281 70 1
86.839249 259.782650 -57.413589 52 1
59.052216 241.612120 -6.913857 0 0
25.361538 316.547730 28.772827 15 1
6.928893 213.700070 -22.767988 0 0
50.631512 271.840060 -37.897396 0 0
-29.488188 174.423050 72.693611 49 1
42.488762 74.965057 25.689919 25 1
11.926854 85.182274 68.434921 89 1
-41.331833 132.423140 -2.603335 0 0
7.961261 93.207062 -5.186927 0 0
59.811237 292.637480 45.025494 31 1
11.559929 186.028980 -2.332242 0 0
63.095028 366.258540 -14.380414 47 1
69.763954 296.083010 -12.800045 0 0
16.849722 270.491490 -18.419443 0 0
15.010076 237.406100 -24.264105 0 0
72.663620 345.251010 56.427593 35 1
49.988480 403.955380 -21.452677 39 1
-14.984864 249.032200 3.522326 0 0
82.165840 319.911800 -27.513235 24 1
163.108060 217.395460 -22.148958 5 1
-33.686836 104.550350 5.206891 0 0
45.336628 322.805080 0.215524 0 0
-1.143093 143.374820 -69.121246 28 1
16.673681 166.208480 -10.237646 0 0
123.526800 234.067090 21.509146 62 1
115.119410 245.058690 56.050713 21 1
88.680542 248.146740 29.276628 62 1
-34.013279 237.118120 93.696465 45 1
-14.190361 24.705618 1.339123 0 0
-39.377453 149.232270 -79.964371 27 1
58.372375 225.893050 63.980484 63 1
-39.323895 236.908860 3.762770 0 0
-16.916258 174.114730 48.087959 79 1
114.648630 361.487700 24.493134 20 1
82.973022 315.470030 -61.334007 24 1
76.730927 264.661440 31.314360 61 1
-45.064438 183.648130 33.964127 48 1
85.373589 359.841000 21.877253 36 1
35.515305 144.457430 -32.030506 71 1
97.091476 254.225280 1.979133 64 1
73.706642 247.900910 -49.370892 66 1
-0.024707 253.942380 -7.966643 74 1
-18.292809 158.888500 -59.872719 51 1
149.663090 301.227480 -22.418190 22 1
48.981209 301.791660 106.205920 14 1
-32.639729 247.458760 37.935596 54 1
21.338459 151.894650 7.112205 0 0
60.008556 400.014800 -1.110287 39 1
-35.815632 152.387990 11.921018 0 0
12.113811 237.896560 -11.970651 0 0
3.146111 135.806470 -90.845047 28 1
-58.911758 168.814210 -24.208525 75 1
8.985379 168.114820 -22.551733 0 0
4.251929 87.233490 75.832756 89 1
79.947212 270.446960 -56.480999 52 1
87.004250 249.118840 -36.558987 66 1
46.693043 300.565090 -100.441740 17 1
20.724289 68.485947 -13.952800 0 0
84.454376 230.664630 -40.038502 65 1
116.852170 355.074370 39.211185 20 1
70.662697 272.742950 34.054451 61 1
-3.290107 314.897710 41.811047 15 1
25.301640 392.649350 -5.335124 44 1
116.217610 329.564510 -38.183807 22 1
68.814697 250.933720 -7.963214 0 0
28.931831 151.482320 21.273003 76 1
-2.853272 165.886090 -16.181206 84 1
3.427092 257.949490 3.371174 74 1
73.391479 281.444920 40.559059 31 1
31.182407 382.436400 7.393525 44 1
30.078951 256.108730 -64.743782 70 1
17.919321 158.412160 59.277885 50 1
86.198082 376.208770 -39.454182 41 1
-4.704096 171.762310 69.853203 50 1
-6.043352 156.042110 -29.676208 81 1
40.568066 252.944820 -64.045959 0 0
111.335750 340.818940 -6.400287 43 1
-25.529692 140.744890 -77.006950 27 1
-25.587288 147.850420 -83.419006 27 1
49.680241 230.372020 -69.734016 69 1
76.773056 246.763580 53.220680 63 1
111.232840 310.430300 -6.999916 30 1
8.968518 220.533950 66.220245 57 1
-66.797256 163.086910 60.678810 48 1
102.466020 253.788120 46.271404 62 1
-29.950920 181.523410 13.463573 79 1
154.864400 226.563080 -28.923256 5 1
-56.603874 166.478910 55.742317 48 1
-36.757507 138.054230 3.100369 0 0
50.328407 138.965970 -39.068230 71 1
-25.222883 167.788910 -52.886532 51 1
47.337879 309.247890 -62.706001 17 1
53.471237 252.806210 -70.304817 68 1
73.295212 288.101230 27.189295 31 1
111.953610 296.751010 18.574333 30 1
56.362560 274.899350 -25.234085 0 0
-66.899017 139.257600 -23.241652 3 1
18.959274 82.671249 56.306744 89 1
112.708850 353.672450 -3.041613 43 1
-4.268246 318.953030 30.243256 15 1
-54.816299 129.084900 -57.590897 26 1
32.217014 387.087160 -8.049226 44 1
24.888739 217.302030 61.149979 57 1
64.311874 279.665800 -16.861137 0 0
61.368992 121.778550 24.291611 9 1
87.423035 238.510510 -1.309493 64 1
23.475946 290.385380 -12.550174 0 0
77.861389 108.635090 -19.195866 6 1
-21.844652 68.035370 -6.970825 0 0
48.934464 257.571660 -77.044258 68 1
29.743315 222.364550 -97.998177 69 1
-2.209259 150.756550 -9.714354 0 0
85.404976 218.872790 -64.215866 65 1
-29.519627 84.449707 -6.469533 0 0
90.469475 321.612760 -3.804749 30 1
-13.862377 129.147780 -40.228176 88 1
120.921360 223.881990 70.904465 21 1
-5.698823 93.806625 -10.206337 0 0
-5.309638 156.037520 52.624779 79 1
88.472885 117.228270 56.583141 56 1
96.663208 355.233610 -47.446823 40 1
100.787010 249.892070 -13.656182 64 1
10.501639 142.815440 -53.395737 81 1
-40.416401 115.422310 -20.536503 0 0
-30.519176 112.613430 -110.435330 1 1
67.239037 220.838810 58.899757 63 1
12.318913 146.347050 47.494118 80 1
103.486510 253.426800 29.321556 62 1
41.928425 230.216800 -76.237923 69 1
36.873798 264.421750 -42.910484 0 0
-49.144203 223.782030 109.866650 45 1
80.226822 264.986240 6.906708 61 1
42.054440 364.948820 18.354366 47 1
-50.806091 181.348250 -4.213704 75 1
51.404167 142.609010 -21.514771 71 1
27.329956 264.481320 -60.302010 70 1
15.513253 232.454030 -2.071712 0 0
64.838249 200.238820 71.827255 29 1
-57.270096 178.422530 -12.015905 75 1
77.771629 116.199140 27.162758 7 1
3.973202 261.339810 -13.879100 0 0
80.194115 378.999450 -4.219488 42 1
105.372330 366.250700 -17.982939 42 1
51.297127 202.826780 74.886131 29 1
39.225273 116.746870 60.014656 8 1
23.087807 189.593440 -33.194866 0 0
27.530401 216.800870 78.323074 13 1
40.454784 272.094570 -28.069668 0 0
29.270308 376.298130 1.545629 44 1
18.170872 294.852020 -18.698906 0 0
-4.018183 62.680016 -2.122190 0 0
-44.177719 141.564090 -87.151070 27 1
82.105652 284.940460 -52.972416 52 1
34.172352 329.721190 -101.881900 4 1
34.142830 215.995560 -45.647758 0 0
-4.891994 30.373030 -4.803643 0 0
86.767700 274.143040 31.116020 61 1
38.675945 367.089110 -19.586588 46 1
24.271864 241.290250 3.444209 0 0
-3.368557 73.561058 -20.267000 92 1
-60.461002 69.252800 27.859966 12 1
70.669769 375.625760 24.315090 38 1
63.031532 190.405150 64.989906 29 1
-53.446423 185.376820 33.089012 48 1
59.286404 304.585330 33.492870 31 1
57.977703 227.380830 -48.614395 65 1
2.056361 167.069640 75.925606 50 1
12.495740 133.366730 -7.992935 0 0
36.657684 320.154600 -4.791032 0 0
66.823662 299.261170 91.819351 14 1
71.602257 361.592100 42.997650 35 1
93.071632 361.110170 35.769238 36 1
32.858856 156.300660 -20.157486 90 1
23.747087 383.056490 -15.069885 19 1
6.377719 223.994260 -12.572440 0 0
40.132519 74.890945 46.223316 78 1
122.689140 349.567540 29.429483 20 1
76.157005 385.919950 -0.632879 42 1
59.359535 407.369570 4.423935 38 1
-29.112385 151.839160 -69.839561 27 1
-33.212639 173.565550 27.181877 0 0
88.878265 370.207640 -1.621264 43 1
94.136772 300.672730 -57.549778 24 1
103.267810 269.218350 7.536371 60 1
12.974026 64.389526 77.597649 89 1
89.003418 249.160320 19.295502 64 1
-7.201010 156.144490 31.815132 79 1
87.792168 213.497250 -80.584557 65 1
99.973740 264.801730 40.283718 59 1
-38.346134 232.141220 48.092533 55 1
-35.444668 239.291660 52.337036 55 1
44.711922 306.433110 16.186544 31 1
-42.552418 143.794530 -13.565803 0 0
-50.426147 141.171590 -70.335144 27 1
-26.936678 175.399610 -14.241514 75 1
56.149147 127.183510 36.416382 9 1
89.921196 365.357570 -41.089855 40 1
137.137310 315.417510 -38.184376 22 1
-40.467644 204.696990 -49.586159 0 0
89.250298 233.370010 -75.919449 66 1
-13.043530 131.789050 -24.388853 88 1
0.060842 173.718030 18.080654 79 1
41.028900 234.918700 -25.346397 93 1
85.732353 237.249050 -25.290142 66 1
50.670895 332.283140 4.590163 0 0
1.412428 167.594350 43.601612 79 1
12.941981 153.815430 -47.581547 81 1
38.888393 207.795720 45.148785 58 1
34.893414 229.193510 -60.258682 0 0
-21.655012 162.238590 101.046590 34 1
94.843773 254.184450 39.312046 62 1
95.383064 305.040990 -70.081345 24 1
26.601030 132.613820 -28.901764 0 0
58.405476 220.255540 -7.820499 0 0
46.757217 307.871520 41.382576 31 1
40.050457 315.498170 38.073544 31 1
-11.043413 52.670464 4.479151 0 0
28.388149 231.037120 -79.351685 69 1
143.371630 309.409360 -36.188740 22 1
75.197861 303.099000 -96.752434 17 1
54.174419 74.733162 49.100086 78 1
-44.716747 219.984220 -70.167610 10 1
121.016940 241.061830 16.996040 62 1
-61.982300 140.427980 -55.814892 27 1
73.820808 351.010590 49.621044 35 1
97.842690 372.738130 -29.104950 42 1
7.845368 132.640120 -30.068104 88 1
53.303127 71.364990 27.290028 25 1
3.603421 170.657390 28.891630 79 1
97.168709 366.001650 23.130398 36 1
19.387852 239.923980 -39.204395 93 1
47.868881 207.959880 83.846786 13 1
-43.489597 102.972470 -106.487230 1 1
-9.702899 93.325195 70.259483 67 1
69.381119 233.485440 57.284630 63 1
36.854801 310.779050 -2.928414 0 0
