-50.833225 170.678960 18.494974 4 1
-24.684584 126.070640 46.762623 17 1
-38.430431 182.468190 -45.814327 3 1
-49.458221 131.549350 31.477409 18 1
-1.586924 41.833065 15.583049 1 1
0.155915 132.768300 -5.554793 0 0
-70.043144 105.826860 35.965481 18 1
-62.876831 155.739940 24.507305 4 1
-59.606819 122.201690 3.855837 19 1
49.871113 167.667480 -13.079249 5 1
23.444933 170.742360 -3.225684 11 1
75.802574 145.425080 -11.263902 5 1
14.894390 72.279526 -29.326748 0 0
-0.817707 63.871918 -4.503278 0 0
-25.806759 123.716800 50.417347 17 1
-10.396636 40.467377 -16.542702 12 1
58.579998 180.371380 -7.455947 6 1
31.303392 157.080380 30.165136 8 1
27.360388 167.948580 20.756104 8 1
-61.183178 124.107120 13.181297 19 1
34.499199 96.628853 -44.651138 21 1
-53.212078 181.503360 6.829376 4 1
15.622860 88.041298 -63.299477 23 1
-33.234417 132.484920 27.810673 17 1
45.772816 154.939590 -6.180918 11 1
16.961931 160.701480 -13.399137 10 1
33.352463 142.295500 27.287428 9 1
23.994831 172.954010 11.019711 8 1
-80.006744 166.829650 -31.979368 2 1
0.831554 2.537095 0.285718 0 0
-56.540211 182.636900 -25.118998 3 1
-27.843214 131.295170 39.310921 17 1
55.326199 154.115330 9.728949 7 1
61.990459 172.793760 -5.703273 5 1
-0.545269 24.129292 1.181837 0 0
-38.302528 166.582610 -12.847230 0 0
58.946735 130.150730 39.830982 7 1
71.091263 145.177690 19.841904 7 1
-18.359219 40.170898 13.421743 1 1
-62.143841 99.260017 -8.562067 19 1
-45.905083 145.742740 -69.069237 3 1
-0.037684 11.401149 -1.351161 0 0
-50.717777 168.954670 -43.410656 3 1
70.903221 170.720200 -3.979661 6 1
6.256982 65.399475 -12.657093 0 0
-25.103659 143.211380 -8.025608 0 0
-56.565056 155.439040 29.628643 4 1
-41.982407 174.845540 -51.643433 3 1
32.776218 175.355500 4.008637 8 1
-83.236832 181.229920 -11.760102 2 1
-54.722794 124.807690 42.991306 18 1
64.019913 157.605300 2.537066 7 1
39.613239 149.340380 23.559626 9 1
-55.932884 167.926850 16.074839 4 1
-73.659187 183.659040 -12.717888 2 1
-25.038792 112.306640 50.566628 17 1
79.611664 127.980380 -25.807451 5 1
-3.373566 37.492828 8.399799 1 1
-48.027828 126.852220 12.996916 19 1
1.265225 161.749100 -8.499563 0 0
83.785393 123.994020 -25.060064 5 1
41.740902 90.598900 -56.349628 21 1
-66.863609 184.420390 -29.960386 2 1
86.737549 146.414470 -15.429358 5 1
29.862532 171.214110 0.747050 11 1
-42.051620 155.615230 -66.336037 3 1
-60.072784 125.462870 23.717472 18 1
32.821297 77.981445 -84.317230 20 1
24.897907 157.239000 25.952250 8 1
-6.981869 170.848190 -0.765146 0 0
61.016918 140.446610 33.153538 7 1
-56.699673 121.669360 17.913212 19 1
22.302574 164.125090 19.270216 8 1
34.855259 152.711720 -14.925578 11 1
-4.214128 27.625563 -1.680377 0 0
-41.170189 117.518380 44.758213 17 1
52.044186 80.968697 -45.008511 21 1
-57.114685 173.858380 15.842413 4 1
49.940231 163.443680 -5.880225 11 1
-33.550011 137.714510 29.754349 17 1
19.006704 167.269850 -0.052157 11 1
-54.892059 130.406250 28.372173 18 1
0.108757 66.696960 -60.628487 23 1
-46.515759 129.989490 20.771336 19 1
-42.439625 138.667680 -70.394485 3 1
-62.419971 170.606340 16.057457 4 1
-38.135452 176.985080 -46.166119 3 1
33.801300 169.050770 16.954754 8 1
90.345795 118.284940 -25.704943 5 1
21.420950 117.124060 -3.783663 0 0
-2.022959 33.195858 -2.874715 0 0
-60.995579 177.514430 -28.485949 3 1
-34.082344 111.402650 48.319180 17 1
-68.152283 164.134690 14.881332 4 1
-42.493912 179.598070 23.278917 4 1
32.221859 148.869710 22.762569 9 1
-16.965061 97.658707 8.231955 0 0
38.713028 146.746000 -3.418127 0 0
41.730057 139.422670 -33.779839 11 1
42.736313 155.959730 -13.984591 11 1
48.009338 174.753220 1.283182 6 1
26.795250 159.725570 14.725523 9 1
28.118549 167.787000 -17.582710 10 1
-49.013145 160.170290 -55.999523 3 1
74.693939 148.679600 -22.987177 5 1
42.485519 146.911680 -31.075260 11 1
23.267544 94.057709 -52.018810 23 1
-0.548522 137.231320 -4.405022 0 0
19.944788 91.135750 -62.686363 23 1
35.984276 175.685420 1.180464 8 1
-29.942322 157.027760 -10.374979 0 0
3.250822 93.842262 0.119163 0 0
-44.547657 179.918440 -42.070095 3 1
-48.902336 177.648770 -29.813196 3 1
35.559414 126.819850 -36.381062 11 1
47.125427 156.174880 -13.518043 11 1
-10.755726 40.038197 16.339087 1 1
-72.109177 177.565110 -18.815903 2 1
27.293228 92.242249 -51.490326 23 1
-35.111477 176.697330 -50.104557 3 1
52.482368 75.422562 -52.213417 21 1
-45.971294 133.988890 9.144269 19 1
-10.618389 40.553467 -9.864448 12 1
17.470926 115.507050 0.259999 0 0
-44.131279 187.428850 4.500068 4 1
23.411560 166.357090 -7.052919 11 1
-60.259598 116.767930 10.422164 19 1
-53.444252 178.617860 -2.522091 4 1
-64.693985 110.227700 5.846792 19 1
49.715858 157.070910 -0.603171 5 1
-46.529697 169.000750 -48.096027 3 1
26.801336 97.315163 -67.099197 20 1
27.475807 151.840730 22.778811 9 1
24.643778 139.867780 -26.758528 11 1
-33.509384 160.099200 -13.768296 0 0
68.188118 143.625790 -24.963011 5 1
50.645020 179.071000 4.426830 6 1
-43.940632 184.403170 12.318800 4 1
23.792667 127.256640 -35.534660 11 1
29.360407 91.308693 -71.676300 20 1
31.947149 156.083190 -3.784474 11 1
26.514685 176.733340 -14.255356 10 1
-75.707893 173.614000 -30.695997 2 1
68.843933 148.491940 -20.054161 5 1
44.124332 154.381680 21.494877 8 1
1.552732 81.970123 -0.106206 0 0
-76.448807 170.846570 -18.795135 2 1
-34.788399 129.243180 40.364929 17 1
58.194149 154.638440 19.657536 7 1
4.634478 50.738937 15.663294 1 1
59.588970 151.909070 14.462014 7 1
-61.004345 180.260100 5.353056 4 1
-21.728439 33.780682 -16.451080 12 1
3.988876 148.392470 -2.906743 0 0
-54.930775 129.275560 -1.770570 19 1
29.495855 162.246000 -25.133787 10 1
20.163086 163.277730 -13.840544 10 1
8.208274 67.987198 -17.898211 0 0
52.607891 159.885220 16.383688 7 1
62.991108 161.677440 -21.216936 5 1
-62.424217 116.310870 0.989054 19 1
-53.856709 174.849120 -32.056362 3 1
57.247681 140.705600 35.344433 7 1
-40.005291 133.973600 -74.863670 3 1
28.631847 154.513530 -17.494486 11 1
-0.712431 159.420640 -14.069358 0 0
65.541763 142.114620 28.706331 7 1
-1.580212 101.546660 -5.705047 0 0
14.432020 90.611069 -51.839661 23 1
44.235916 87.598602 -73.134590 20 1
-43.174057 175.974910 7.627070 4 1
-46.447865 175.998600 18.721607 4 1
25.345011 171.566010 17.870623 8 1
-2.405072 168.042470 -2.763741 0 0
13.761966 96.563492 -49.906994 23 1
-57.530903 173.595900 2.619250 4 1
-37.914364 126.344440 33.435341 17 1
89.419510 142.079830 -15.502278 5 1
28.148882 130.397720 -0.254241 0 0
30.922865 156.536470 -33.248856 10 1
-46.092773 142.041990 -67.299324 3 1
80.783195 137.545560 -23.459099 5 1
62.578716 149.061340 18.298735 7 1
1.262879 44.441780 16.968328 1 1
55.982449 161.120530 9.266094 7 1
-0.845087 43.199936 9.766043 1 1
5.413508 76.525108 -62.676910 23 1
47.171978 157.093140 5.560671 9 1
25.972309 97.484093 -57.830338 20 1
40.640564 93.475616 -63.392624 21 1
-0.098105 106.279660 -2.743432 0 0
-86.022049 160.215850 -32.062599 2 1
84.488525 156.746460 -11.158578 5 1
-15.220143 174.037280 -6.322290 13 1
12.564767 89.733177 -60.523621 23 1
24.150013 159.941880 18.793585 9 1
-2.432642 94.782539 -1.613485 0 0
-5.223278 176.924530 9.857572 14 1
4.728927 138.998550 -6.479577 0 0
-62.463009 169.635440 -37.707260 3 1
62.363205 158.360600 -12.814309 5 1
-37.381580 116.448390 49.371395 17 1
-44.021339 135.550020 17.265690 19 1
33.001980 164.453050 9.970782 9 1
65.003784 142.926740 23.103104 7 1
10.007105 149.594410 -8.129239 0 0
-19.056406 36.334503 -6.873116 12 1
-54.802277 127.560870 11.083668 19 1
68.480331 150.774960 14.424630 7 1
93.809395 124.927320 -22.112078 5 1
-63.274269 121.206770 33.736626 18 1
-65.574402 168.901430 11.272008 4 1
25.148767 174.046800 5.554667 8 1
-49.808083 135.878540 -70.762856 3 1
-8.512514 96.759460 4.793699 16 1
49.836639 161.989070 14.264595 7 1
66.199997 162.722060 5.648911 6 1
-44.318283 155.021970 -61.261101 3 1
29.805624 174.106770 6.499127 8 1
-73.496376 183.718860 -31.732731 2 1
-44.816975 166.548570 -57.788548 3 1
-38.031551 132.912140 28.706717 19 1
-50.049278 148.086300 -66.611092 3 1
-6.635053 90.857162 1.666737 16 1
-37.261944 157.751860 -66.604897 3 1
-54.700752 160.727360 25.484358 4 1
19.592888 118.607430 -36.215099 11 1
-59.664677 179.241740 -31.903702 3 1
26.045774 171.083270 2.172161 8 1
0.643556 39.568054 27.721401 1 1
60.611187 161.633000 8.316737 6 1
50.871658 160.028240 -17.182657 11 1
-54.931671 174.668300 9.490132 4 1
-47.923164 131.079420 25.277645 18 1
29.886690 161.275010 -13.497138 11 1
30.666239 124.315850 -36.994373 11 1
-53.594181 163.985340 -45.010517 3 1
-27.399879 107.428980 54.264610 17 1
-95.232666 155.218150 -12.276539 2 1
-1.093924 148.774090 -4.746394 0 0
54.506847 172.961410 7.576277 6 1
-71.152061 107.138620 31.677359 18 1
-35.444595 129.824620 30.081352 17 1
22.617134 160.640460 -7.006562 0 0
47.565300 183.014130 -7.368755 6 1
-40.103268 177.745620 5.459200 4 1
-0.602250 122.519180 1.435418 0 0
-1.435838 41.503132 23.844398 1 1
30.075787 91.982162 -65.569420 20 1
-45.759995 183.320910 -30.565895 3 1
-91.121643 160.710190 -19.845009 2 1
20.387672 141.971730 -25.932467 11 1
-31.525957 111.788730 52.408318 17 1
-65.106232 115.251040 38.503838 18 1
-85.144157 159.678540 -24.501722 2 1
-39.867245 149.803830 -66.711098 3 1
-92.418053 163.439680 -12.012924 2 1
-49.029453 185.026200 -11.319390 4 1
54.463615 79.401833 -37.627602 21 1
-88.743454 174.601430 -9.188617 2 1
-53.263321 167.914340 24.655067 4 1
-36.411858 171.833500 -53.958172 3 1
-45.472450 130.984160 32.691330 17 1
41.420994 152.514370 -18.746292 11 1
-82.564262 171.027330 -14.683807 2 1
-66.025902 166.486590 -46.308762 3 1
1.654314 56.975113 -1.791649 0 0
22.164831 94.577858 -56.069397 23 1
23.991991 152.647610 -36.277554 10 1
-77.701378 171.658750 -33.921391 2 1
-57.051598 127.407460 21.986954 19 1
-40.939537 168.270840 -54.161541 3 1
-13.865545 177.313030 -8.868450 13 1
39.048992 154.530670 27.692274 8 1
26.680729 170.224900 -22.953058 10 1
26.262150 91.227318 -78.169472 20 1
4.422181 45.773232 26.979767 1 1
20.830915 158.400090 -25.266512 10 1
-5.741451 40.611629 -11.639564 12 1
-25.046343 28.360298 -15.747164 12 1
-50.593994 183.684780 -0.150069 4 1
-89.019257 171.097270 -13.107059 2 1
44.015083 86.222427 -57.458084 21 1
51.254143 158.301990 20.230141 7 1
9.553901 87.074921 -60.272617 23 1
-43.123299 121.296640 36.985798 17 1
47.703976 164.547900 8.802008 9 1
-54.820496 129.873110 16.226559 19 1
-41.873165 184.502700 17.029572 4 1
-27.066929 129.235870 46.604431 17 1
-60.720730 109.871260 -7.003436 19 1
-16.598322 38.697525 -2.017516 12 1
-73.628922 173.309110 -25.265884 2 1
-4.617859 181.586040 2.825017 15 1
-42.984310 130.881700 23.650467 19 1
-55.156525 170.134230 -38.407875 3 1
18.269939 159.562320 -0.607350 0 0
50.265785 153.509510 16.000929 9 1
28.693813 175.813740 -6.395430 10 1
34.504547 130.147830 -33.611027 11 1
-40.557976 160.839070 -63.916080 3 1
46.561356 177.380310 5.615653 6 1
-71.278503 119.102140 25.946028 18 1
-51.892445 126.190110 22.755821 19 1
50.190567 163.242480 -1.496263 11 1
52.521259 150.643520 24.969551 7 1
32.069847 119.660240 -38.931011 11 1
32.111626 92.873520 -58.040382 20 1
-0.163610 114.497550 -4.904914 0 0
-22.059063 107.770830 56.378166 17 1
9.788229 104.696420 -1.643645 0 0
24.695906 170.833820 -18.242020 10 1
-51.471088 173.232890 -36.221504 3 1
-88.104012 168.007550 -18.251219 2 1
-1.979326 173.407650 8.094062 14 1
24.132797 156.536160 20.783417 9 1
38.163857 93.542168 -56.820251 21 1
7.969754 144.284410 -4.365120 0 0
-54.107807 182.594500 2.778734 4 1
-66.658974 176.509490 1.486580 4 1
47.730385 86.705910 -52.157333 21 1
-2.470907 57.170441 -4.471398 0 0
-4.164121 108.076430 -3.815389 0 0
-96.185791 148.672450 -14.232307 2 1
-22.636379 100.580110 55.992577 17 1
28.333559 85.200096 -81.721970 20 1
-28.659483 109.287400 15.933018 0 0
43.440289 180.296680 3.917296 6 1
41.087082 156.097660 10.616555 9 1
20.089912 119.997200 0.043533 0 0
27.189146 125.859370 -33.199524 11 1
-51.643562 161.404690 30.841328 4 1
64.228783 152.726670 -18.338108 5 1
35.960777 153.091220 -22.913441 11 1
-59.334949 165.919860 -41.925823 3 1
30.728384 95.991585 -67.815323 20 1
57.359650 161.583510 -9.443578 5 1
43.687336 165.417800 3.010317 11 1
36.068665 158.441510 -29.199127 10 1
33.291824 88.405678 -76.820488 20 1
60.054890 178.231120 -4.452392 6 1
29.873734 92.968216 -54.375671 23 1
-62.138420 149.158330 30.331604 4 1
-20.255600 97.064949 10.286185 0 0
54.578880 74.982712 -44.300438 21 1
61.561733 152.589220 19.828384 7 1
-64.342674 164.234950 15.845805 4 1
87.910233 129.086530 -20.788639 5 1
4.798799 49.736351 20.582264 1 1
38.788872 150.514740 -26.101946 11 1
-56.913029 173.861980 -47.789997 3 1
27.038801 152.801610 18.499903 9 1
16.180729 113.996170 -3.586619 0 0
-66.218559 158.560270 20.241177 4 1
67.992317 170.605290 -8.785548 5 1
35.429516 93.631088 -62.040314 20 1
-41.602299 126.298410 32.052109 17 1
-58.995800 164.127760 18.791893 4 1
62.772556 147.268550 -25.866436 5 1
3.386926 42.729618 29.314751 1 1
-86.689423 164.544600 -12.757951 2 1
-78.678986 176.774510 -15.400723 2 1
-59.046371 160.995000 -55.922447 3 1
6.766082 79.662468 -67.190971 23 1
21.638824 168.903840 -10.482534 10 1
40.319553 161.078320 23.871233 8 1
57.592148 162.046570 -25.495977 5 1
41.291786 79.477524 -80.101425 20 1
-1.715339 78.831665 1.032332 0 0
9.808609 85.704994 -55.936272 23 1
0.915379 121.418320 -2.594805 0 0
26.352940 159.362340 -4.623545 11 1
-63.354691 100.631290 -3.781566 19 1
65.015823 169.327650 6.949557 6 1
46.395081 85.575027 -44.460228 21 1
-66.646370 110.259250 42.902302 18 1
66.320915 149.227540 20.301466 7 1
60.010735 167.681080 -0.784859 6 1
38.630196 168.036150 9.008996 8 1
-37.465271 122.316420 44.040886 17 1
-41.410332 184.761200 -32.084370 3 1
21.674078 173.341950 -17.743158 10 1
25.984486 132.020140 -33.834484 11 1
34.778748 89.969055 -69.937912 20 1
-6.097449 34.706856 0.017866 0 0
-60.122913 182.690870 -22.388994 3 1
-38.931641 128.668080 28.105045 17 1
-64.954834 172.172320 13.509549 4 1
4.980226 83.250107 -55.243385 23 1
-45.932819 127.815270 27.534235 17 1
4.910289 157.933500 -6.870968 0 0
38.455940 91.005943 -49.901291 21 1
-32.065071 113.719470 18.057951 0 0
-63.490673 161.406250 18.844227 4 1
-39.874863 181.925860 5.620232 4 1
-41.199448 181.445300 -35.610481 3 1
82.353439 144.117890 -10.867867 5 1
18.784010 156.281200 -3.395405 0 0
54.894623 176.989110 3.012885 6 1
-1.957641 104.896060 0.364277 0 0
-68.016075 111.708390 33.656887 18 1
-6.811584 166.797100 0.785960 0 0
-1.239599 85.823387 1.181382 0 0
23.046648 121.907820 -37.207310 11 1
-82.748886 170.242100 -27.879482 2 1
-58.678619 160.567120 -51.519463 3 1
-34.621323 121.232640 40.041893 17 1
-10.382821 40.046124 6.293767 12 1
43.444923 157.970400 4.880337 9 1
70.288216 154.653090 -9.338999 5 1
-77.463036 178.364260 -30.743895 2 1
-27.204208 123.784920 44.199524 17 1
59.698536 154.191420 -28.211065 5 1
-46.970192 184.866930 5.022433 4 1
-0.480949 62.031601 -0.822335 0 0
-5.333526 35.516369 27.028955 1 1
-2.846688 70.610298 -1.676221 0 0
-35.849869 131.468280 34.604198 17 1
41.966549 165.267070 14.479056 8 1
-42.918560 177.109220 -15.046242 0 0
-59.152473 112.548570 -3.027388 19 1
-81.311218 175.668260 -24.283787 2 1
48.563816 156.345580 -17.085337 11 1
81.047150 158.254680 -3.979614 6 1
24.703398 97.482452 -63.572880 20 1
67.256248 156.252350 9.225713 7 1
-54.025143 163.302640 22.489887 4 1
33.014992 163.904600 23.287148 8 1
36.103767 159.861880 5.808247 9 1
-59.642483 178.227100 -5.960034 4 1
-26.054230 150.634230 -9.190489 0 0
23.116425 157.983470 -9.893571 11 1
-52.725121 133.428280 40.650806 4 1
21.700447 134.248350 -28.619114 11 1
-47.556160 173.741730 24.027134 4 1
84.505753 140.511510 -21.148739 5 1
-63.770958 95.095238 -8.613042 19 1
-64.878983 179.260570 -1.287595 4 1
6.558044 101.091660 -0.718972 0 0
32.301743 166.315810 -19.294827 10 1
57.376091 158.739430 -19.119816 5 1
43.343735 182.069310 -3.350291 6 1
52.901443 72.408195 -49.885506 21 1
-52.737820 125.282880 5.485885 19 1
-53.515804 175.179580 16.648018 4 1
-63.627850 118.822020 11.425837 19 1
-2.784249 16.452320 1.606156 0 0
26.358213 120.483450 -34.727360 11 1
87.109917 123.967510 -22.703255 5 1
-63.886532 188.314320 -24.591854 2 1
-74.889923 101.750740 31.695601 18 1
59.128124 148.719960 21.424318 7 1
4.180403 59.132175 -5.497054 0 0
-5.762617 118.903050 -5.557204 0 0
-9.447492 120.248810 -2.303721 0 0
-48.481979 140.176610 40.740959 4 1
-81.100021 163.490460 -29.051497 2 1
-47.023422 171.105870 -52.678314 3 1
-43.577412 181.491290 -1.070387 4 1
36.265636 159.168180 27.211624 8 1
20.368097 92.303123 -67.390587 23 1
-20.126572 36.937271 0.690767 12 1
-20.645409 139.789170 -10.409641 0 0
58.266769 170.780500 7.290570 6 1
44.697750 153.725430 15.993997 9 1
-51.301140 180.050770 -5.388959 4 1
37.061630 163.589600 -0.359139 11 1
54.822556 150.789290 21.940702 7 1
-56.174927 128.049350 40.977722 4 1
36.376606 98.055969 -62.395836 20 1
21.058216 153.765880 -5.486992 0 0
-15.799237 110.679330 56.874168 17 1
-7.061819 36.720448 -6.392558 12 1
26.817804 169.716770 10.550592 8 1
41.417503 88.050133 -53.554722 21 1
16.175508 160.423610 -18.665796 10 1
-65.369583 108.968990 -1.348133 19 1
34.744278 83.454262 -79.800552 20 1
-64.821457 104.001150 2.193083 19 1
56.320576 174.280730 -3.072682 6 1
34.416328 145.805970 23.173603 9 1
-31.731014 105.971280 51.881260 17 1
33.805119 172.383830 -8.463610 10 1
-43.322502 188.665770 -26.636372 3 1
-43.950947 182.460020 -25.824961 3 1
23.667051 88.199364 -47.298016 0 0
37.154919 172.786930 8.345182 8 1
-31.527102 134.199450 32.154667 17 1
19.637028 94.093719 -50.451279 23 1
31.047766 150.084880 27.797815 9 1
-48.317734 155.727940 -63.596783 3 1
-60.622330 160.552370 25.180723 4 1
-46.520702 186.544570 -6.007766 4 1
44.473454 164.571760 -1.093737 11 1
-54.787136 175.820110 4.280041 4 1
-63.115551 121.161790 14.571296 19 1
37.705360 154.301640 12.853894 9 1
-52.467052 177.287730 -41.690414 3 1
27.221811 117.050130 -36.353294 11 1
-2.689812 116.494470 -1.200351 0 0
-0.946801 69.877159 -58.865898 23 1
31.863209 172.747570 11.059309 8 1
52.870037 157.607850 -2.946761 5 1
-54.818363 138.959920 -67.847015 3 1
-40.079647 146.296070 -68.074745 3 1
-4.380888 73.274635 -55.446148 23 1
24.122509 175.276870 -6.568155 10 1
56.467270 67.784775 -43.675732 21 1
-7.793343 114.173970 -3.244514 0 0
-49.470577 178.320860 10.863592 4 1
22.353497 159.178740 -3.547786 11 1
25.557741 91.763329 -56.820656 23 1
23.166645 166.511340 16.412607 8 1
-5.282760 44.044579 -16.397768 12 1
-0.936827 163.101990 -11.268373 0 0
85.725372 151.940830 -16.822268 5 1
-58.045578 124.003270 26.561771 18 1
13.966015 88.854362 -55.167252 23 1
72.537910 143.327180 -27.668758 5 1
-10.045960 39.954952 -2.101511 12 1
-50.383694 130.892380 8.209665 19 1
-66.477097 180.172410 -22.844906 2 1
21.835613 116.596670 -39.119461 11 1
-49.379807 172.560730 -50.122726 3 1
56.362053 165.193850 -20.021418 5 1
-19.466331 134.034260 -5.797804 0 0
-62.472137 106.919080 6.462646 19 1
-14.207549 86.931923 6.031403 0 0
-48.538406 152.187040 36.629173 4 1
66.424767 146.534000 23.416681 7 1
55.772617 146.393920 28.312025 7 1
50.513390 162.790150 10.663924 7 1
-49.762737 149.766240 39.790054 4 1
20.978779 175.192500 -14.428351 10 1
41.246033 153.245060 -1.169583 11 1
-29.747602 117.142960 51.447906 17 1
61.070263 163.480000 -18.542412 5 1
36.988674 87.839554 -75.362320 20 1
40.176018 91.025520 -46.095554 21 1
73.051781 142.944340 -22.410227 5 1
48.113979 179.625260 1.692013 6 1
-49.896973 152.360870 -64.601257 3 1
-5.440429 169.215190 6.452191 14 1
77.285828 160.026630 -16.966566 5 1
-29.648655 133.988660 42.281612 17 1
46.377377 162.775700 16.317034 7 1
86.523468 134.323180 -19.659361 5 1
2.873879 78.710571 -60.672813 23 1
34.192844 151.616560 18.579269 9 1
-11.838336 126.077070 -7.123784 0 0
-36.639679 118.739310 42.985126 17 1
-85.706154 176.431020 -13.672827 2 1
-58.419693 112.734420 4.183145 19 1
26.312290 151.473050 28.446133 9 1
-52.017895 142.084960 -66.012589 3 1
-46.028831 130.076480 9.582426 19 1
-34.718536 165.578990 -12.601914 0 0
-70.025543 114.140320 28.728462 18 1
-13.682571 130.889950 -6.109652 0 0
-43.353336 146.210420 -66.286263 3 1
-60.984024 172.006150 8.943834 4 1
-65.633919 181.898710 -27.454863 2 1
-52.197235 152.426350 35.831642 4 1
65.132568 120.057720 42.036274 7 1
73.349228 137.304350 -26.034912 5 1
-28.495726 28.693134 -8.627846 12 1
-2.775495 100.832390 -1.996529 0 0
7.655615 146.191680 -7.627952 0 0
-11.322884 41.935844 -19.830160 12 1
-63.336376 175.571990 -2.161213 4 1
-0.851036 76.852089 -4.504393 0 0
60.439098 152.240110 -24.467604 5 1
-57.745529 177.486390 -26.596210 3 1
30.920095 171.299550 14.344274 8 1
17.018536 164.394330 -10.497439 10 1
-25.427435 131.606640 42.350006 17 1
-5.927271 39.162521 4.439801 0 0
59.390209 165.549970 3.757401 6 1
-43.979534 171.605180 -46.826210 3 1
-47.073757 126.525010 35.586113 17 1
37.555027 136.628810 -32.663776 11 1
-57.919716 122.591070 40.975414 18 1
-5.188743 76.185852 -1.805594 0 0
34.327705 95.895607 -49.194374 21 1
-52.123085 179.980910 -34.599846 3 1
43.988861 155.136000 -25.628311 11 1
38.120907 146.988330 -28.784475 11 1
0.124038 74.047440 -61.654163 23 1
46.169891 84.254684 -49.873055 21 1
-64.595032 97.473976 -1.729069 19 1
13.692574 108.701230 -0.733830 0 0
26.333364 143.296370 -28.360369 11 1
-6.718253 163.745190 -4.421830 0 0
-20.245214 34.558323 -13.036220 12 1
-41.008205 186.588810 -38.535679 3 1
45.550404 161.672650 19.804405 7 1
45.507977 150.262310 -25.665293 11 1
-2.569674 20.512167 1.636186 0 0
-38.892139 126.654670 23.577030 17 1
-31.017845 127.741000 45.835976 17 1
-40.446705 177.314390 -43.122009 3 1
23.172007 160.387270 -16.741415 10 1
-2.455866 164.524580 -3.873979 0 0
68.973190 173.513580 -5.787746 6 1
25.700815 173.678420 -11.098845 10 1
-38.675949 162.370480 -60.812275 3 1
32.632309 133.888980 -31.784523 11 1
79.754311 141.281570 -22.944340 5 1
6.189845 140.952900 -3.668090 0 0
28.757441 130.171390 -31.842724 11 1
-1.151080 21.841953 -1.665970 0 0
-46.759872 181.744110 -4.216076 4 1
-9.497374 31.631615 26.988802 1 1
13.879234 88.322723 -66.522133 23 1
35.963467 158.346240 0.665327 11 1
64.512733 172.448090 0.300479 6 1
41.774307 160.440870 -16.048670 11 1
24.360207 156.984280 -33.859360 10 1
-94.526207 159.117810 -7.723900 2 1
-65.592270 185.453720 -13.563393 2 1
-14.725242 36.706814 3.298763 12 1
-58.523655 126.248740 14.567479 19 1
-52.003780 167.384370 19.612558 4 1
-58.376041 130.411820 17.266830 19 1
60.638729 167.264050 -7.638895 5 1
6.953951 91.388351 -52.612968 23 1
-22.979120 33.121510 -9.808071 12 1
-0.386046 165.537780 3.037470 14 1
31.938910 146.098910 27.980886 9 1
35.248634 173.131500 -5.180930 10 1
-63.892323 123.794000 27.271088 18 1
-74.836128 183.674640 -25.881018 2 1
-69.204659 107.357770 42.350067 18 1
-18.553522 180.018040 -8.298412 13 1
-68.460548 185.388030 -25.928352 2 1
42.446999 83.557487 -73.670998 20 1
23.578489 97.011528 -68.829376 20 1
37.749352 78.264526 -80.120033 20 1
28.063257 156.036900 -4.822985 11 1
34.742508 139.025390 26.451078 9 1
-39.785194 126.163380 38.037281 17 1
68.353523 142.671050 21.512428 7 1
-62.975246 106.634120 -7.965669 19 1
-58.384724 170.367450 -35.877079 3 1
58.687679 155.163300 7.396060 7 1
35.088921 91.603584 -55.733299 21 1
32.290462 147.332430 -24.959351 11 1
40.994457 157.596220 -22.217255 11 1
26.634075 165.320190 13.486963 9 1
-0.189323 156.674390 -10.762596 0 0
-43.874287 166.097000 -54.282330 3 1
11.025216 108.261800 -3.188819 0 0
15.952357 76.951141 -30.968346 0 0
-44.773094 178.691570 -18.385458 3 1
-61.247089 162.889950 22.389034 4 1
51.594917 163.579500 -18.718811 5 1
31.192911 91.529465 -74.848694 20 1
-5.556280 175.936570 13.366644 14 1
28.764111 94.886986 -71.866577 20 1
49.995670 180.118790 -7.146260 6 1
-54.340069 157.233080 -55.885330 3 1
-15.590979 38.876217 -13.462047 12 1
-58.069344 183.148320 -15.714787 4 1
-34.497669 127.193200 35.121746 17 1
-56.939457 120.632050 -1.493277 19 1
-51.692833 139.710770 42.607845 4 1
17.423780 110.374810 -3.257626 0 0
-18.545008 114.238390 52.935684 17 1
63.138123 146.540660 20.890314 7 1
-79.328468 168.996120 -17.605724 2 1
-5.099088 177.966490 3.045298 15 1
-16.400970 39.580795 5.884979 12 1
26.978134 150.619780 -19.822906 11 1
32.734753 153.013890 26.232391 8 1
-67.389832 152.696780 24.674482 4 1
74.360825 133.924270 -29.783520 5 1
51.104771 76.557465 -46.368721 21 1
28.431116 171.392430 -4.407324 10 1
45.260876 89.967491 -39.406818 21 1
-71.170799 176.136140 -25.314548 2 1
-76.928833 185.281660 -13.215729 2 1
-65.571106 115.125890 34.921677 18 1
-95.247078 152.367280 -9.676547 2 1
40.366062 149.369370 20.025789 9 1
-44.009029 124.222860 34.809017 17 1
-50.830498 129.425890 2.321194 19 1
-37.814774 122.717110 37.689667 17 1
-61.564144 107.539790 1.968083 19 1
22.129547 82.240318 -44.977333 0 0
21.175661 129.269680 -30.804653 11 1
-50.687935 158.311000 33.694035 4 1
31.088533 136.614170 -3.067136 0 0
-40.104805 167.651580 -59.295353 3 1
-63.404484 172.990250 -38.715446 3 1
41.087761 91.671288 -52.588223 21 1
91.458534 126.854070 -20.018707 5 1
-53.242279 157.677490 -60.486893 3 1
26.994740 154.642620 -31.738800 10 1
73.005669 146.767200 -13.158740 5 1
15.446774 152.369890 -4.380355 0 0
-3.262782 175.706590 0.428556 0 0
44.756725 175.982860 -5.738116 6 1
41.013885 156.035190 -10.741969 11 1
1.688339 49.888012 13.343860 1 1
-20.328373 117.900790 51.862114 17 1
-51.860546 130.415300 42.420822 4 1
25.355398 138.034470 -30.125679 11 1
-42.245312 152.273790 -67.800461 3 1
-61.668327 134.416410 36.283081 4 1
63.019455 123.719960 39.952339 7 1
23.495260 164.579300 -22.248287 10 1
-76.354706 184.828460 -19.741144 2 1
-49.845467 179.041820 6.111912 4 1
-1.222019 127.144150 -4.444317 0 0
65.136398 159.476850 6.759635 7 1
47.749508 165.000000 5.239749 11 1
37.784962 178.564530 -0.041599 6 1
-62.459816 173.326080 -43.455299 3 1
-58.518429 180.405170 -13.084982 4 1
-18.008900 137.421920 -7.489876 0 0
-69.577431 186.726360 -30.354988 2 1
3.509248 145.060820 -4.257547 0 0
-62.421921 167.318390 -40.776196 3 1
67.638954 145.739780 -28.166401 5 1
6.038524 82.993401 -60.963715 23 1
-92.678246 154.110700 -19.639664 2 1
-48.852600 143.554380 39.439636 4 1
-14.280860 33.050430 24.375994 1 1
-54.702538 127.407850 36.709286 18 1
27.481199 82.135529 -86.284950 20 1
26.038050 158.126630 -27.417547 10 1
35.040333 138.645830 -0.683602 0 0
-31.034882 135.588940 38.195759 17 1
-50.548016 132.840240 3.545950 19 1
64.702858 135.249210 30.087574 7 1
65.051292 131.598050 34.443722 7 1
47.669422 82.484993 -46.527748 21 1
4.493883 137.139160 -3.118677 0 0
-38.647541 122.365090 21.270979 0 0
-67.792511 182.272280 -15.432462 2 1
25.849070 145.477360 -22.680403 11 1
-74.175491 176.658870 -31.750843 2 1
32.191444 141.839390 -28.307657 11 1
34.079311 155.397570 12.815460 9 1
-1.391055 32.958561 2.223950 0 0
-55.295727 172.300570 18.792433 4 1
-59.122612 115.120290 -7.056560 19 1
-2.772803 27.022520 1.521949 0 0
79.311943 146.036880 -11.247547 5 1
44.374035 176.370010 -1.248498 6 1
28.993860 77.555756 -86.680389 20 1
1.443672 96.654884 1.418491 0 0
18.682434 167.425140 -8.026321 11 1
-90.288651 151.449130 -30.696684 2 1
38.197163 84.374916 -78.002365 20 1
-45.096722 122.375670 41.298714 17 1
-75.997696 180.976070 -12.748989 2 1
-3.681722 40.843735 -2.523182 0 0
-4.379105 160.168550 -0.933530 0 0
-13.356743 39.270977 -0.496812 12 1
-45.856339 149.470030 -67.649796 3 1
55.538307 152.239620 16.720604 9 1
59.572884 149.342090 25.069733 7 1
-44.619522 182.222400 -18.055178 0 0
-61.709492 172.355530 -31.615282 3 1
-49.058891 129.277190 15.421549 19 1
-54.074215 169.931490 -51.671196 3 1
-48.820953 182.290850 -28.946680 3 1
-71.457077 101.509930 37.958607 18 1
-51.849812 151.545810 -60.514729 3 1
-61.397938 182.166120 -27.595066 2 1
29.809757 168.436630 -20.778593 10 1
-3.936550 90.318680 -2.735921 0 0
-11.764048 121.710990 -4.756512 0 0
44.264999 155.204590 12.032421 9 1
-48.933525 175.880290 16.105726 4 1
-10.892874 169.615450 -4.283044 13 1
24.034578 92.611824 -61.908077 23 1
-56.169510 116.401960 4.187837 19 1
34.196354 140.206770 -33.103397 11 1
-47.812187 180.039520 -22.736313 3 1
-46.582893 176.071950 -35.237366 3 1
55.832024 73.218834 -41.009106 21 1
38.423412 73.309029 -82.786148 20 1
32.910545 162.055390 -6.789244 11 1
26.726032 164.805500 -18.940348 10 1
-52.899216 126.308590 29.768375 18 1
79.161072 143.321750 -18.652163 5 1
-47.624187 172.355070 -41.091862 3 1
55.782467 165.633880 -9.880287 5 1
2.633281 71.663506 -62.366016 23 1
-46.940903 137.167280 -69.150986 3 1
-1.769793 12.412291 1.556432 0 0
21.043381 80.155853 -41.996273 0 0
64.571953 176.449070 -5.793855 6 1
-52.289711 124.614940 13.013349 19 1
-62.529999 181.454390 -7.267988 4 1
-37.722347 116.139920 45.108574 17 1
-5.407921 97.615273 0.886671 16 1
-42.724716 161.524990 -58.497463 3 1
94.037956 130.811390 -18.551308 5 1
43.028622 142.577620 22.513294 9 1
-59.240917 123.657230 7.178948 19 1
2.224404 131.680360 -2.099703 0 0
-38.929028 154.025360 -65.150009 3 1
50.679310 154.445540 11.984765 7 1
-49.780430 183.490590 -20.059378 3 1
-61.748978 115.502900 -2.464319 19 1
-65.792297 117.276820 29.298622 18 1
29.859436 159.859970 -27.689642 10 1
-7.151112 179.652330 13.459081 14 1
42.024582 149.037030 -24.166290 11 1
-81.165192 182.293140 -15.797279 2 1
3.094816 152.381680 -6.865240 0 0
-3.599401 158.389630 -7.136944 0 0
-82.947662 160.551800 -28.546936 2 1
-57.326263 163.158520 25.893049 4 1
39.214436 169.397370 14.454377 8 1
31.403172 140.734630 24.521568 9 1
-52.276718 180.901730 -9.162791 4 1
-57.984280 122.966670 36.666611 18 1
-50.697346 125.671590 19.456465 19 1
-12.786567 37.727978 18.020908 1 1
-63.338669 159.684770 -50.600365 3 1
-62.616024 139.825330 32.914215 4 1
-40.585106 183.507280 -42.756851 3 1
59.466110 160.358640 -12.324272 5 1
-17.277021 131.089260 -5.779521 0 0
-54.619358 181.419910 -29.490818 3 1
76.278694 161.091260 2.551624 6 1
-63.989162 93.430092 -5.521102 19 1
-55.202293 141.897480 38.842182 4 1
-26.792084 33.705975 -4.217852 12 1
23.238485 154.643310 23.642246 9 1
27.858471 145.466370 27.043348 9 1
67.515755 155.265470 -23.714409 5 1
47.630203 155.591250 10.076190 9 1
42.656376 162.012910 -11.731717 11 1
82.903778 131.084760 -24.019539 5 1
-6.163450 94.608528 6.240346 16 1
-8.407864 40.383991 9.576242 1 1
-1.354730 0.841650 -1.995888 0 0
-46.463650 181.914000 13.688937 4 1
29.297953 154.757520 -13.208788 11 1
63.772991 138.660230 28.701836 7 1
37.180832 160.129120 -16.738232 11 1
-0.585480 117.920460 -5.542919 0 0
-54.914185 123.516300 2.266795 19 1
54.048622 162.386780 5.539265 7 1
-26.324835 106.421910 14.960237 0 0
71.237587 149.669250 -24.695759 5 1
-25.648373 116.494560 53.603230 17 1
-81.096230 173.306020 -28.024006 2 1
-50.666916 172.726720 21.736355 4 1
45.962578 158.140900 25.096199 8 1
61.490738 161.357380 -0.663333 5 1
51.469296 180.795260 -2.563907 6 1
-50.975323 163.265150 -49.356766 3 1
-41.762280 145.343020 -70.997993 3 1
-48.524765 184.210340 -15.012465 4 1
27.196394 113.791610 -37.591228 11 1
83.545059 133.681980 -21.366360 5 1
3.167881 82.413895 -58.094330 23 1
-79.355827 174.391170 -31.295958 2 1
-88.207329 158.924330 -27.668518 2 1
0.511622 48.395374 -2.182839 0 0
39.370590 134.525390 23.398527 9 1
86.369408 127.836830 -23.648445 5 1
66.256042 160.426300 -20.761431 5 1
71.010635 160.122010 -0.035032 6 1
63.669189 154.087300 15.598616 7 1
-0.819216 37.181240 -1.432589 0 0
-56.792000 118.777310 12.068299 19 1
81.851700 161.075650 -8.719091 6 1
-45.116459 150.946330 -63.221981 3 1
-54.840542 121.905440 5.719586 19 1
-28.878878 122.327450 49.590977 17 1
-0.797908 86.448837 -3.815590 0 0
-53.354122 135.977970 -69.163773 3 1
-57.692802 150.464310 32.159355 4 1
-49.970387 131.948040 28.016834 18 1
24.403778 86.150070 -50.133266 0 0
31.720385 162.916210 -19.665401 11 1
-81.681786 180.148730 -18.492739 2 1
-63.200645 100.981860 2.729423 19 1
51.821171 157.367430 -6.970874 5 1
77.876808 163.427140 -3.397767 6 1
-4.866365 80.054680 2.685045 0 0
-21.691027 127.073230 50.624634 17 1
-34.686832 119.678590 48.000538 17 1
-87.096191 159.453280 -14.131208 2 1
-6.050138 87.436142 0.641888 16 1
26.961422 152.504290 -14.613166 11 1
33.043278 151.154210 -22.415066 11 1
-48.885689 144.916660 -65.031792 3 1
31.723789 155.943280 -18.452333 11 1
27.366978 174.204540 8.984583 8 1
-42.815819 186.881560 -6.432004 4 1
41.644287 91.852623 -68.539009 20 1
-43.281380 132.808230 -72.320618 3 1
46.069195 85.240211 -54.856659 21 1
-0.924927 60.167229 -5.230499 0 0
-42.704262 176.935060 -48.917614 3 1
-2.533116 47.058949 -0.380612 0 0
-30.152922 130.746630 36.715130 17 1
-11.318712 36.120018 4.261037 12 1
29.269737 160.993010 -9.522024 11 1
47.524708 163.117520 -12.770160 11 1
-25.563763 105.556660 11.353937 0 0
3.419225 102.527540 -0.811713 0 0
-43.350342 132.475490 15.815646 19 1
3.660303 155.910750 -4.318537 0 0
-50.748623 128.950230 11.055202 19 1
65.296112 153.505330 9.945042 7 1
22.841919 149.569030 -16.627453 11 1
-6.792390 38.130280 19.431910 1 1
-6.259783 40.763062 13.547838 1 1
-46.060097 186.628520 -2.594510 4 1
-51.769234 160.118530 27.648218 4 1
25.136101 178.155880 -11.437403 10 1
36.100460 161.842000 -11.291952 11 1
-3.304792 154.011610 -4.070442 0 0
57.220318 156.955380 3.056674 5 1
57.426624 166.449010 -2.696741 5 1
-31.073185 153.823500 -9.739978 0 0
-87.642174 157.254970 -31.385267 2 1
25.475197 167.747570 -4.674438 11 1
61.360397 143.730930 26.385174 7 1
37.638714 156.753650 -21.723024 11 1
-59.242569 177.478620 -38.785622 3 1
-64.595512 112.011650 9.011240 19 1
77.814606 146.919140 -8.274170 5 1
32.245716 161.424040 -2.360692 11 1
-9.533502 84.249733 2.033263 0 0
-21.660555 103.733590 11.994317 0 0
38.505058 132.750310 -35.185406 11 1
39.121315 131.427980 19.609482 9 1
29.002874 96.287827 -52.561928 23 1
-41.089832 189.003070 4.240453 4 1
31.917679 97.300461 -63.356361 20 1
42.199387 162.547610 21.096613 8 1
43.217186 159.038570 -19.942125 11 1
-56.743782 155.164950 -57.196785 3 1
-9.634390 39.512627 -5.637537 12 1
-23.928350 28.854359 -11.521029 12 1
-9.798229 171.229450 -10.358518 13 1
51.469700 82.790588 -53.925148 21 1
3.227803 90.495415 -2.114779 0 0
0.251116 82.936447 -53.326229 23 1
-1.951903 7.028642 -2.003279 0 0
15.709928 88.663078 -59.700035 23 1
31.188240 91.319046 -68.758743 20 1
33.645737 154.730640 31.001429 8 1
41.163834 141.939250 -31.081011 11 1
-48.895237 165.561050 25.505573 4 1
-28.343687 112.015520 48.826229 17 1
54.710526 150.158550 27.780584 7 1
73.861549 169.899460 -8.769669 5 1
-45.253365 178.695020 15.761158 4 1
-5.547772 169.463520 -3.604229 0 0
-61.333321 168.145100 18.334936 4 1
-1.137631 39.771038 9.613048 1 1
29.708677 162.166110 25.957655 8 1
-64.576607 181.191680 -17.560162 2 1
-61.016003 170.274050 -49.122307 3 1
70.595253 139.273330 -27.844900 5 1
-89.061501 156.646530 -23.585495 2 1
77.772621 158.232710 1.351953 6 1
75.504608 148.319810 -15.000381 5 1
72.959183 167.742320 -2.554428 6 1
-2.608126 6.178312 1.244432 0 0
-16.785019 134.255130 -3.707397 0 0
61.329273 134.723560 36.432270 7 1
68.005585 129.347560 32.009552 7 1
-16.360332 38.236134 15.384881 1 1
-58.978886 177.930050 10.175297 4 1
-61.840485 145.788410 30.707441 4 1
-80.940689 164.728380 -22.968008 2 1
-79.594078 178.609530 -24.760422 2 1
-57.624481 182.792760 -3.465134 4 1
-36.799122 133.098460 25.131681 19 1
-72.466835 186.511220 -14.221177 2 1
-1.172891 58.717239 -1.075651 0 0
-17.219025 133.500410 -10.230872 0 0
17.865082 163.015870 -1.409127 0 0
20.725340 123.779500 -35.519196 11 1
13.298147 94.368950 -52.561073 23 1
-26.653255 110.737350 54.184792 17 1
29.120174 133.946850 -30.679436 11 1
92.902229 119.252740 -22.196171 5 1
-68.608994 120.365810 27.606798 18 1
4.210823 73.113014 -67.290192 23 1
-0.689820 160.537260 -6.012253 0 0
23.031799 169.890000 16.049673 8 1
-61.116089 154.378270 27.708372 4 1
53.670467 72.351311 -46.587723 21 1
39.603043 87.107101 -72.290268 20 1
76.240913 152.617390 -6.029680 5 1
55.467636 161.471470 -16.022360 5 1
-48.437347 155.664110 -59.339100 3 1
24.673897 126.549420 -3.267748 0 0
69.960815 145.409820 -22.699509 5 1
-42.928200 181.506130 -30.927107 3 1
30.758175 160.427170 10.545169 9 1
51.162205 79.576126 -55.101414 21 1
-52.140640 159.888110 -54.745327 3 1
31.876886 161.419600 -16.564344 11 1
-92.816322 158.387370 -17.478933 2 1
-58.366371 123.489690 -3.242136 19 1
69.475731 151.115450 -14.190146 5 1
86.302643 146.353360 -18.825970 5 1
-54.733097 183.087460 -17.470556 4 1
63.512623 171.413190 3.651017 6 1
-63.151394 118.582330 7.916052 19 1
-62.971020 115.606650 12.669767 19 1
-46.248775 187.315840 -9.778826 4 1
54.043510 69.668449 -51.487247 21 1
-56.970211 168.857500 21.115795 4 1
-24.096962 129.989780 45.196808 17 1
-68.648239 170.193330 11.766668 4 1
-84.876366 175.329100 -16.746515 2 1
80.811020 148.678390 -19.818254 5 1
77.339600 133.763500 -24.960318 5 1
-38.809299 172.595000 -16.384876 0 0
50.876831 167.033070 -16.229404 5 1
56.991001 165.007260 -13.102413 5 1
21.473843 166.442930 2.080176 11 1
-84.322296 164.173050 -31.609770 2 1
37.966835 155.338090 24.502686 8 1
-56.858746 178.020080 -3.227245 4 1
38.296986 146.920380 21.623550 9 1
38.878986 89.177032 -57.384735 21 1
3.357181 45.770748 10.794786 1 1
54.029194 77.837036 -40.566753 21 1
1.133460 74.387253 -0.254349 0 0
63.724735 128.493650 37.088741 7 1
4.544524 98.802940 -4.552412 0 0
-55.475079 179.371340 -19.569153 3 1
91.972610 133.374880 -20.980482 5 1
36.984711 163.103090 5.199115 11 1
52.341206 158.760090 -10.439906 5 1
4.087330 59.943951 -8.798214 0 0
-48.156242 128.938290 33.126034 18 1
-6.728284 177.687770 -0.258151 15 1
-47.106930 169.154480 29.057072 4 1
-65.181633 184.999420 -20.378372 2 1
68.687553 133.128510 29.141703 7 1
-58.211437 172.448430 -33.011147 3 1
-43.851048 172.318310 -53.087460 3 1
27.495371 94.545441 -65.159897 20 1
65.475281 149.391540 -20.891500 5 1
-52.322422 178.224900 -24.787174 3 1
24.292063 170.539510 -25.270267 10 1
-44.274857 173.680570 25.058491 4 1
-42.538811 188.608810 -29.962519 3 1
84.821503 139.573700 -17.957663 5 1
-82.953857 164.160630 -16.722534 2 1
61.176552 157.235720 13.115479 7 1
19.152548 79.829567 -36.742359 0 0
60.741043 125.009410 42.026085 7 1
-40.840797 172.470730 -49.051273 3 1
-0.630700 67.981056 -0.240149 0 0
1.376676 139.557080 -6.089620 0 0
-51.622059 163.113830 24.798239 4 1
-10.147871 36.126938 22.442999 1 1
22.786413 125.764650 -32.227741 11 1
26.954508 161.634460 -17.505032 10 1
-52.289726 146.105910 36.332607 4 1
-0.267079 142.076130 -3.123554 0 0
-57.687912 159.923690 27.401154 4 1
-65.817825 171.401400 3.244599 4 1
59.224396 174.628020 -5.209548 6 1
-53.852108 160.705610 -58.717796 3 1
74.623543 162.838880 -15.798979 5 1
60.600182 157.216080 -26.872574 5 1
41.481945 157.852480 7.571741 9 1
-41.910522 121.094600 41.766052 17 1
27.463633 172.025470 15.341633 8 1
-63.109070 166.911120 14.187847 4 1
-46.648491 160.023770 -62.115376 3 1
42.262100 156.386830 28.555866 8 1
-7.722751 95.099861 0.156833 16 1
17.922304 162.999470 -16.361952 10 1
75.747437 165.146670 -13.588135 5 1
50.960468 77.092957 -49.773048 21 1
-22.980316 123.034450 52.185734 17 1
-66.842682 112.378140 39.074554 18 1
81.671875 150.779130 -6.009663 5 1
44.859798 89.341293 -48.416126 21 1
-40.913868 182.978790 12.283008 4 1
40.967445 149.196730 -28.609465 11 1
55.725773 135.222020 40.028034 7 1
40.825497 166.508210 17.709564 8 1
-54.150074 125.476210 33.590057 18 1
42.089657 169.653660 9.804927 8 1
67.993256 121.793180 37.294830 7 1
-62.303131 174.700360 -36.073002 3 1
-31.170679 115.868990 44.573128 17 1
-34.987011 116.856520 18.963772 0 0
57.823627 160.917070 -6.215800 5 1
70.427597 154.074460 -22.659304 5 1
8.823449 66.765442 -14.836878 0 0
-42.340946 122.130610 -77.292969 3 1
-41.574440 130.735080 26.648005 19 1
-55.959145 183.435260 -8.689476 4 1
-38.743088 183.370130 -38.460236 3 1
80.621819 147.565280 -6.038453 5 1
-47.199581 173.438370 20.685242 4 1
49.759216 85.631653 -42.156780 21 1
36.977844 141.056030 25.091948 9 1
29.892305 153.747450 -36.600895 10 1
-34.218887 131.448580 37.486309 17 1
0.644123 146.143590 -5.759193 0 0
26.127537 159.366030 -20.566404 11 1
-57.339336 146.170530 34.955959 4 1
37.510715 170.760880 5.284174 8 1
46.404701 81.404846 -76.154060 20 1
-48.912792 180.184300 -35.376244 3 1
34.945488 145.043150 26.359432 9 1
-1.944177 25.086739 -1.694826 0 0
-49.767010 125.889080 15.640935 19 1
36.363632 150.187190 34.715076 8 1
-2.291331 53.818539 -4.437945 0 0
-56.806175 163.539280 -46.852425 3 1
29.077091 174.476270 -3.396104 10 1
-17.930542 105.429520 57.887070 17 1
13.266302 86.392662 -61.366516 23 1
34.090481 157.913540 10.569134 9 1
24.728243 163.301760 -7.419321 11 1
-1.689916 123.541460 -4.151661 0 0
47.783463 157.206800 -22.725956 11 1
-61.400063 105.624820 -4.041301 19 1
61.551571 137.234880 32.285488 7 1
-46.687809 165.587920 33.072983 4 1
-22.017870 144.079740 -8.813765 0 0
46.359417 153.789810 23.849560 8 1
71.387505 163.332570 -17.513046 5 1
51.020912 175.853350 -2.647666 6 1
-3.482533 85.076370 4.106008 16 1
-24.743025 105.937090 55.529583 17 1
-32.815235 130.194750 42.830860 17 1
82.414162 142.083770 -17.695290 5 1
1.838474 93.143616 -5.078505 0 0
-62.647652 164.467090 -47.337872 3 1
36.262253 148.297090 -21.298439 11 1
55.887501 163.061370 2.555337 7 1
57.295647 137.626370 37.574512 7 1
40.980282 149.161270 32.852962 8 1
-54.185005 173.733080 12.617783 4 1
-60.122829 171.897630 4.555959 4 1
-29.194071 137.320110 35.605831 17 1
-65.040161 111.063590 2.066144 19 1
-51.026215 170.352890 24.000759 4 1
12.958565 93.373672 -48.682781 23 1
38.118614 151.693850 -17.836971 11 1
-41.850883 128.157060 -74.688179 3 1
31.231585 156.319200 26.964579 8 1
33.764683 91.583778 -72.714020 20 1
-44.609337 185.043470 -11.890983 4 1
22.491240 129.874280 -33.758450 11 1
-46.441772 183.129910 10.453446 4 1
-19.588377 120.886670 50.637890 17 1
-42.358620 119.885150 47.268501 17 1
-77.205765 168.656450 -25.184593 2 1
-57.059441 118.067790 0.560410 19 1
47.994938 159.574710 21.096596 7 1
62.705971 159.254460 10.118207 7 1
-45.165718 127.889440 16.271517 19 1
-82.596413 178.091640 -12.737973 2 1
-64.413002 174.947390 11.116237 4 1
19.039339 93.751099 -56.804886 23 1
40.698784 175.674030 -3.613132 6 1
65.367363 151.987820 -26.576029 5 1
-84.015587 159.787690 -34.804611 2 1
56.003696 151.713580 25.184101 7 1
-25.774746 37.731655 0.459441 12 1
-44.729496 184.258990 -22.123335 3 1
67.177628 148.752810 16.818649 7 1
10.043807 66.460442 -20.171211 0 0
-90.845062 168.554860 -11.817206 2 1
-62.054142 119.591190 36.326908 18 1
33.498161 92.749260 -52.337048 21 1
26.425121 149.533250 -16.755625 11 1
-57.286766 123.130590 44.164574 18 1
44.801411 165.703990 10.081631 8 1
25.454092 150.872670 25.173578 9 1
-49.481419 164.606020 30.428707 4 1
87.648949 137.654690 -21.217270 5 1
-51.287258 180.103010 -17.769081 4 1
19.315022 166.426440 -13.494639 10 1
-12.927641 36.981922 -10.164468 12 1
-3.110869 67.796867 -60.184624 23 1
13.442263 70.323051 -25.988358 0 0
62.618744 166.680510 -10.534859 5 1
48.690750 83.233688 -56.123081 21 1
27.447378 144.153030 -25.280214 11 1
0.787407 125.765530 -6.776665 0 0
-2.184297 112.049790 -0.415878 0 0
-23.601917 119.148180 53.868866 17 1
77.118584 146.433320 -22.775854 5 1
-0.036148 31.194857 -0.907956 0 0
-29.304169 151.096100 -9.370590 0 0
58.501251 174.957960 2.814926 6 1
77.078087 140.569150 -25.058268 5 1
0.041164 42.148140 12.766785 1 1
-2.252592 43.563183 -3.648036 0 0
-1.704837 38.571480 5.341211 1 1
36.108974 93.471687 -68.129189 20 1
-44.086327 142.690800 -71.025085 3 1
-94.880241 152.247270 -16.269878 2 1
2.427471 64.766006 -4.132660 0 0
56.989292 152.814090 12.553615 7 1
68.139618 169.937520 0.155477 6 1
31.155306 172.196430 -2.302412 11 1
-59.192562 120.456530 27.242334 18 1
-58.952976 125.273590 31.909725 18 1
-15.373094 39.647118 10.910906 1 1
63.812038 141.640010 25.896406 7 1
1.353118 70.235489 -65.135582 23 1
-45.060776 185.679520 -26.152498 3 1
-91.273956 153.042050 -25.521370 2 1
-3.778155 164.185790 -7.797512 0 0
-4.392513 39.493366 -5.541777 12 1
-49.248985 140.564220 -69.593697 3 1
-53.219086 127.250980 8.241662 19 1
89.903564 147.295620 -15.009118 5 1
83.746696 158.183090 -14.262502 5 1
28.414228 156.888240 14.833984 9 1
-78.443382 184.876420 -16.140005 2 1
-53.544392 130.814820 22.321695 19 1
55.097576 166.256290 -15.790716 5 1
47.704742 180.025500 7.868801 6 1
36.859547 146.268070 -0.765169 0 0
-36.388336 182.867750 -42.739727 3 1
54.694984 67.425911 -48.255001 21 1
68.672813 140.120710 23.498035 7 1
-3.805488 41.707489 18.568724 1 1
-56.045235 155.635010 -60.351013 3 1
54.530609 178.760250 -7.213510 6 1
43.793907 90.009094 -51.916454 21 1
11.528607 149.498900 -5.266108 0 0
-4.112508 171.086880 8.858729 14 1
31.696636 157.937090 -30.348467 10 1
19.688599 95.431931 -54.109093 23 1
-4.756795 110.563620 -1.823376 0 0
37.161861 143.672420 -28.063129 11 1
-42.786404 149.184780 -65.135216 3 1
19.098587 146.244720 -20.625834 11 1
-41.239697 124.702030 22.500845 0 0
29.629269 142.022080 26.935337 9 1
56.675991 174.163890 9.655573 6 1
-0.411651 103.104970 -2.198787 0 0
23.449512 171.011340 -8.757160 10 1
65.592804 155.756010 -12.786895 5 1
25.325129 91.714294 -82.731186 20 1
-0.234355 87.026009 -52.761932 23 1
51.351562 154.357450 25.783855 7 1
52.413994 140.558490 38.163921 7 1
-13.861134 101.832250 58.994896 17 1
-71.327690 184.835750 -24.540703 2 1
-80.544319 166.132540 -18.484734 2 1
1.098094 53.439869 -1.952749 0 0
-52.492073 130.360110 30.725267 18 1
60.894257 157.266980 -16.874453 5 1
8.331347 82.642334 -58.696983 23 1
26.951565 160.175570 -30.101826 10 1
-16.516821 37.506073 -18.637756 12 1
-64.123985 171.183330 9.506634 4 1
16.815845 165.123200 0.957224 0 0
9.365446 88.349785 -49.634434 23 1
4.368691 62.699486 -12.178302 0 0
-58.285637 132.451690 40.555538 4 1
42.795486 158.920350 25.519205 8 1
37.798996 84.802475 -74.612686 20 1
-71.276009 185.735260 -21.387846 2 1
66.022278 154.083220 13.106608 7 1
3.206356 78.371567 -57.364349 23 1
-40.431595 127.659260 35.257748 17 1
-3.870493 184.286350 1.217320 15 1
55.219841 155.375310 21.228867 7 1
-18.451063 36.258961 -10.289808 12 1
-86.477867 164.301740 -25.892735 2 1
82.373909 155.832470 -16.702583 5 1
-56.586918 126.664370 -0.845135 19 1
36.509769 132.092480 24.285673 9 1
51.115669 182.709210 -5.394393 6 1
34.654186 137.168960 -34.063805 11 1
-44.926926 132.279540 11.799833 19 1
-78.059875 179.528560 -27.433840 2 1
-39.930157 171.111420 -51.885323 3 1
1.584127 136.741230 -1.685747 0 0
-44.748905 163.286820 34.206436 4 1
-47.798164 163.833860 -53.749245 3 1
-69.664948 111.393400 37.307796 18 1
-73.238190 105.155580 33.104572 18 1
-51.593052 136.431580 40.520874 4 1
37.457573 143.303740 22.505777 9 1
-47.907307 178.656710 -40.250122 3 1
35.852524 143.398830 -3.065494 0 0
70.078812 167.311480 -13.605406 5 1
-9.427008 35.455406 0.236393 12 1
-33.161335 162.833590 -12.021248 0 0
32.505074 149.708720 -16.606607 11 1
-61.963310 164.343750 -52.340565 3 1
35.833542 164.760190 21.671337 8 1
90.556839 135.456210 -17.626036 5 1
-13.139511 39.119511 -7.700860 12 1
-23.336117 140.535340 -8.138018 0 0
51.299618 174.926560 7.069551 6 1
-59.435699 128.650510 23.727598 18 1
41.507217 144.528630 -29.003481 11 1
1.513027 85.260239 -0.353737 0 0
-27.410303 147.386920 -9.125276 0 0
37.204006 81.438835 -80.261444 20 1
29.207100 94.154236 -61.738487 20 1
42.293835 139.403460 22.319216 9 1
32.822933 97.377144 -56.954384 20 1
-74.382309 99.720757 35.785477 18 1
-0.727064 94.952446 -4.471710 0 0
-95.592361 147.061080 -17.141531 2 1
-91.783882 160.083980 -9.159226 2 1
-44.191143 173.374530 -43.765068 3 1
8.724438 81.282967 -64.408730 23 1
0.382555 109.437550 -2.817804 0 0
-12.846955 40.963081 -14.512978 12 1
75.197563 144.883730 -19.955021 5 1
-43.416901 128.704740 33.578148 17 1
-6.705027 180.792430 0.540115 15 1
2.490625 77.237869 -3.617618 0 0
14.365504 91.369652 -58.454304 23 1
-58.295330 169.083110 14.089514 4 1
-62.737804 158.278490 -54.144348 3 1
-5.227203 39.981159 7.643591 1 1
-62.883675 102.336850 -9.270413 19 1
83.979073 150.625550 -10.324140 5 1
-42.223831 186.796780 11.087999 4 1
49.789261 151.124480 26.828518 7 1
-61.965618 180.558610 0.258489 4 1
