-7.398774 30.065243 -27.749941 1 1
-14.471794 127.525120 -46.256077 4 1
19.760641 117.485510 44.874508 19 1
17.182486 101.462820 74.611908 16 1
26.299110 119.853710 -59.643330 6 1
27.475084 123.157300 -54.620197 6 1
-24.941351 137.618210 -50.388302 3 1
-15.992952 125.584780 0.947544 0 0
-26.077850 141.084340 -33.085587 3 1
-5.982040 124.592200 19.229959 18 1
1.560162 136.793000 -13.138194 11 1
47.950108 87.749847 -11.776546 15 1
32.966324 121.442980 -43.557850 6 1
-11.478733 130.159060 1.366198 0 0
-15.545247 117.668410 57.139526 16 1
30.123369 79.139923 -5.597299 0 0
-3.369671 94.141975 -11.166591 0 0
-28.627781 121.403590 -58.978806 3 1
-50.403370 93.546265 -4.987964 10 1
5.817651 134.080000 -15.006299 7 1
-8.778215 132.726810 33.063225 17 1
2.688982 40.908981 7.803664 12 1
-16.220978 107.333790 -93.994293 2 1
-45.817936 90.127846 -9.063916 10 1
15.651943 134.867250 19.418474 18 1
30.938759 113.081810 27.895443 19 1
-30.845623 136.783920 -28.886238 3 1
-24.716047 115.977230 26.830957 17 1
-22.804255 141.732060 -28.449335 4 1
-17.006189 33.832478 21.811424 12 1
-20.470182 96.090950 33.454628 17 1
11.200096 136.048950 -31.003834 4 1
-50.969982 88.958328 18.309845 9 1
-36.881557 116.501540 -37.129875 3 1
-0.124618 49.981339 -2.570766 0 0
-13.139242 125.992150 -79.109901 2 1
-33.722603 132.014890 -36.205898 3 1
-10.889680 129.359240 21.560616 18 1
20.290661 127.226960 35.958969 19 1
37.545956 116.910510 -41.350849 6 1
-2.321436 101.512790 66.539200 16 1
42.329491 79.810867 23.681568 14 1
9.399941 119.347560 65.911453 16 1
49.430969 89.292656 9.714788 14 1
46.256756 95.356735 -0.074802 15 1
2.753307 94.756905 -10.279917 0 0
7.063527 129.040270 -64.702721 6 1
18.691011 99.363846 38.421120 19 1
5.922950 125.559180 43.084637 19 1
56.394730 74.233696 -13.464755 15 1
22.046583 128.163450 16.107943 18 1
30.901562 115.351540 -57.867561 6 1
0.037604 34.774132 -7.155927 1 1
-58.548244 94.655228 11.468946 9 1
13.156239 122.129300 -55.560200 6 1
-27.921410 137.575910 -3.738976 5 1
-5.561099 135.479250 -71.085464 2 1
-10.558677 143.044390 -55.231396 3 1
19.462538 96.227509 42.970646 19 1
47.909649 85.429077 14.611690 14 1
-1.575632 125.307690 14.713482 18 1
45.613277 70.503311 -25.837709 15 1
4.899044 59.960201 -6.109821 0 0
7.007521 127.987050 51.604939 16 1
-26.924150 141.086170 -7.181454 5 1
-80.201965 73.171280 7.096693 8 1
8.034304 91.081810 76.339378 16 1
5.594234 115.354810 27.964966 18 1
1.665723 133.025090 -25.907986 4 1
4.638646 123.132740 13.538651 18 1
43.973488 86.966064 -19.320618 15 1
-0.930064 109.172710 -94.040863 2 1
40.134426 85.687134 4.587572 0 0
-10.358537 107.603320 65.080246 16 1
-73.164742 86.751312 4.982104 8 1
-61.406971 86.790894 -17.314871 10 1
23.245117 129.337510 -35.443817 6 1
24.758276 76.885330 -6.244100 0 0
24.103216 125.748410 -58.768692 6 1
19.276207 131.230240 29.864475 19 1
-0.129072 60.093426 -8.591311 0 0
-5.557150 37.108181 -17.020971 1 1
-20.252487 125.661910 27.240965 17 1
-53.498451 88.479088 15.670021 9 1
68.518082 81.261490 -14.176672 13 1
-2.148340 81.133972 -5.491157 0 0
28.206795 127.381260 -33.087193 6 1
37.166515 118.394110 -36.419720 6 1
-3.335816 90.074425 -99.913795 2 1
-4.404202 119.975770 -4.682104 0 0
1.426452 128.919830 -62.066811 6 1
-0.262375 134.536500 -6.935025 7 1
44.509895 79.670982 -19.467569 15 1
2.362649 130.249330 -7.747790 7 1
-3.053905 67.937767 -6.196360 0 0
-83.040070 74.505127 -10.111106 8 1
-14.416694 145.778820 -36.638130 4 1
-10.779327 41.006298 -13.265489 1 1
12.903842 134.673480 57.440792 16 1
48.991421 79.309982 -20.295862 15 1
-35.257629 102.483050 -50.860287 3 1
-58.860020 98.505203 0.751817 0 0
-35.792263 128.665920 -37.940559 3 1
-1.971130 118.954620 -84.741516 2 1
-54.384319 86.096992 -12.492910 10 1
-15.798732 109.463480 61.132610 16 1
-2.455451 126.343250 34.491753 17 1
2.518064 131.513150 -51.773754 6 1
-12.677186 137.110460 -9.850283 5 1
55.140362 73.533623 -17.726971 15 1
-6.223424 35.760357 26.558510 12 1
25.775908 111.239750 -66.606934 6 1
-61.793030 83.845299 16.085569 9 1
16.501040 123.323230 -50.096596 6 1
-51.111404 96.177185 8.961075 9 1
7.251031 138.066830 30.691626 19 1
10.549392 111.609610 43.765217 19 1
47.635105 91.772964 -14.313108 15 1
9.551808 110.086300 -95.494278 2 1
21.404947 120.627940 -63.515854 6 1
45.204853 79.682480 21.596474 14 1
5.714350 124.049510 -63.479252 6 1
40.029671 89.113251 15.201543 14 1
-7.673054 40.251801 10.560536 12 1
-30.498999 129.963210 -53.364677 3 1
11.649830 133.700300 -8.473876 7 1
16.424429 126.602460 -45.555496 6 1
-76.624725 82.360428 11.779646 8 1
-45.262360 96.464417 -12.241462 10 1
-19.791950 105.666310 30.634211 17 1
-77.312393 79.066216 6.198259 8 1
-62.419762 92.840668 10.820875 9 1
-18.018339 128.947430 -59.910625 3 1
17.676044 116.049640 -90.541763 2 1
-6.099311 37.497837 21.807583 12 1
2.342212 40.846050 -8.828719 1 1
-38.605759 101.381200 -49.151264 3 1
3.698876 37.399490 -21.541302 1 1
2.217038 115.785590 65.035965 16 1
-19.499483 116.344270 -88.647034 2 1
76.318939 66.021179 -19.742323 13 1
74.539917 70.999825 -6.928712 13 1
51.637421 67.920517 7.196806 14 1
-14.172712 41.699326 -0.114185 12 1
37.486786 104.513370 -56.528885 6 1
28.566563 91.530624 37.723309 19 1
-74.884972 88.803513 -5.347940 8 1
-1.316411 140.276580 -70.489639 2 1
-9.150303 125.068120 -6.790004 0 0
18.723183 120.724590 -51.746544 6 1
7.523611 113.291230 61.925186 16 1
-13.266125 100.393750 39.928551 17 1
-10.734735 35.646984 18.456285 12 1
52.330639 73.197159 -19.920221 15 1
12.854515 132.358030 38.808502 19 1
12.410053 130.219020 62.266628 16 1
20.691887 124.819400 15.596984 18 1
65.522247 81.401772 -19.753399 13 1
12.011748 138.976580 25.106436 19 1
-13.607653 113.026740 58.050655 16 1
29.922518 121.890850 22.313816 19 1
-7.375914 109.528690 2.337749 0 0
11.326871 133.733840 -15.224649 7 1
-26.230791 108.515310 21.935408 17 1
-0.657095 110.255850 1.950432 0 0
-4.691744 130.372160 -30.259165 4 1
34.573753 121.455260 -32.852276 6 1
-40.899963 119.297800 -39.670067 3 1
40.967495 92.312675 -16.424847 15 1
41.928707 74.175400 24.506195 14 1
-76.545052 86.923691 0.173946 8 1
11.415771 102.223360 74.605011 16 1
40.858849 87.351013 -9.848185 15 1
-22.836571 145.325810 -31.207336 3 1
-2.529147 40.577553 24.208920 12 1
56.256924 82.014816 3.070793 14 1
-58.325272 83.964424 -16.667236 10 1
-0.676713 42.313789 10.597815 12 1
-8.649459 99.412720 66.816498 16 1
-48.950035 87.157234 -11.393573 10 1
-1.882688 116.773340 57.104965 16 1
2.887972 141.631680 -66.826530 2 1
25.892351 134.672780 -38.338139 6 1
29.416664 112.280880 33.280380 19 1
6.188287 116.481530 17.654408 18 1
-6.942289 117.237640 44.622841 17 1
-8.831385 139.219470 -19.893093 4 1
-6.469747 105.714130 44.510132 17 1
8.718130 133.330580 -36.091648 4 1
11.598245 109.654000 66.273582 16 1
3.767398 98.299133 -97.815460 2 1
5.177691 103.571760 -94.080933 2 1
-8.964276 122.719020 52.604565 16 1
-2.671511 125.791450 -82.792641 2 1
-31.041065 133.548710 -26.889423 4 1
-11.619346 132.834930 -2.596539 0 0
-20.352974 100.585050 32.601505 17 1
5.177374 114.523910 -89.203033 2 1
3.913977 131.042760 17.277201 18 1
-51.037430 88.615746 -6.806670 10 1
-42.058319 122.131390 -33.775730 3 1
0.614531 27.811846 -25.720291 1 1
1.984082 125.897410 14.639778 18 1
-56.234451 91.363014 -4.709244 10 1
2.939651 134.404370 -3.899493 7 1
-57.917645 66.975594 15.783014 9 1
-37.989731 118.545040 -45.436180 3 1
35.865540 115.168140 -49.242485 6 1
-18.444162 121.250070 31.902678 17 1
-0.899938 132.851390 41.278877 17 1
-3.970108 94.992546 -7.331117 0 0
-52.178467 82.183891 -21.361160 10 1
-13.573105 140.312730 -67.071831 2 1
9.140586 141.804200 -35.493099 4 1
57.308598 79.258537 -13.148266 15 1
41.975418 74.919884 18.322847 14 1
8.024313 126.180630 -54.882565 6 1
-9.902386 124.096790 -80.681023 2 1
-55.391190 98.689384 5.243460 0 0
-0.071370 71.131470 -7.801412 0 0
-8.675129 133.544080 -25.399837 4 1
-73.852516 90.088982 3.906237 8 1
-31.930569 133.444560 -41.830589 3 1
19.115423 115.733450 19.290077 18 1
16.102211 114.281530 47.991848 19 1
6.423681 122.592240 -83.539436 2 1
17.664259 137.863110 -30.609888 4 1
-58.166996 84.901512 12.664554 9 1
29.890369 120.181080 25.247765 19 1
2.294593 124.822800 59.229366 16 1
70.669403 75.995987 -10.961235 13 1
2.660014 89.003975 75.866348 16 1
-57.601868 82.315247 -22.198435 10 1
-17.269041 103.954980 38.917553 17 1
4.523575 137.157640 -74.404648 2 1
-4.973339 121.964320 -30.141809 0 0
62.015213 90.872116 -2.197159 13 1
8.293196 140.775530 -71.830872 2 1
17.585281 126.036860 -82.207001 2 1
76.980049 65.929359 -15.790454 13 1
22.553030 111.975250 42.922302 19 1
-4.730263 102.532740 69.030388 16 1
-2.368379 20.813276 -0.188690 0 0
-9.232200 28.389084 24.878262 12 1
-19.906130 140.234890 -1.377318 5 1
39.386406 80.131691 -23.204342 15 1
-11.691628 117.327480 40.844322 17 1
-9.168564 38.877617 16.420952 12 1
10.774432 134.699130 52.225540 16 1
17.184469 121.531750 -87.031982 2 1
0.752679 129.431440 55.040459 16 1
-15.803173 137.416180 -0.711839 5 1
-29.797453 123.130600 -34.975639 3 1
10.527993 130.534290 -7.016755 7 1
-1.228689 8.640490 0.757183 0 0
41.867104 91.795982 12.301053 14 1
-60.055958 97.356514 -3.212572 0 0
-55.311409 78.970871 18.518076 9 1
-14.861567 132.690190 -75.401947 2 1
-0.940647 13.275053 0.499020 0 0
-14.102118 104.985320 -94.806847 2 1
-7.998080 102.678040 -92.812828 2 1
49.648819 59.393108 11.677445 14 1
-3.462745 125.006680 39.764793 17 1
-27.287304 114.024510 23.140961 17 1
-48.208565 99.230324 -8.303313 10 1
1.662674 115.348030 6.446766 0 0
-11.975204 105.174580 39.156952 17 1
6.197265 135.165560 -9.576644 7 1
-56.772427 68.014221 19.954933 9 1
-7.945269 129.077220 -47.847446 4 1
14.466640 111.197580 30.060066 19 1
-17.633032 96.734322 39.281116 17 1
9.101372 130.784130 50.014008 16 1
33.230160 116.657690 -52.744091 6 1
-3.255480 133.354930 -22.560854 11 1
-12.823174 100.417850 -96.815453 2 1
2.558455 132.002150 42.155807 19 1
76.495529 75.077576 -1.813132 13 1
-10.535558 116.708310 -85.562454 2 1
-31.896397 133.841450 -38.278423 3 1
-25.735687 105.846440 23.746618 17 1
-14.068944 131.787730 -0.014733 0 0
-5.096254 115.779200 57.320637 16 1
26.008965 122.863300 15.484278 19 1
-4.162642 96.856415 -98.048706 2 1
44.484680 87.067749 -7.619065 15 1
25.527504 113.726230 -55.970802 6 1
46.954178 66.474937 22.555794 14 1
68.211632 78.075981 -15.478062 13 1
1.065691 42.385220 -4.713460 0 0
-62.211979 75.683182 16.726116 9 1
-59.793407 89.765175 8.829244 9 1
-4.617497 134.600750 -75.001480 2 1
-2.590463 121.598630 59.631893 16 1
-54.120701 99.188950 -3.054446 0 0
7.194550 132.854320 -76.017288 2 1
-75.873894 81.874733 5.461097 8 1
53.867645 81.518234 8.985103 14 1
-22.455780 123.766980 -41.274101 3 1
6.705185 142.682620 -67.803802 2 1
1.270253 119.155240 27.847765 18 1
19.310154 111.469090 26.875603 19 1
3.022458 39.979362 -23.727350 1 1
2.673929 137.371810 -20.873079 4 1
13.535626 128.868640 -79.739639 2 1
-12.658163 39.859394 14.020379 12 1
-8.244050 131.426850 -53.833466 3 1
6.422954 105.544790 66.059456 16 1
49.515881 75.817337 -17.587238 15 1
-53.808464 90.156380 6.511656 9 1
-3.436582 141.822420 -27.820055 4 1
2.651580 94.667198 74.764694 16 1
44.998367 74.625443 -25.359144 15 1
-71.711578 88.167320 9.700426 8 1
-12.727019 135.736070 -1.713783 5 1
22.642303 139.182050 -31.609903 4 1
0.185193 53.573414 -3.264635 0 0
49.572693 75.902901 17.704937 14 1
-13.521438 141.865200 -49.812969 3 1
3.564432 110.256560 -90.564713 2 1
-19.039639 101.951070 -94.519722 2 1
77.060883 69.619797 -8.921126 13 1
-48.157188 83.469971 -25.341400 10 1
13.262771 117.790070 -87.796127 2 1
-9.529747 130.496730 -7.598629 11 1
21.174231 106.356500 43.837326 19 1
64.124947 89.872231 0.635583 13 1
16.001297 105.036550 36.711246 19 1
4.224960 141.250750 -31.720219 4 1
74.264893 74.820419 -11.024323 13 1
13.017298 111.354420 71.098679 16 1
-85.097702 66.756973 -5.578921 8 1
-1.171372 38.607105 -18.794462 1 1
45.228191 69.886971 26.785381 14 1
-26.610083 119.931460 -82.445663 2 1
-3.483554 40.024632 27.303207 12 1
-7.965659 38.415649 -23.641230 1 1
2.480301 126.702640 -82.839622 2 1
31.577391 119.971900 -50.305138 6 1
-2.551499 134.602780 47.328167 16 1
16.724874 127.311830 63.557835 16 1
8.174615 135.374240 -29.465031 4 1
20.074417 125.437490 68.666679 16 1
-72.614258 90.009079 -1.403832 8 1
-18.447231 125.164730 21.424187 17 1
-10.216228 114.925600 -90.016487 2 1
-42.164398 106.929140 -40.414146 3 1
1.386400 132.215670 -63.418835 6 1
-4.605572 140.810390 -69.611961 2 1
30.977898 103.620100 23.405832 19 1
-4.842044 84.686073 -8.427395 0 0
1.969325 126.580610 39.160576 19 1
-6.841803 101.901170 46.333786 17 1
1.778484 119.834110 55.373512 16 1
4.419677 131.751630 -4.911461 7 1
-54.211025 79.894531 -25.729248 10 1
-9.516201 36.294498 21.350651 12 1
-79.838493 85.911911 -7.999631 8 1
11.835197 129.882310 17.228739 18 1
7.724064 63.655689 -4.843858 0 0
1.419548 134.432710 -73.383255 2 1
-6.813805 123.651500 34.121902 17 1
4.628665 131.631120 -46.011650 4 1
2.163025 135.072680 43.758331 16 1
30.243910 101.444600 35.904251 19 1
3.796535 137.500210 -71.120041 2 1
45.501190 96.583931 -6.854920 15 1
-52.001480 93.893486 3.339374 0 0
25.438633 125.601420 -54.894138 6 1
7.515934 115.765880 -92.286263 2 1
18.827471 122.774560 -64.628105 6 1
-43.396793 117.754600 -36.172260 3 1
-54.468472 93.018127 16.416569 9 1
9.382329 113.251210 25.085312 18 1
-47.540192 86.029846 -22.657639 10 1
4.180800 121.317600 62.192986 16 1
-3.285559 70.845528 -7.849772 0 0
-2.256186 112.538800 6.857364 0 0
-44.789085 107.901790 -37.179607 3 1
-16.647038 133.134510 -28.294794 4 1
-57.378643 92.316277 14.981934 9 1
-4.583525 137.694150 -59.532730 6 1
-22.157610 43.211864 9.279876 12 1
-13.719690 68.918709 -2.879367 0 0
-27.127621 100.093990 29.401627 17 1
-7.149070 39.134243 -9.933943 1 1
-4.527989 132.609270 37.982376 17 1
-5.544313 125.483580 23.684731 18 1
-0.527744 111.300740 -88.476257 2 1
-55.277309 96.414360 -8.065439 0 0
-11.797938 120.509600 30.656404 17 1
21.174273 132.278700 -51.651783 6 1
24.320580 94.773033 41.090908 19 1
-6.960883 126.949930 29.611717 17 1
45.520840 70.948288 14.787174 14 1
-34.619324 132.526440 -26.591213 3 1
1.149155 134.483340 -16.676188 11 1
-7.035731 142.251920 -64.208397 2 1
-8.698216 128.189030 -34.813816 4 1
11.147129 95.345757 77.689659 16 1
37.942230 69.707115 -30.910658 15 1
-3.993145 98.352585 68.175903 16 1
-29.439884 136.816480 -37.155464 3 1
-11.593293 27.675835 22.879030 12 1
15.484248 119.213460 -57.513027 6 1
-37.725636 124.145220 -30.708014 3 1
9.478470 118.093700 -86.938156 2 1
-3.970815 119.252440 12.103716 0 0
41.287861 94.042229 -10.888721 15 1
39.695202 79.392960 21.327679 14 1
-21.442535 120.555400 -51.548752 3 1
26.384605 119.749430 -43.954788 6 1
-0.641373 86.940430 -8.210086 0 0
-50.649586 99.311974 -3.570731 10 1
-1.900812 116.785220 10.825280 0 0
-10.441957 128.789830 -50.234676 3 1
-49.510345 87.763557 23.523674 9 1
-18.249943 138.854310 -53.662464 3 1
-26.120556 95.779106 27.735016 17 1
-4.848226 100.930250 -93.375336 2 1
60.190224 88.531731 -14.575673 13 1
-53.491631 92.424973 -15.491532 10 1
-22.923880 112.214450 31.386700 17 1
-17.995583 108.153630 -91.105789 2 1
-47.531864 94.123917 -16.455053 10 1
-1.891153 111.351620 60.577026 16 1
-17.812820 130.317460 -33.781284 4 1
-70.942360 96.203957 -1.463860 8 1
-4.893229 128.458150 -9.538658 11 1
-32.081474 110.335540 -48.711105 3 1
-78.393112 77.612511 2.937645 8 1
-15.792847 116.047900 -86.091621 2 1
7.476499 107.968020 70.391045 16 1
-38.711311 112.626370 -39.769985 3 1
-21.736469 123.296460 -82.337791 2 1
31.012388 107.590630 32.189198 19 1
-11.605526 145.879900 -39.321461 4 1
-52.450516 73.693939 25.154169 9 1
-60.140221 83.298843 -19.823442 10 1
57.914371 92.770500 -15.261364 13 1
-1.580720 98.461342 -94.721313 2 1
-2.576134 109.820800 -24.822361 0 0
44.260258 83.888329 -21.186218 15 1
70.140533 81.319016 -7.385445 13 1
-2.061550 113.918760 -24.390991 0 0
57.915726 91.148224 -12.332862 13 1
52.758369 76.307770 12.698442 14 1
7.592636 143.823750 -41.780495 4 1
29.245892 91.541328 32.730801 19 1
14.498152 133.132840 -36.622894 4 1
-5.169703 39.164913 18.974735 12 1
26.379795 114.293390 38.212639 19 1
-5.940196 128.455870 -0.514457 0 0
-11.782277 104.567360 43.434933 17 1
-26.315746 112.462440 -57.920273 3 1
-63.241268 88.309616 -11.630512 10 1
11.449327 134.816160 34.440739 19 1
72.444138 76.010742 -6.291551 13 1
-20.125525 34.133232 21.188671 12 1
-49.025974 82.602028 -20.672117 10 1
14.489668 136.592060 -53.650227 6 1
-7.552418 33.457275 -26.620899 1 1
46.325500 61.894089 17.167177 14 1
19.259005 112.790630 24.017340 18 1
-76.155815 83.712082 8.168226 8 1
-4.517285 126.415220 -39.133327 4 1
15.331794 120.018940 47.383770 19 1
0.339107 113.158420 65.862076 16 1
24.791750 127.805080 -52.743610 6 1
-5.922754 127.111660 17.173050 18 1
-61.344471 71.305428 12.541844 9 1
-6.044148 61.486042 -5.964042 0 0
38.673363 111.386720 -43.164707 6 1
-53.342796 88.550468 -19.102623 10 1
-0.473594 103.193940 -95.881325 2 1
62.415108 89.418892 -9.928985 13 1
-49.304195 84.710007 -17.445250 10 1
-2.333293 -0.235379 -1.432521 0 0
-18.256899 131.023280 23.618059 17 1
6.139932 117.013370 59.107460 16 1
22.139626 129.822650 -53.805439 6 1
14.492961 143.538410 -36.751114 4 1
23.844042 116.609380 40.625652 19 1
-14.971462 112.455470 -88.333260 2 1
-4.020297 93.752045 -14.492549 0 0
44.451473 90.838203 -17.086611 15 1
10.946190 107.677140 71.830673 16 1
-1.230732 131.535340 -78.129166 2 1
23.873823 131.024280 20.383190 19 1
14.510041 135.381390 28.150253 19 1
-31.674356 135.634260 -31.680109 3 1
13.149769 124.696280 65.425125 16 1
16.249741 112.026500 72.322716 16 1
-3.796887 108.520250 66.760330 16 1
-5.865145 126.659220 50.257114 16 1
-28.050076 138.207640 -39.843792 3 1
-2.120633 124.579510 -5.600003 0 0
26.216984 105.071630 27.030413 19 1
2.304346 41.425358 -18.372128 1 1
-16.565430 127.834820 -1.276732 0 0
71.119682 79.379539 -10.011052 13 1
-7.486907 126.334850 -81.560104 2 1
-65.749649 97.742386 5.169745 8 1
16.693157 125.192190 15.678557 18 1
-23.049128 94.676399 30.483549 17 1
-22.568727 40.954052 15.147752 12 1
2.821978 33.577293 -25.570528 1 1
-11.245069 134.345750 -58.595600 3 1
53.299496 84.568893 7.900795 14 1
21.165918 133.310030 19.697664 19 1
-2.976262 108.216320 -1.269827 0 0
16.367388 134.889250 -76.276016 2 1
75.514618 75.158432 -7.336875 13 1
-30.290907 138.521130 -1.936383 5 1
-4.642206 145.267430 -46.833420 4 1
74.577797 72.868515 -13.834032 13 1
8.689428 132.291550 42.308369 19 1
55.454067 81.662415 -10.098640 15 1
59.611568 89.113228 -8.600023 13 1
-15.764820 136.415730 -70.035347 2 1
-18.996258 111.807120 -91.641670 2 1
41.107738 75.284752 -24.664070 15 1
-1.145182 16.396820 0.329984 0 0
-58.692249 92.215584 -15.080052 10 1
0.980305 145.085040 -65.653000 2 1
-5.235404 109.955330 44.123657 17 1
-11.061728 119.708470 -86.634399 2 1
12.960678 98.603073 73.959671 16 1
53.856647 71.849396 8.772196 14 1
40.572388 106.330740 -54.266499 6 1
0.956408 137.725560 31.055477 18 1
54.444878 79.511703 -15.550333 15 1
5.531431 104.597400 71.267502 16 1
-2.244126 58.022694 -3.681783 0 0
-11.762895 121.615670 53.389687 16 1
-0.665989 35.787075 -23.023823 1 1
-24.429924 113.252820 -90.820854 2 1
-33.691814 132.949490 -32.658401 3 1
-28.439705 115.786640 -87.262726 2 1
-28.913275 134.372190 -50.584179 3 1
43.495190 71.370598 23.521410 14 1
4.757931 134.346300 45.650902 16 1
-9.182287 38.955132 -7.537852 1 1
-1.105794 39.217182 -13.656838 1 1
-3.932284 116.195850 62.633087 16 1
0.289918 63.113472 -5.062924 0 0
-69.329079 93.024979 0.768927 8 1
-81.966438 85.091370 -12.827669 8 1
6.979869 44.028351 -11.519802 1 1
-24.722031 112.369500 28.831953 17 1
-12.240127 111.543060 62.660267 16 1
-72.960121 91.342216 -4.177998 8 1
-13.227252 141.229420 -53.417007 3 1
-54.846195 93.408043 9.735641 9 1
54.811436 78.452377 1.681847 14 1
40.525032 83.872345 22.351509 14 1
-4.845194 28.256384 -28.089138 1 1
33.882584 113.333300 -44.313087 6 1
-1.823702 43.109894 17.799538 12 1
-57.889019 88.552650 -17.751610 10 1
55.448803 77.440491 8.239285 14 1
-16.802330 140.673100 -8.220478 5 1
-34.495193 83.066055 1.287978 0 0
46.674358 62.451534 21.128296 14 1
-20.877598 107.798810 35.369427 17 1
-30.766823 106.235520 -51.688091 3 1
24.450544 125.398610 -61.939331 6 1
-18.745924 144.256150 -32.872059 4 1
-26.156275 109.945980 27.566771 17 1
4.343417 127.354010 -64.660690 6 1
-14.206881 138.251770 -57.671604 3 1
-22.105833 121.574970 -45.550941 3 1
-5.205866 121.892370 -6.997660 0 0
-3.388721 125.556290 -2.449208 0 0
57.004326 73.796860 5.053150 14 1
25.883801 119.175860 16.338526 19 1
-9.311091 64.236404 -2.866812 0 0
64.820160 82.676140 -6.032582 13 1
39.359768 90.159790 -20.479641 15 1
9.820736 127.389430 -66.004013 6 1
-1.303545 37.845142 -8.172731 1 1
14.882240 135.319950 -13.680336 7 1
29.004808 112.831700 -51.563065 6 1
-29.646545 112.667150 -57.446938 3 1
6.196763 102.745850 -97.021935 2 1
0.012117 68.382576 -6.278632 0 0
67.602821 83.694946 -8.329669 13 1
22.260414 134.377400 -47.098991 6 1
-3.414236 111.008030 -3.972696 0 0
0.717663 102.003010 66.679420 16 1
-8.092052 141.529160 -56.384270 3 1
-53.771729 69.159256 27.516855 9 1
28.447212 98.383636 38.183582 19 1
15.562835 132.831760 33.038494 19 1
5.378419 132.561220 -62.599018 6 1
-1.609134 130.549120 -47.111702 4 1
-6.370115 143.202710 -32.579681 4 1
38.187206 84.204681 -25.175716 15 1
68.347923 82.454338 1.795534 13 1
-4.171948 121.423130 16.412359 18 1
42.406487 80.050873 -25.198614 15 1
51.946918 91.573387 -0.461767 14 1
-8.881630 128.454900 -77.730858 2 1
-58.259045 95.636749 -0.484053 0 0
-9.931175 135.566480 -9.964038 11 1
-3.410058 41.592716 -4.904694 0 0
26.523001 127.539630 21.353573 19 1
-20.907040 106.236300 -92.688133 2 1
55.147659 95.447617 -3.627867 13 1
6.969185 122.758030 55.829182 16 1
18.359787 137.077390 -48.398033 6 1
-13.071855 42.767292 -17.253439 1 1
2.302473 59.681114 -4.453313 0 0
4.762664 93.226570 -98.790863 2 1
-1.913224 132.964940 -25.353399 4 1
44.110188 65.103607 27.879387 14 1
-2.128283 140.605160 -56.917610 6 1
-13.911436 129.124100 31.402197 17 1
-64.620644 88.917938 8.144622 9 1
11.282875 132.454320 -77.053032 2 1
38.514503 86.393501 -7.271280 15 1
-49.482113 91.686256 18.350225 9 1
71.418861 73.105156 -15.491075 13 1
45.258572 82.055176 -17.677078 15 1
1.231041 134.113430 -20.287905 11 1
40.649258 109.341890 -50.001022 6 1
17.820902 121.814200 66.263725 16 1
39.721294 89.969009 -14.578622 15 1
5.527488 111.505310 -94.158325 2 1
-26.568531 132.396060 -58.022190 3 1
-16.848423 119.353550 -83.452888 2 1
-1.321424 123.024510 -82.451134 2 1
-54.014431 89.357254 19.752161 9 1
-72.214996 91.966637 5.659737 8 1
13.993054 126.767710 -65.466080 6 1
-21.051754 36.821461 19.501469 12 1
-3.179731 144.681790 -43.644199 4 1
-42.641060 102.638760 -45.404167 3 1
-66.368729 95.941566 0.349034 8 1
-83.291939 79.550827 -13.604282 8 1
-8.483419 147.497880 -43.102757 4 1
0.913093 121.434860 -86.981873 2 1
-3.128039 127.645240 15.880442 18 1
4.816346 119.978950 -84.920288 2 1
-15.158131 106.516450 35.181267 17 1
-84.941673 65.287750 -0.625752 8 1
-9.162443 133.877030 20.496574 18 1
54.624104 86.554337 -2.001040 14 1
-14.804358 37.980537 15.125988 12 1
-52.486687 94.373306 -13.254195 10 1
-14.690093 130.313260 -33.267738 4 1
6.319296 124.560230 -59.383354 6 1
14.143691 101.198840 72.889137 16 1
-55.337971 70.423866 21.781830 9 1
-28.642189 108.888800 -53.837921 3 1
-5.737843 145.252880 -64.854851 2 1
-13.656328 110.282710 40.873604 17 1
-33.058601 107.557110 -49.853264 3 1
-2.735533 26.010027 -0.435981 0 0
5.947922 41.522701 -10.105291 1 1
21.526514 138.375370 -41.554008 6 1
-37.864601 126.233790 -37.166786 3 1
-33.358654 130.051380 -45.227375 3 1
1.250437 97.347984 -95.667107 2 1
-10.735632 128.173100 -43.641228 4 1
0.094455 119.030360 25.049143 18 1
56.513092 69.341766 -17.140112 15 1
-11.846668 103.455510 66.399323 16 1
67.311913 78.279510 -23.537251 13 1
5.277440 110.124210 68.539215 16 1
-13.501159 108.567510 -93.381439 2 1
2.996171 137.975200 34.888233 18 1
-2.008742 120.096370 -28.788374 0 0
69.603073 78.156479 -18.159040 13 1
2.327920 139.694920 -26.299921 4 1
50.860043 63.952255 -21.960831 15 1
4.476843 29.185741 -25.431807 1 1
-43.005184 103.502980 -42.073742 3 1
12.306970 117.799560 16.785400 18 1
-0.640210 30.378056 -24.692307 1 1
3.666213 100.909730 72.324959 16 1
-4.454148 112.702690 3.590647 0 0
15.434603 102.412930 44.850853 19 1
46.079479 80.069382 4.794813 14 1
21.014557 122.668590 69.888100 16 1
43.548077 59.768227 25.842157 14 1
-49.471550 95.269020 14.812057 9 1
-35.767441 122.520400 -33.049618 3 1
-3.613011 73.467499 -6.399635 0 0
-24.932354 111.217090 22.249104 17 1
7.982872 133.301190 55.823143 16 1
39.250454 86.939209 18.215267 14 1
-17.060158 125.880010 -55.467815 3 1
-62.170933 80.320335 9.533650 9 1
-47.174927 86.734024 -16.785480 10 1
2.116021 100.475850 -94.393143 2 1
-19.200132 98.599152 34.546928 17 1
32.082520 109.960080 26.571417 19 1
-0.705851 141.162570 -65.926247 2 1
9.665489 137.787190 -15.262508 7 1
-59.400684 69.658905 20.442116 9 1
72.263634 81.375244 -1.287603 13 1
-57.088284 65.200386 18.946598 9 1
52.656818 85.492012 -9.604052 15 1
-12.365225 103.593700 -92.768120 2 1
11.592756 116.805110 62.389957 16 1
-16.140589 137.514660 -9.228391 5 1
5.262039 40.937805 -18.775833 1 1
-4.191322 113.373050 -91.664589 2 1
-9.622855 96.458771 -99.030731 2 1
73.926308 68.025070 -12.621128 13 1
4.094358 137.588880 40.063709 19 1
60.203129 93.585243 2.909698 13 1
-6.263683 132.201890 48.535763 16 1
-40.885639 124.498310 -32.275684 3 1
20.667456 109.742060 44.225658 19 1
-21.152601 96.815407 36.284630 17 1
0.593704 37.142780 -16.830872 1 1
-12.828945 33.076611 22.864697 12 1
20.238817 116.563090 -57.533028 6 1
42.425400 73.679657 -27.637463 15 1
-18.129831 41.830830 7.387865 12 1
18.944405 116.807150 -66.185875 6 1
-22.966692 125.347580 -80.523514 2 1
-6.025713 135.784210 22.622154 18 1
-13.546486 143.508180 -43.918079 3 1
-0.079686 119.640240 61.813034 16 1
65.473160 88.001785 -1.335185 13 1
0.898843 126.834880 -36.608475 4 1
-35.209919 113.908620 -50.705784 3 1
-3.293621 41.123764 9.782309 12 1
2.541567 97.597298 69.674500 16 1
-64.765312 92.055649 8.850564 9 1
-16.205971 132.176900 -3.721307 5 1
36.942585 81.216522 -24.530094 15 1
-0.824677 76.409805 -8.744580 0 0
-24.691288 98.888519 32.777267 17 1
17.303432 124.439550 -47.434521 6 1
-76.645523 79.303307 11.544816 8 1
-42.032768 87.861984 -0.699363 0 0
-2.176494 137.236740 25.798254 18 1
3.501164 135.906880 -15.438010 11 1
72.075737 74.607994 -18.637342 13 1
-15.726876 41.712925 9.500991 12 1
-24.564854 119.767010 19.605980 17 1
0.474497 34.008934 -1.266584 0 0
23.678789 113.351800 22.250132 19 1
24.525585 135.198590 -41.051197 6 1
9.195656 127.142920 -52.317757 6 1
44.721420 91.113213 13.113126 14 1
0.496958 131.063710 17.080313 18 1
-14.476789 127.859630 -54.741531 3 1
57.291420 91.061470 -5.347275 13 1
-5.242775 114.829440 42.353390 17 1
-12.561179 128.105470 34.285347 17 1
2.500829 116.265910 22.564775 18 1
-74.693298 85.008308 2.655193 8 1
-35.319778 119.568790 -49.687061 3 1
18.757975 114.943130 46.427109 19 1
-38.849689 118.526280 -34.830936 3 1
61.032402 87.805595 -4.900789 13 1
21.284134 119.666940 -49.904381 6 1
9.988674 102.957480 69.352951 16 1
-2.200989 96.225258 -4.984887 0 0
41.866722 76.962654 15.884260 14 1
-4.408666 116.188190 -4.414094 0 0
6.698865 93.898987 76.701408 16 1
-43.987614 90.262909 -19.877024 10 1
25.970375 119.143340 35.586094 19 1
-32.748524 123.686710 -52.699619 3 1
-0.444975 91.535408 -7.968556 0 0
33.730892 110.014930 -59.453613 6 1
8.407432 124.868230 -82.115746 2 1
-61.113834 89.467941 -8.310184 10 1
-4.248451 122.882980 -32.870934 0 0
6.073526 46.182499 14.452992 12 1
41.058273 83.397621 0.307931 15 1
28.240585 114.363510 18.954252 19 1
31.875948 125.999770 -36.490208 6 1
-8.379697 125.334270 55.063759 16 1
77.163528 63.274811 -14.257857 13 1
32.434208 98.277191 29.346199 19 1
-75.515633 95.046448 -7.911385 8 1
52.994244 76.508293 -14.770774 15 1
-9.947187 121.719670 0.796978 0 0
-22.760731 109.102880 -91.242905 2 1
-2.745058 94.513924 70.748474 16 1
-6.671069 110.522160 -88.413773 2 1
-25.446280 137.609160 -26.025759 4 1
26.504553 114.128710 -52.851830 6 1
-52.842907 97.734161 3.834284 0 0
32.222336 93.251411 32.688507 19 1
12.743944 137.754640 -74.919823 2 1
-23.849289 125.233370 21.269150 17 1
-12.466274 40.473965 6.216547 12 1
35.961815 87.056107 -12.690872 15 1
-5.221508 129.308760 48.955021 16 1
-7.382207 103.314570 64.727768 16 1
-0.404441 126.752600 56.653187 16 1
-23.104881 120.504650 -60.628632 3 1
-26.788095 138.075270 -45.547169 3 1
-2.183801 5.030480 0.792159 0 0
-8.535280 134.439350 -19.362549 11 1
52.202057 80.405647 12.294849 14 1
6.846917 44.685440 -17.707319 1 1
5.966411 41.853024 -13.281933 1 1
49.418320 67.046967 16.125219 14 1
-15.594194 117.605370 28.618723 17 1
16.179531 99.530952 42.870174 19 1
-0.187452 2.366909 -1.481328 0 0
31.011122 110.780240 -62.970020 6 1
-12.807652 123.372990 -2.606170 0 0
-8.339023 135.986130 -6.001055 11 1
-1.741432 124.286080 -32.092655 0 0
42.036133 81.780075 9.093041 14 1
-37.231319 108.881810 -49.239517 3 1
42.976761 60.681076 -28.065790 15 1
-17.477406 146.363310 -34.507359 4 1
-22.136213 139.156330 -48.936512 3 1
27.791538 110.127350 -63.325836 6 1
12.482692 126.453550 -81.351242 2 1
-37.904350 123.772320 -41.227264 3 1
-2.989254 36.407120 -13.095582 1 1
39.106739 87.614517 -23.194641 15 1
11.203608 130.869710 -61.665836 6 1
-20.090088 125.863680 -41.653622 3 1
-6.092802 35.891964 -22.031925 1 1
-1.239330 91.479156 -12.923445 0 0
-22.940386 140.341860 -1.669238 5 1
14.907223 106.387760 74.194542 16 1
-5.975927 139.061980 -67.686821 2 1
-6.434753 127.652220 41.051952 17 1
4.284780 130.759770 -36.231735 4 1
-63.563034 92.623024 -11.571710 10 1
-24.313210 116.891040 20.796169 17 1
-16.487894 103.400140 -95.452209 2 1
11.611865 114.436090 -94.058022 2 1
-52.636532 98.518356 -0.268362 0 0
-27.820585 123.924320 -80.905678 2 1
-3.264670 113.121600 64.646042 16 1
68.102539 80.056709 -4.987219 13 1
41.512238 91.185715 0.677365 15 1
30.086367 115.880920 28.089872 19 1
-75.294601 89.660271 -0.131312 8 1
14.735073 113.422420 22.932901 18 1
-44.558441 87.991135 -7.106763 10 1
-0.406913 23.763985 -2.391757 0 0
35.668121 109.490330 -48.845825 6 1
24.783556 116.971740 -49.802734 6 1
-20.966282 88.412819 33.934658 17 1
-23.760216 103.263690 33.441238 17 1
-3.326128 35.956200 -18.834372 1 1
-12.453691 132.231080 -7.547091 5 1
-63.504204 82.826080 8.076393 9 1
-71.814713 93.724228 2.234802 8 1
-42.616730 109.758320 -37.810360 3 1
-21.795746 127.643260 22.053059 17 1
-1.774485 123.495740 52.189606 16 1
-27.204939 115.846580 -49.372974 3 1
45.792465 56.107670 14.151983 14 1
-83.718544 74.087120 -12.964500 8 1
-15.162663 41.783070 3.744501 12 1
22.335562 124.174290 36.307426 19 1
-4.196980 135.906920 32.052334 17 1
7.164417 108.104150 64.801178 16 1
-0.523762 132.803210 46.145847 16 1
56.788395 95.081596 -1.171116 13 1
11.699873 115.624280 47.192051 19 1
15.692683 125.542410 44.669971 19 1
-52.584682 85.216164 23.819101 9 1
-23.413057 129.936160 -32.176479 4 1
-4.716036 119.799390 -84.152786 2 1
-2.552307 130.278370 -10.146724 11 1
4.814982 124.493350 -85.063293 2 1
-9.949020 41.065502 -19.031353 1 1
51.836800 95.307999 -2.064313 15 1
15.504175 130.480390 -8.976918 7 1
16.095604 99.992897 39.857769 19 1
-8.475175 110.871130 40.050976 17 1
7.450093 139.927550 -30.260284 4 1
50.881516 68.870583 -19.151449 15 1
-4.759491 140.873730 -65.427101 2 1
47.062988 83.854836 16.913458 14 1
4.130655 130.286300 -80.144783 2 1
-51.766865 80.737968 22.747152 9 1
-4.869121 104.733890 -94.905167 2 1
34.113312 115.118420 -41.826191 6 1
8.133091 118.218230 -90.575081 2 1
-17.333723 139.125900 -68.198318 2 1
-12.947176 128.925380 -78.683189 2 1
-8.479535 134.388210 -2.683304 11 1
-53.853550 83.377953 18.533199 9 1
-35.376122 110.204960 -45.532032 3 1
-13.240798 137.516480 -69.079369 2 1
-2.699580 116.755150 7.402100 0 0
-23.521711 117.475320 -56.418877 3 1
-27.331593 141.225020 -29.833033 3 1
8.939304 106.562610 -94.814667 2 1
48.295700 81.602097 1.244600 14 1
53.320446 75.788254 -18.254629 15 1
48.271347 82.882881 -18.169500 15 1
-12.961969 110.699420 59.663265 16 1
-0.188480 117.748020 8.656063 0 0
-13.060987 119.798870 57.742168 16 1
-5.250497 40.594646 12.122928 12 1
35.734482 117.392880 -45.617611 6 1
52.294811 62.222744 6.774954 14 1
17.710785 107.975270 71.302856 16 1
-62.409706 88.993980 13.011039 9 1
-33.739479 112.113000 -52.827042 3 1
20.601261 100.728380 43.760666 19 1
-78.719536 84.459846 -3.301213 8 1
0.603750 41.890461 13.244775 12 1
-15.507493 130.436310 -58.855515 3 1
44.616051 77.472214 -24.843777 15 1
-6.263739 143.593780 -61.586330 2 1
75.479294 70.065277 -19.025002 13 1
23.230209 132.093920 -48.721672 6 1
-3.064561 34.541073 0.020910 0 0
-73.352333 96.238426 -6.316470 8 1
43.887623 63.263039 24.253559 14 1
-1.839536 91.216301 73.092087 16 1
-11.522497 40.108299 -22.194515 1 1
6.095772 128.431000 43.398106 19 1
-20.479177 121.422000 -54.142056 3 1
-12.018254 101.417810 43.584396 17 1
6.374819 89.639153 78.429474 16 1
-7.967360 38.131897 -18.268539 1 1
-1.651703 41.294426 15.556356 12 1
37.344742 90.404327 -11.180734 15 1
18.238369 131.984850 -36.158772 6 1
7.494919 129.918780 -49.572620 6 1
3.474130 115.858200 -87.287346 2 1
-21.459402 125.953630 -61.183426 3 1
9.016790 120.479040 -63.507229 6 1
-19.362568 102.714460 37.258747 17 1
-4.172699 109.624220 -21.934187 0 0
-24.738985 141.155260 -35.788635 3 1
-13.200541 115.596590 32.691780 17 1
-79.721527 73.792633 4.296469 8 1
55.414776 77.112701 -12.764617 15 1
-40.013264 103.067410 -46.903488 3 1
-10.402367 136.908600 25.246626 17 1
22.290394 127.674840 -62.744873 6 1
-23.997957 97.604553 28.762369 17 1
47.314606 93.875854 5.760317 14 1
-46.359413 88.684143 -2.027107 0 0
9.934382 121.665920 -59.539452 6 1
51.455975 71.318428 -17.703131 15 1
-8.570701 132.974090 0.962165 0 0
-15.795561 101.566770 36.983829 17 1
29.308922 96.272156 29.304634 19 1
-15.829153 91.392563 39.170067 17 1
-2.994390 104.983790 -4.823733 0 0
23.947245 114.044400 -58.928135 6 1
39.475319 114.174970 -43.923061 6 1
12.833051 115.877660 69.005409 16 1
-13.603767 96.017128 42.804913 17 1
-58.152908 94.481453 -11.852097 10 1
-0.761103 128.343510 -80.923615 2 1
-33.010475 119.872330 -36.536434 3 1
-31.865105 131.503810 -47.864655 3 1
-10.088088 106.662320 44.456905 17 1
-1.964175 144.360400 -66.157501 2 1
10.828911 111.323400 36.798153 19 1
41.836819 87.241928 -17.372669 15 1
-56.406364 94.501106 6.989408 9 1
-5.382806 127.137480 -7.023274 0 0
44.783466 57.564510 18.536123 14 1
15.393039 142.077450 -34.402508 4 1
17.222410 135.513700 -32.231602 4 1
-19.224276 140.651720 -6.427628 5 1
48.048592 68.047066 13.388571 14 1
8.513132 133.286770 -14.385372 7 1
2.840722 109.082280 62.604866 16 1
-0.741281 9.383807 -1.978997 0 0
-4.185069 134.120190 -18.256767 11 1
6.287756 43.207298 -21.042477 1 1
-3.231453 106.800980 63.131004 16 1
27.609966 76.711433 -5.921645 0 0
29.584076 117.246430 -43.639587 6 1
-10.638861 134.898640 -71.426239 2 1
-19.089729 141.425420 -44.512474 3 1
13.935257 142.681980 -40.153641 6 1
15.039702 115.135380 -91.297035 2 1
19.087082 131.521260 -11.641761 7 1
2.877588 41.516338 -21.184835 1 1
46.252438 70.581482 23.833750 14 1
49.680702 83.341484 -13.889761 15 1
-12.094146 125.622830 26.598255 17 1
63.528641 83.120491 -1.302371 13 1
52.175102 79.609276 1.735600 14 1
44.778336 72.616913 -22.846308 15 1
-25.886110 101.088780 25.902075 17 1
-9.759485 101.732930 65.457390 16 1
11.011217 96.432915 74.318001 16 1
9.071897 122.658010 63.860210 16 1
71.385078 78.105103 -4.194210 13 1
-0.710691 91.167770 -100.254270 2 1
6.858355 126.924770 -80.533531 2 1
13.521314 112.540660 25.373859 18 1
-11.924993 106.630200 62.335632 16 1
-44.987827 114.039440 -34.214439 3 1
-19.726377 109.386660 28.826042 17 1
-16.184654 139.672590 -2.432066 5 1
14.312994 132.670120 -58.384045 6 1
-7.003232 141.870850 -68.462334 2 1
-21.907564 129.665120 -77.227425 2 1
-4.649604 114.218100 -86.961784 2 1
37.050190 106.724910 -53.042805 6 1
3.707751 142.694920 -38.244595 4 1
-1.502242 135.989090 35.802238 17 1
72.814430 78.987343 -6.682386 13 1
-13.969898 29.211035 23.281898 12 1
44.630249 69.697342 21.295708 14 1
17.859196 133.193190 27.765776 19 1
25.990850 121.093370 33.499073 19 1
-29.240681 132.673390 -52.894642 3 1
12.175825 126.290410 -50.448505 6 1
-60.788853 93.535439 -4.272983 10 1
6.020947 115.748570 31.197224 19 1
31.811630 118.665280 -39.032707 6 1
14.736301 96.465813 78.583153 16 1
-10.286737 131.218170 -30.500292 4 1
1.376294 131.392380 -76.503418 2 1
40.427025 87.117302 9.613946 14 1
29.453642 123.077740 -50.064526 6 1
10.539973 122.091530 58.952702 16 1
41.623283 88.750534 -12.264322 15 1
-49.927711 81.792023 24.881596 9 1
7.584344 135.373150 -73.805199 2 1
15.495307 131.109630 60.728886 16 1
-13.532551 128.553670 22.375034 17 1
-28.298386 128.273730 -58.456795 3 1
-30.657318 118.415040 -39.034969 3 1
15.022643 124.602500 -82.858070 2 1
-28.345766 104.526710 25.619335 17 1
-4.265644 136.698090 -15.220671 11 1
5.801237 136.394820 -24.275249 4 1
-20.242317 114.015790 -90.351807 2 1
19.294062 113.283250 69.781281 16 1
11.320007 131.680040 41.418419 19 1
-1.549177 99.879173 71.117859 16 1
76.750633 67.301521 -12.612965 13 1
-4.678802 113.638440 -25.949671 0 0
-1.536127 46.200130 -6.051536 0 0
7.565230 126.229800 60.786209 16 1
-0.097615 28.238533 -2.674259 0 0
18.301744 124.666020 66.402748 16 1
29.532574 114.396210 -60.622540 6 1
-10.595897 143.361040 -64.650192 2 1
12.571502 123.734230 60.297264 16 1
64.962448 85.092857 -15.645036 13 1
14.368904 103.143910 39.671318 19 1
-15.516308 115.297270 30.378153 17 1
-4.111423 107.464930 -94.222519 2 1
41.913494 74.826729 27.265839 14 1
16.202312 98.741173 75.756317 16 1
-12.226111 118.275530 54.953636 16 1
15.623428 119.848140 -88.768646 2 1
31.658121 89.296669 33.013985 19 1
2.600638 44.210159 16.493395 12 1
66.165710 81.738045 -10.434781 13 1
60.040722 92.005486 -4.793538 13 1
0.355261 131.116380 -57.714657 6 1
12.863024 107.545430 68.291901 16 1
-17.892946 89.052765 36.943027 17 1
-37.899750 127.481540 -34.423897 3 1
41.091759 77.764168 -23.201056 15 1
26.700010 113.712850 -64.685081 6 1
-41.011677 114.722180 -42.746178 3 1
-16.042038 143.448500 -40.842918 3 1
-35.390095 123.701880 -46.538429 3 1
77.277702 71.168198 -3.187117 13 1
10.912491 127.820360 62.253613 16 1
-8.465009 134.568010 -58.130505 3 1
49.007332 67.344849 -23.810886 15 1
-14.981195 139.664810 -54.988422 3 1
-0.314690 131.122740 -29.925358 4 1
16.258108 116.152000 66.092010 16 1
19.276447 103.638600 74.671623 16 1
-2.254184 87.139130 -5.073740 0 0
0.521542 95.616501 -98.348976 2 1
-7.315736 133.480380 -55.562416 6 1
-49.405403 81.286629 -17.896313 10 1
11.157007 134.020000 37.284462 19 1
43.570393 71.215065 28.643534 14 1
75.367966 70.519981 -16.184742 13 1
54.042229 75.381073 9.850193 14 1
-9.760384 106.882350 -94.050667 2 1
-14.902481 120.391500 36.673733 17 1
-0.006294 125.607150 35.684013 17 1
-14.710136 133.995100 25.281574 17 1
11.241046 109.549970 41.538818 19 1
-80.316490 79.065086 -2.930349 8 1
15.303048 133.317020 -9.752135 7 1
11.508780 136.193340 -12.566368 7 1
-33.629303 115.687160 -40.390522 3 1
-31.333271 108.836870 -55.008717 3 1
-56.704018 83.602737 14.905952 9 1
-83.828484 69.299637 -10.545365 8 1
-23.983189 117.418500 -52.319096 3 1
26.600391 95.896790 32.604015 19 1
-16.324398 140.729950 -25.602226 4 1
47.246235 91.149460 -17.050951 15 1
10.117246 140.638530 -32.902096 4 1
40.719601 68.393272 -28.163134 15 1
30.181953 110.325890 -54.280422 6 1
-8.386619 121.744830 -85.326973 2 1
-22.738268 132.999250 -28.164669 4 1
5.250831 108.494230 -95.052933 2 1
-43.336754 94.325508 -16.479137 10 1
16.278389 107.576700 46.775246 19 1
44.212646 60.714981 21.207575 14 1
28.854290 117.158950 30.775364 19 1
-49.986588 87.484497 20.574507 9 1
-16.870659 123.654080 32.542278 17 1
-54.927757 94.757034 -2.147031 10 1
-7.149585 126.917570 1.591703 0 0
-37.329033 121.332010 -44.278316 3 1
-50.950340 79.895813 -27.118620 10 1
11.018684 88.281013 81.016006 16 1
-9.115994 137.536300 -17.665838 11 1
-58.217705 88.267448 17.161434 9 1
-16.537161 130.681290 -0.759027 0 0
11.875272 110.546470 46.109577 19 1
-52.478333 90.344421 -4.670313 10 1
62.251228 91.815529 3.631735 13 1
1.941937 123.114810 53.063591 16 1
-6.430847 132.353270 -76.601250 2 1
1.733670 105.803140 64.474159 16 1
-64.161507 97.404816 -0.573249 8 1
-9.772456 33.515743 24.024405 12 1
-3.804640 124.045500 57.626297 16 1
-59.412796 75.016998 13.811186 9 1
73.658829 72.270706 -20.364176 13 1
72.953720 79.160339 4.889058 13 1
-71.274834 89.392090 5.096918 8 1
49.661629 92.997314 -9.726836 15 1
6.700595 100.018220 -98.051216 2 1
8.050987 96.309784 76.101013 16 1
-13.794209 133.564870 21.225315 18 1
50.618862 88.438904 -11.095052 15 1
-1.280812 141.862640 -30.058947 4 1
-79.969460 74.136681 -0.204414 8 1
-6.278318 134.056720 33.624413 17 1
-0.610103 122.920720 30.253275 18 1
-56.882526 88.707626 -7.626307 10 1
-4.529828 112.654480 44.220695 17 1
-4.133411 132.454100 -5.265738 11 1
-44.568909 111.732730 -38.381493 3 1
-18.884666 38.256523 18.302652 12 1
-6.100134 62.373390 -3.274153 0 0
48.339691 67.581673 19.008398 14 1
23.297585 120.837390 -45.794979 6 1
-60.203098 85.812302 10.100867 9 1
-76.725418 89.933548 -9.091069 8 1
-80.494850 72.226524 2.060523 8 1
14.586389 116.702700 48.079281 19 1
-34.227245 117.625660 -51.422432 3 1
-50.592701 99.027718 -6.655343 10 1
7.249250 122.587560 -86.935722 2 1
-13.697075 142.117800 -28.371506 4 1
-13.411234 125.154370 35.382576 17 1
10.600446 129.559310 -46.839386 6 1
-3.601071 100.835900 -19.094978 0 0
-11.017048 124.246730 38.575947 17 1
14.432156 120.984830 63.169109 16 1
12.080489 121.996570 -67.177055 6 1
44.837242 95.512337 -9.338139 15 1
-56.639137 96.388031 2.800548 0 0
54.807579 84.559395 3.141056 14 1
13.672467 68.457191 -5.345485 0 0
0.324021 32.982258 -4.101493 0 0
-6.290893 126.724290 -33.630325 4 1
-53.783768 79.108643 25.420231 9 1
-6.565632 127.316600 -78.851868 2 1
-25.428041 115.354900 -59.407860 3 1
5.626684 100.789380 68.664398 16 1
1.789439 35.319473 -21.803671 1 1
-9.885106 129.663500 18.985529 18 1
47.891399 58.847076 13.894011 14 1
-2.723092 108.434700 2.458239 0 0
18.045742 129.238770 37.510937 19 1
50.165348 83.920883 13.250032 14 1
-20.215788 91.722511 34.260868 17 1
-10.906624 143.288280 -33.973598 4 1
-56.530075 84.541946 -20.902111 10 1
4.735353 138.778140 29.270124 18 1
-2.167136 131.826070 51.467796 16 1
-64.727615 79.183517 12.552075 9 1
-6.550150 39.834427 16.620880 12 1
-19.738960 114.129570 26.418411 17 1
-15.202156 108.868660 -90.294098 2 1
31.952774 110.767330 18.487783 19 1
-51.780628 86.864510 -13.075223 10 1
-0.700807 136.154400 -74.417831 2 1
-81.726006 70.258675 6.630197 8 1
-49.292484 92.183533 0.998429 0 0
-14.317783 138.699250 -22.106915 4 1
28.307699 126.736420 -45.933937 6 1
0.403749 65.654289 -6.898533 0 0
-24.462463 138.556460 -0.189336 5 1
-59.026402 76.719536 20.794441 9 1
26.212677 89.413857 39.076729 19 1
-8.796792 133.472960 -75.269188 2 1
-84.702263 66.997787 -2.844966 8 1
-56.621284 64.110626 24.536234 9 1
-23.838892 117.467990 -87.034325 2 1
-6.893582 132.040950 -5.863031 11 1
-10.909259 143.193980 -49.061523 3 1
13.352977 111.802510 66.123055 16 1
39.434490 87.588837 2.266181 0 0
-33.296230 131.062070 -42.648548 3 1
-15.424929 146.565370 -39.599258 3 1
30.352011 128.298000 -36.755131 6 1
-23.504902 108.750460 32.634502 17 1
31.083847 124.745580 -41.469940 6 1
-7.043331 121.325100 -82.898811 2 1
23.184397 126.503520 31.257942 19 1
22.580429 97.668121 36.150978 19 1
44.477524 74.539696 13.157014 14 1
19.876160 130.005130 16.844782 18 1
-7.473739 133.937390 -22.936285 11 1
6.744796 114.827380 66.876205 16 1
8.344849 122.724920 14.017370 18 1
-4.026343 79.229446 -6.495796 0 0
-7.093378 99.689102 -94.633324 2 1
-2.659075 40.869919 19.192429 12 1
-26.636248 129.810440 -30.271683 4 1
15.903298 120.482970 15.607555 18 1
24.686514 133.677570 -43.354496 6 1
-19.860861 123.211010 -58.017075 3 1
15.415750 115.264450 -66.004303 6 1
26.567917 121.234740 -41.538372 6 1
-73.992218 92.711967 -1.793603 8 1
-2.879926 88.903229 -11.992627 0 0
12.156968 133.517930 54.306194 16 1
-8.786171 127.736230 -37.794453 4 1
31.942209 115.774770 22.988050 19 1
-17.011938 131.380020 -74.265686 2 1
-66.152283 82.820030 9.399345 9 1
14.524373 92.339554 80.318558 16 1
6.232444 135.426380 -76.308884 2 1
-68.393188 94.960541 -1.252381 8 1
3.626272 132.019390 -31.535051 4 1
41.630260 83.084564 5.953260 14 1
-4.491755 116.887280 -28.124622 0 0
-38.022694 127.573190 -27.648104 3 1
61.390972 86.595871 -17.452276 13 1
-1.289625 118.988050 55.569256 16 1
3.240031 130.460170 55.647255 16 1
-3.444383 120.799700 53.946266 16 1
-2.759745 129.440900 42.412609 17 1
44.678841 83.556107 19.617260 14 1
38.506840 83.670609 -1.182788 15 1
45.732380 87.211105 15.483673 14 1
-5.720254 109.419930 47.039795 17 1
17.525816 130.892550 -13.957395 7 1
33.781433 105.384980 -60.621655 6 1
49.632839 72.725662 -22.189146 15 1
-55.043159 82.569023 22.896961 9 1
8.874382 102.720110 73.415398 16 1
-4.902498 92.843506 -5.089122 0 0
-59.977295 93.171265 7.472888 9 1
19.306421 134.048450 -33.549931 4 1
-10.356751 132.883210 -27.714779 4 1
-9.721697 38.112076 13.654861 12 1
-19.063990 103.013260 32.749062 17 1
13.828336 103.498060 74.969688 16 1
-0.805429 20.852388 -2.454151 0 0
-1.053862 115.255750 5.783556 0 0
-39.285019 112.183620 -46.161022 3 1
-71.878738 89.746300 1.398876 8 1
35.656265 85.200928 -4.463600 15 1
32.355721 121.193570 -34.790771 6 1
2.822617 97.264580 73.725952 16 1
-7.688439 136.728560 -69.854500 2 1
-38.668800 114.281440 -37.576187 3 1
-5.282125 124.977790 -83.068649 2 1
-2.276328 103.533000 -17.884794 0 0
-15.521292 34.840832 19.377548 12 1
40.079727 73.403191 -29.690302 15 1
-74.961601 86.780609 7.219027 8 1
74.877281 77.476669 1.786449 13 1
8.682441 114.068450 39.341343 19 1
-75.385117 87.644516 3.461064 8 1
-11.070760 141.058230 -66.223206 2 1
30.319859 116.817110 16.449545 19 1
1.335807 137.218460 -59.832088 6 1
47.933647 95.584686 -2.612090 15 1
-13.332753 120.755070 -82.650742 2 1
27.264378 131.194270 -31.298790 6 1
-55.867268 87.389824 -19.223392 10 1
20.482344 109.467540 72.485504 16 1
20.068974 69.917374 -5.062235 0 0
15.196649 116.978440 69.857658 16 1
-80.604416 87.282875 -10.300187 8 1
-16.809097 128.992320 -38.574989 4 1
0.717397 101.524300 71.050346 16 1
-9.661039 114.580440 37.051491 17 1
-20.063227 120.161310 22.802336 17 1
7.711216 136.368120 43.624237 16 1
-7.564224 38.969128 7.676471 12 1
-22.828754 117.415460 28.598480 17 1
28.524502 115.645200 33.106346 19 1
-17.521143 119.376160 34.022919 17 1
-2.238863 39.034691 8.173206 12 1
-64.082230 74.454399 12.861477 9 1
-18.187954 140.239960 -49.387108 3 1
10.434676 116.953500 -91.651772 2 1
33.851059 105.555050 20.719667 19 1
-26.241232 113.537610 -54.533440 3 1
-13.764207 93.561241 41.030918 17 1
2.628044 141.862170 -69.822418 2 1
4.898508 118.723100 13.331001 18 1
9.285486 113.906590 -91.333054 2 1
-0.775015 40.833656 -6.060697 0 0
-8.395782 133.067750 -11.340124 11 1
-2.417806 109.284270 -89.153809 2 1
-44.400486 94.276894 -13.867190 10 1
43.449680 70.862206 -27.473909 15 1
-81.252922 79.316086 -7.749462 8 1
-9.985396 127.675480 -6.755116 0 0
-23.796074 140.263840 -41.312691 3 1
11.442132 136.120540 -16.553568 7 1
-17.939201 134.976440 -73.357750 2 1
11.784613 119.571670 -86.130394 2 1
17.847500 131.455410 32.182896 19 1
-6.831986 127.273880 -40.516270 4 1
-5.679605 122.421260 37.236835 17 1
-16.395626 103.712420 35.257568 17 1
-57.504570 69.370323 17.203072 9 1
16.823481 136.118120 23.518148 19 1
-2.357696 134.034960 -16.093586 11 1
-13.565199 115.376020 -89.441544 2 1
20.594296 122.184880 41.308819 19 1
-7.057730 117.428520 -85.333588 2 1
40.524719 79.246964 -27.005104 15 1
40.154156 82.714325 14.997166 14 1
-0.729446 28.485771 0.002338 0 0
12.677057 98.786415 76.684532 16 1
-4.203648 137.528550 -69.246910 2 1
54.207443 73.600540 -14.966268 15 1
-1.659161 105.853170 -1.608976 0 0
