-14.261979 143.318180 -19.643347 0 0
53.604664 297.694670 -0.766760 0 0
-27.556719 221.154830 -84.346291 11 1
39.811321 134.679860 9.801343 0 0
80.797226 313.090550 67.150764 28 1
-15.939389 350.370060 28.147160 27 1
24.356264 320.620790 -81.103844 23 1
106.427300 191.186020 -88.521133 7 1
107.972020 278.222810 22.893705 39 1
114.948490 258.067780 25.096287 22 1
-11.181648 248.198230 50.185658 37 1
66.820839 248.474370 -10.306900 0 0
-50.715847 153.058720 28.001307 49 1
28.788206 262.376920 81.830925 25 1
-67.534561 158.623540 -0.555114 49 1
102.620090 184.076840 34.646221 16 1
-22.664930 55.066044 2.277787 0 0
-69.367691 166.920410 56.646481 6 1
1.057901 270.817990 11.538938 0 0
29.973242 255.787250 -0.810131 0 0
-14.537688 248.508770 75.789032 25 1
2.745219 126.503820 -2.991778 0 0
-61.072113 139.873630 -69.268044 14 1
-24.729031 133.450560 61.167458 50 1
-2.011866 58.734135 -23.505373 0 0
56.793125 404.764770 -34.264969 34 1
89.673500 379.743190 38.831524 53 1
101.854810 210.287430 -44.347145 7 1
61.173580 376.637730 -10.587627 30 1
6.035977 323.413150 -72.527916 23 1
1.094615 260.264070 94.681000 25 1
78.278336 238.053100 -45.451355 18 1
44.831348 212.523860 -53.459843 43 1
9.952421 222.679460 -106.300250 52 1
82.239563 205.906830 51.545231 15 1
-14.697786 157.547130 -53.250713 47 1
30.869812 170.919300 -6.275404 0 0
-12.040932 247.508640 100.526490 25 1
-5.460923 154.167360 -32.242996 0 0
-19.757952 151.681000 -99.936127 13 1
59.955338 258.196320 -66.948074 45 1
15.531442 383.702450 4.168503 0 0
-67.938332 140.903260 -10.058174 49 1
14.431218 188.998280 126.231560 3 1
-53.989334 163.327700 -51.234665 47 1
-19.902002 166.019380 -26.739193 0 0
-7.868026 331.552340 44.427059 27 1
-72.763489 143.213670 23.637228 49 1
-66.556862 152.314530 -39.159031 47 1
101.845080 236.633240 35.102139 24 1
-16.178034 163.915630 22.738098 48 1
-25.898849 128.886340 -5.203560 0 0
-19.191465 291.577420 58.633385 26 1
-66.061974 163.895600 -20.226332 49 1
46.548061 190.616210 128.631710 3 1
71.818306 101.382740 -29.560823 9 1
112.089130 285.837010 39.983692 40 1
-2.874217 199.086090 114.802040 2 1
-11.557512 348.377530 -86.853271 1 1
19.849337 111.192940 58.588200 44 1
92.580368 232.922580 -38.413696 18 1
74.515976 291.372280 16.595869 0 0
-82.550308 92.340813 -36.360878 46 1
32.203716 201.011760 -44.547001 43 1
-53.821918 166.975810 3.996052 49 1
111.689990 259.158840 -21.002625 41 1
85.952278 247.821080 -15.474233 18 1
41.468216 287.084780 3.692975 0 0
86.723183 198.001980 29.267065 16 1
118.538230 285.840760 -0.739182 39 1
98.175896 223.345140 -80.063560 7 1
-31.725803 280.062870 65.153839 26 1
-2.362826 195.938920 84.701599 0 0
23.339125 309.926910 12.432602 0 0
29.840519 125.398490 -8.353918 0 0
19.235819 169.061450 5.764776 0 0
25.256781 268.640530 20.316130 0 0
0.890011 129.632050 -28.251692 0 0
35.033638 391.449490 23.007294 29 1
45.154011 217.489910 -75.414726 43 1
79.989937 111.084530 9.864002 10 1
-24.792934 348.680020 -76.950829 1 1
-10.992255 286.365570 75.473328 26 1
66.998795 391.814910 18.126381 54 1
21.201115 326.332120 -0.132886 0 0
108.646810 342.696110 43.633629 19 1
3.521771 182.876070 8.391681 0 0
25.613108 320.927370 -63.855675 23 1
83.870453 329.955810 13.229636 20 1
2.815677 139.956800 15.126901 0 0
113.655380 239.836490 -26.734928 41 1
67.537773 289.289580 47.471954 38 1
-13.271271 120.856450 10.550723 0 0
38.359257 308.890440 47.086308 38 1
91.109039 402.474700 41.852654 53 1
-75.447769 158.911030 75.700287 6 1
21.031298 120.499040 -21.769861 0 0
31.919708 128.648940 22.285089 0 0
81.989456 228.410800 -108.599990 45 1
67.347305 324.059660 39.731049 28 1
56.193069 273.849980 39.852352 0 0
90.052017 248.752900 -38.457054 18 1
114.094470 277.600740 -20.736113 39 1
34.828835 383.617250 -8.096152 0 0
97.203659 337.284820 58.901123 19 1
12.284560 284.494510 68.335182 25 1
96.235146 96.193245 -31.130711 8 1
40.490074 288.597170 52.430676 38 1
48.483154 311.407960 73.214348 28 1
85.170303 290.106870 41.107395 40 1
102.674960 296.791560 27.768293 40 1
86.216873 251.752490 -64.773201 45 1
45.735355 382.173860 53.985477 53 1
26.950390 327.895050 56.186665 36 1
-3.518306 306.596980 42.354679 26 1
16.070690 103.871430 -22.434853 0 0
9.365326 266.407930 -7.358481 0 0
57.180340 290.582490 80.716209 28 1
-3.939153 155.637390 42.953758 0 0
-53.391880 165.675660 55.643211 6 1
-0.294968 315.500550 -59.932381 23 1
15.564002 235.125720 -1.992838 0 0
-27.281307 151.076580 -24.380413 0 0
32.801254 185.941350 -48.858326 43 1
-29.701378 95.118523 105.018970 4 1
-76.993042 133.737810 -21.247793 46 1
12.594066 266.058380 82.761856 25 1
10.312769 98.007500 -5.869663 0 0
-2.106952 188.524380 -5.281129 0 0
2.598270 229.776890 -76.313110 11 1
-8.237215 77.228394 -10.016733 0 0
43.431686 324.686490 45.244492 28 1
13.963960 245.209180 79.725754 33 1
7.612484 220.351240 -5.279477 0 0
33.012581 301.949130 1.022079 0 0
-7.502467 227.804840 67.003708 0 0
40.892071 403.778230 -26.700428 34 1
97.272133 284.068050 11.562627 39 1
55.028515 355.908390 22.268744 0 0
23.240971 378.733640 40.952175 29 1
-20.307077 174.789220 41.103603 50 1
64.932823 246.519810 -89.638557 45 1
5.971491 199.093380 134.458790 55 1
3.162333 247.062970 102.891440 25 1
1.862519 36.843685 1.507279 0 0
11.810282 132.021440 48.901997 44 1
56.889809 198.419890 62.118660 17 1
92.829842 293.675510 56.713219 40 1
-44.440197 181.998990 -5.165656 49 1
-57.256161 166.021350 18.926836 49 1
24.933727 206.662430 -115.988380 52 1
-20.587009 180.335680 25.812870 0 0
13.272856 169.270360 -11.844077 0 0
17.144531 221.141590 -75.324478 43 1
66.911034 305.260650 -2.009532 40 1
48.009071 222.072570 -16.502846 0 0
124.479160 258.869600 13.196053 22 1
-21.503162 99.457703 16.672802 0 0
-19.489113 322.414890 -62.710007 12 1
95.536018 77.595650 -46.266094 8 1
37.918407 317.712010 26.571915 0 0
-13.287439 202.265460 53.344486 0 0
-45.534081 152.273770 60.133232 50 1
51.560158 276.113650 11.929857 0 0
-15.333892 118.814500 81.996117 50 1
107.866940 177.055420 -82.650192 7 1
11.049511 96.217857 58.551060 5 1
48.557785 376.342290 6.452831 30 1
59.031929 395.268370 -19.398651 34 1
66.097771 232.369290 -11.649660 0 0
-56.168262 322.708040 -63.927006 12 1
11.398893 322.995610 59.362125 36 1
85.609573 389.067380 -4.670389 54 1
-85.075592 164.218990 6.616850 49 1
1.396349 143.940950 -23.039570 0 0
-9.614386 233.360530 52.571781 0 0
14.954412 241.965120 -21.362778 0 0
-15.195067 30.721840 4.402226 0 0
52.260014 265.503200 22.543640 0 0
-14.296583 106.622690 -9.515956 0 0
41.892380 282.400940 -13.765641 0 0
-21.727310 103.918340 95.936844 4 1
65.053680 361.059480 4.705013 30 1
34.294872 338.640380 8.030240 0 0
-4.679265 94.701859 4.454261 0 0
107.012910 311.613770 6.055135 20 1
-26.623623 152.761580 42.143661 50 1
65.860825 387.310850 37.219566 53 1
-51.006348 138.433750 16.097357 49 1
41.350174 319.051090 -81.145790 23 1
37.587254 126.687000 41.545692 0 0
-80.456512 165.695860 27.768370 49 1
47.952583 399.187100 -46.057098 34 1
97.288788 259.619600 -25.586277 41 1
36.676071 233.126340 67.853371 35 1
-7.104555 162.071790 11.001388 48 1
-19.923523 155.029250 56.294258 50 1
59.598267 358.305570 67.637299 53 1
41.993164 176.615980 15.298989 0 0
2.252274 213.298100 -93.650459 11 1
29.806234 214.378140 -50.714714 43 1
28.677166 192.797940 126.902060 3 1
67.978882 251.989410 -42.495243 18 1
-66.106133 125.123050 -32.769058 46 1
-84.601219 115.167660 -25.612162 46 1
42.969707 329.893430 19.698843 0 0
-36.402309 117.683750 28.691839 0 0
53.581581 203.931990 -8.865036 0 0
95.533333 299.120940 -3.936014 39 1
-43.172119 154.866090 -57.248791 47 1
9.123618 213.073870 -62.597248 0 0
25.414724 224.713440 0.864935 0 0
-55.459225 156.160280 -65.505600 47 1
95.486931 191.759510 75.794388 15 1
108.789250 195.166140 62.892815 15 1
-22.765938 277.731750 76.411736 26 1
13.199910 159.930890 -27.408825 0 0
-5.525218 351.037750 -118.655900 1 1
82.971664 324.299380 38.461090 20 1
105.691570 327.041660 78.825645 19 1
34.350632 258.417450 41.519985 32 1
100.347660 230.970610 -57.269630 7 1
-7.645123 55.812469 2.303991 0 0
68.811539 261.236510 -1.529796 0 0
-2.608025 158.748210 -2.870361 0 0
-41.115891 176.522140 21.989893 49 1
-22.085306 63.267891 21.921465 0 0
78.872154 309.165340 23.087900 40 1
-50.321854 326.862790 -43.977058 12 1
26.256880 186.082110 -15.376218 0 0
-36.642883 333.508330 32.263714 27 1
35.534439 149.927110 6.089346 0 0
-0.770682 73.878777 -23.464626 0 0
-4.992075 322.501710 -88.307442 23 1
99.320328 239.642650 -27.578686 18 1
43.251560 289.905580 30.454565 38 1
36.953541 255.061020 67.339584 32 1
27.711758 373.686520 -0.572319 0 0
2.137100 98.473358 76.682037 5 1
-38.888763 166.983630 -86.521507 13 1
-8.275875 179.025420 59.651886 0 0
56.310280 318.357760 50.799091 28 1
73.820847 252.125960 34.114708 51 1
-27.498974 266.547790 66.710243 26 1
53.528824 189.520050 74.334099 17 1
84.428947 331.105900 60.062984 19 1
-51.342594 164.587450 -20.550394 49 1
-91.649429 143.588000 4.376285 49 1
87.308319 303.276400 47.827190 40 1
4.969265 112.267110 52.359837 5 1
8.744580 306.117310 10.376720 0 0
95.814629 82.008598 -32.194881 8 1
-52.845238 137.609800 -45.239635 47 1
-24.299032 172.822390 -63.451817 13 1
13.380847 210.116420 -15.667761 0 0
1.377392 332.262760 55.715748 36 1
80.195305 244.486210 -87.478584 45 1
2.695845 144.060470 38.433353 0 0
26.520605 274.814760 4.255006 0 0
-3.417819 96.845673 -9.521100 0 0
-58.017544 140.926570 -20.381439 49 1
-66.426720 139.919750 -31.767836 47 1
25.624651 133.699580 -23.130939 0 0
23.949909 227.299700 -92.577042 52 1
63.989029 371.482940 54.377205 53 1
-88.161613 153.143310 74.971924 6 1
98.628906 210.120670 -71.308083 7 1
40.752628 301.255040 58.532986 38 1
-14.288389 162.838590 36.504955 0 0
40.530602 173.940810 128.725140 3 1
7.880845 293.965060 59.122105 26 1
-43.595886 167.552230 -39.034935 47 1
-33.413025 322.200780 41.638130 27 1
98.667557 282.559170 41.752308 40 1
-10.746673 318.351230 40.746578 27 1
-39.354851 168.303760 41.341694 50 1
91.589706 290.342350 -14.557441 39 1
52.446323 248.515760 -19.085108 0 0
28.742214 138.938830 32.617226 0 0
54.633453 290.780580 61.303883 38 1
52.516144 166.847290 -14.275552 0 0
92.275124 304.807920 31.996729 40 1
26.114374 207.498750 119.082240 3 1
-12.445755 106.408370 4.616715 0 0
-71.430969 153.412870 12.846027 49 1
31.072157 380.018890 29.768770 29 1
77.804733 254.569430 -24.425331 18 1
-3.982925 285.653050 63.719334 26 1
18.771149 239.389560 91.178192 33 1
110.281750 225.997450 33.389915 24 1
-14.152511 300.837430 48.733250 26 1
92.435471 104.475010 -41.315407 8 1
26.318045 175.622630 16.869003 0 0
0.375069 293.573520 38.488182 0 0
13.685819 314.009770 -1.961991 0 0
83.762619 252.312160 -50.000042 18 1
76.220757 204.883420 63.944939 15 1
-0.740425 120.175350 62.539898 5 1
88.458435 234.553180 -63.161221 18 1
29.026495 266.273010 68.800240 31 1
33.810810 204.034390 -31.284393 0 0
97.971382 246.808270 4.632160 42 1
-6.554283 118.314490 45.308212 0 0
66.181648 98.639503 -43.326298 9 1
81.635521 292.311160 28.228067 0 0
-21.882454 165.432330 -12.967807 49 1
98.564445 387.699890 7.294406 54 1
34.979721 158.668660 -21.072302 0 0
48.048019 130.144900 19.456348 0 0
-16.833004 216.861270 -92.329857 11 1
23.837233 254.420670 -12.983632 0 0
88.296982 304.605470 6.182326 39 1
26.185642 296.930480 -10.152922 0 0
-78.521927 158.360320 -14.776167 49 1
30.234438 110.451740 -19.821058 0 0
27.094469 314.435670 -1.906649 0 0
88.218636 320.994050 22.848309 20 1
-51.312855 136.458680 -77.828613 14 1
75.662529 378.762570 40.402222 53 1
-22.977110 166.356190 11.467951 48 1
109.207220 254.762070 -5.024807 41 1
-38.099087 138.973240 19.546139 0 0
-13.705666 149.376280 -42.736320 47 1
64.324059 305.776580 12.570960 40 1
99.551834 175.402080 79.951302 15 1
49.815205 237.683300 -26.379896 0 0
1.189180 276.340820 29.586151 0 0
74.506851 113.895600 -33.077141 9 1
-20.692314 125.106160 24.244852 0 0
-42.688931 150.035960 -5.154996 49 1
89.238716 99.322777 -20.080076 8 1
3.050496 252.332280 77.335594 33 1
-36.021038 150.048030 51.200226 50 1
38.070896 327.691800 -0.273577 0 0
24.587261 124.130550 52.263527 44 1
-4.994275 106.174670 -19.199142 0 0
134.381160 295.804470 -12.300132 21 1
-13.784014 340.668000 36.924900 27 1
70.008766 381.093110 61.138710 53 1
0.010655 175.364580 20.016697 0 0
-67.586403 137.637570 -58.043495 14 1
66.649925 265.317410 23.001514 51 1
-28.171289 199.145320 114.981250 2 1
23.635183 224.414990 -61.900200 43 1
-13.320155 229.455460 -71.249130 11 1
31.387657 294.898040 39.437668 38 1
-64.205673 177.363530 8.973958 49 1
-41.857544 176.892470 -57.575016 47 1
-30.490355 327.454040 -57.558804 12 1
63.003674 260.145840 82.937065 31 1
46.232811 205.690580 59.738899 17 1
90.519814 388.028140 28.070175 54 1
-42.348042 173.047260 -15.689369 49 1
-3.649763 304.387080 56.708561 26 1
21.094276 229.326320 -24.858463 0 0
-4.477484 144.394610 51.103897 0 0
96.670616 219.243900 -52.355812 7 1
80.820686 246.177580 19.883505 51 1
62.543369 286.253200 17.603436 0 0
54.934090 327.503910 60.955853 28 1
16.902880 143.732510 39.472786 0 0
-22.077518 138.251910 26.583233 0 0
66.745514 298.049740 36.777828 40 1
137.205230 252.694920 35.114288 22 1
108.455750 247.038790 18.806431 24 1
37.809097 215.664200 -109.668840 52 1
78.446251 194.443150 45.867313 16 1
109.444600 335.453890 54.904320 19 1
33.747478 224.613370 -34.531792 43 1
8.741296 78.103256 -15.689657 0 0
45.716034 378.617650 -16.034016 0 0
37.738979 174.801320 -17.459148 0 0
17.990564 256.760410 55.576118 32 1
31.691738 322.972960 -10.593045 0 0
79.533577 212.414000 32.136810 16 1
-23.558401 248.886600 53.826294 37 1
83.230789 383.156520 14.066649 54 1
10.711682 232.316240 -46.840904 43 1
104.041900 193.415010 -59.626278 7 1
37.972519 323.182950 73.147072 36 1
-24.471794 164.207900 -84.774460 13 1
-8.133993 181.393910 44.343773 0 0
-1.448203 153.773160 -86.362602 13 1
33.432220 223.556410 -75.166809 43 1
9.257090 164.064610 -0.828391 0 0
105.819210 313.596650 18.671827 20 1
48.870850 319.775270 13.882381 40 1
-27.299417 349.839050 -112.703970 1 1
5.777714 195.798870 -48.739594 0 0
54.779465 295.567170 30.344748 0 0
73.702950 275.460880 55.138927 38 1
37.772163 276.260380 -2.403900 0 0
-16.515755 143.430270 60.860977 50 1
-56.855946 161.977080 40.197037 49 1
-10.770128 278.167970 85.224571 25 1
14.943584 243.406740 63.190365 0 0
-65.656067 171.492110 26.730362 49 1
58.618645 371.281340 0.626461 30 1
48.706509 264.121190 36.727482 0 0
105.374630 200.032960 -75.269287 7 1
-3.931598 197.148730 152.204030 55 1
14.603713 299.670990 49.836021 38 1
8.029780 312.867950 32.376362 38 1
98.274330 259.134030 1.812626 41 1
-28.977268 166.961720 -44.225159 47 1
93.099373 254.112430 27.871817 42 1
-34.244541 326.939330 -39.959099 12 1
74.611122 304.609280 74.169724 28 1
-22.151114 83.348007 3.294993 0 0
-29.583885 150.201490 -50.155300 47 1
46.855488 130.293730 -21.329018 0 0
110.837450 292.818270 -8.835792 39 1
0.097549 210.820430 -1.868745 0 0
-33.741024 114.494090 97.050133 4 1
145.685610 294.097990 -5.428249 21 1
-28.233734 284.498960 53.212910 26 1
88.510483 322.226350 4.403758 20 1
109.661160 267.925840 -29.773335 39 1
18.004858 321.245880 11.293871 0 0
-11.005489 321.123990 -53.534744 12 1
19.245825 181.476360 7.559546 0 0
4.893095 338.389010 45.350685 27 1
7.280236 136.501310 59.771690 0 0
67.785767 203.637080 49.440228 17 1
-50.149311 330.780760 -56.420746 12 1
-22.962646 99.002754 4.131439 0 0
34.406158 340.397830 -4.416628 0 0
51.300678 262.984380 73.100952 31 1
5.883435 321.911870 20.555725 36 1
46.491898 209.788930 -65.503090 43 1
28.313433 150.939150 -13.282197 0 0
24.360966 243.559100 -5.598433 0 0
-14.348843 246.346540 88.360641 25 1
99.589287 230.388210 -69.646667 7 1
15.675013 58.828766 -20.839813 0 0
19.050102 274.021850 -10.607457 0 0
55.547146 304.314360 40.934818 38 1
104.499990 175.416760 -69.932045 7 1
15.243119 139.943880 -25.761438 0 0
-3.944994 162.386140 -77.811028 13 1
2.083924 273.760800 -0.461761 0 0
43.054768 382.331420 25.440599 29 1
81.185616 393.636200 20.466732 54 1
3.054737 238.174150 -26.129274 0 0
80.340385 241.986850 -57.003162 18 1
52.408825 230.367080 -41.885845 0 0
50.076797 237.196140 1.312073 0 0
-33.908894 151.871290 -66.891090 14 1
33.142174 257.907990 10.947048 0 0
52.318836 307.833220 20.781256 40 1
36.810822 223.610170 -99.229050 52 1
20.753912 212.901440 -6.135048 0 0
120.624250 331.330840 62.420261 19 1
-9.467298 139.415880 37.618675 0 0
-2.569772 10.165872 3.687073 0 0
-62.259430 150.372790 24.724230 49 1
-16.860714 149.326220 -30.634531 0 0
21.109774 289.259920 1.400981 0 0
98.214142 193.353060 27.463079 16 1
-33.456871 165.301790 -67.974579 13 1
1.305265 140.023390 -37.647938 0 0
50.224438 263.960510 5.717667 0 0
-61.202953 112.641310 -78.506775 14 1
9.422198 149.543490 18.902906 48 1
51.651581 315.534730 -9.212158 40 1
-78.937492 144.561720 -14.099779 46 1
18.855726 355.043550 0.992942 0 0
55.894623 283.249540 31.270054 0 0
99.110924 223.805500 -15.416856 18 1
11.256815 254.990490 23.457062 0 0
-49.555092 164.531920 -7.305467 49 1
4.109910 138.518690 27.461233 0 0
2.710329 166.696260 -18.324297 0 0
33.018600 307.240360 -10.492111 0 0
19.385695 224.328400 -36.859528 43 1
5.486930 190.894820 118.222080 2 1
58.099812 230.560360 -20.605265 0 0
68.940857 301.471830 51.245247 38 1
82.700478 119.854830 -14.812294 10 1
-83.029175 124.849960 -15.630080 46 1
47.770382 362.243010 69.984825 53 1
32.382732 104.809580 56.126476 44 1
80.299156 267.820280 -8.911301 39 1
61.931961 381.008850 15.267360 30 1
97.795578 246.911510 -17.838514 18 1
72.475632 109.132430 -10.766183 10 1
84.540146 193.084260 83.838905 15 1
-28.198572 90.381088 12.315047 0 0
37.037628 212.574630 -40.899998 43 1
-6.864774 31.652811 -5.552516 0 0
32.163849 167.220920 23.387230 0 0
-7.814111 96.493973 93.094009 4 1
78.100037 239.528900 6.517035 0 0
65.951057 316.243320 27.273972 0 0
-67.563705 120.907040 -70.429977 14 1
-25.062347 117.109690 36.483562 0 0
72.141747 256.532140 -67.811806 45 1
-43.785439 137.544110 -37.319057 47 1
-38.155128 153.564250 37.354176 50 1
-2.235927 207.811690 49.792786 0 0
6.808715 199.269960 107.446860 0 0
75.223404 247.660580 -33.911964 18 1
-34.312485 248.036290 40.134350 37 1
-17.522125 118.315220 -10.049857 0 0
67.156288 238.334030 -49.915905 18 1
11.771814 200.440410 151.334400 55 1
37.294132 184.750580 123.798290 3 1
62.848839 251.080980 -76.705063 45 1
-22.336117 177.798230 118.965960 2 1
-34.077492 148.367290 -35.284748 47 1
6.723532 95.552528 -17.012978 0 0
110.980800 286.539760 8.774912 39 1
-21.771666 138.258120 -11.672911 0 0
-24.658871 67.361053 6.811745 0 0
-4.063498 110.182090 74.864182 5 1
-3.966618 243.070880 74.360443 33 1
40.034599 260.912780 78.114624 31 1
87.123886 316.908260 57.787262 20 1
-29.449060 171.273830 -20.394117 49 1
-43.550789 172.829210 2.550855 49 1
20.398085 317.087190 -91.764900 23 1
69.470253 296.751950 6.755216 0 0
41.559986 385.933230 4.892258 30 1
-24.831316 342.617980 32.953335 27 1
-43.156940 93.560371 100.863180 4 1
-53.240730 154.131240 -0.062749 49 1
50.616604 397.002840 -27.621231 34 1
90.169754 234.007510 -22.484226 18 1
13.091311 299.819090 68.052048 38 1
83.811127 331.232090 48.199249 19 1
-44.860905 147.126850 -81.054741 14 1
43.514660 369.002380 14.294779 30 1
75.542915 391.150820 9.728427 54 1
26.192659 218.564500 -23.585871 0 0
124.585770 294.953670 -5.298829 21 1
99.005440 272.540340 48.887268 40 1
14.245483 275.835780 2.626169 0 0
9.733594 236.235950 10.822474 0 0
-33.867512 138.170650 67.141869 50 1
15.764281 138.890050 15.194807 0 0
75.300270 334.034390 20.297312 20 1
17.947716 257.944920 -2.911076 0 0
43.292000 169.131060 0.113970 0 0
93.973274 230.984730 41.801186 24 1
35.339355 311.844670 60.429195 38 1
-5.842590 119.342940 0.698230 0 0
-35.086468 291.327420 44.191105 26 1
6.263590 106.710350 -12.643310 0 0
-23.320635 156.655750 -62.842438 47 1
51.347546 180.595930 -18.682108 0 0
-63.889606 147.479340 -1.163583 49 1
89.178719 248.774930 -26.714937 18 1
-19.723713 229.687160 -82.509933 11 1
-7.017379 66.473877 -15.096105 0 0
52.314217 211.295460 -17.992537 0 0
-4.392939 275.649480 -44.296032 0 0
14.507966 130.293840 -3.900773 0 0
48.666309 209.990980 -110.109390 52 1
7.357883 195.253880 -4.114780 0 0
19.631384 167.126100 23.556572 0 0
-50.633091 129.026960 -86.798103 14 1
94.978928 285.969240 -25.085758 39 1
11.458361 268.868590 16.636951 0 0
47.219040 304.795650 -7.445236 0 0
47.056870 219.870330 -38.703773 43 1
41.679123 371.604340 56.713203 53 1
20.123741 299.863280 17.328499 0 0
82.056572 247.196620 -75.098534 45 1
5.922733 65.165283 -17.889910 0 0
53.926643 246.754960 -5.271629 0 0
93.605629 205.697950 53.992859 15 1
-6.392210 159.865100 27.531498 48 1
16.643570 157.300170 5.794736 0 0
-31.907207 188.332900 117.501460 2 1
13.935184 320.019380 -64.585892 23 1
29.464645 136.390200 4.104266 0 0
24.802015 146.784610 -0.444324 0 0
56.046009 366.044950 27.819189 0 0
93.926109 292.001040 33.737854 40 1
39.300049 315.510380 6.866795 40 1
-6.534374 293.429570 -54.515293 0 0
63.068470 237.656910 -101.780600 45 1
-2.490457 266.944610 85.926125 25 1
74.747612 384.847690 50.685280 53 1
99.917007 244.318540 -42.548519 18 1
-8.496655 349.022490 -97.980209 1 1
-13.577435 338.528930 -62.942261 1 1
54.178135 286.249760 1.481286 0 0
31.388912 231.773510 78.035988 35 1
36.701359 327.548370 62.449741 36 1
83.184280 114.146310 -1.110499 10 1
8.849500 247.411590 90.992073 25 1
-54.983223 159.233080 79.752228 6 1
51.936424 388.793030 46.551868 53 1
39.762421 296.690490 18.252310 0 0
66.139099 324.319580 51.259708 28 1
16.140928 191.861880 -16.074484 0 0
-0.917825 223.888290 -89.459137 11 1
18.163191 320.227720 37.002396 36 1
78.445412 288.039120 50.802666 40 1
32.527847 288.674680 -16.295336 0 0
94.591957 295.010470 8.206917 39 1
3.951485 125.305480 -14.324919 0 0
101.367450 200.632290 -51.153183 7 1
20.940132 177.445140 -9.518677 0 0
-4.882782 53.908546 -10.640778 0 0
-16.464197 330.554780 -71.202202 12 1
-63.239044 164.857930 -9.113861 49 1
-9.879833 236.655240 84.279739 25 1
84.911629 198.510650 68.361336 15 1
-14.960739 41.874798 7.197659 0 0
-27.661201 170.758700 2.037252 49 1
10.782425 293.509060 -5.935472 0 0
27.470043 302.683380 62.058968 38 1
-41.150944 170.934040 -75.998383 13 1
72.306450 392.539520 29.406160 54 1
-8.947394 295.912690 62.187733 26 1
-31.634884 137.762660 -0.940441 49 1
-45.803207 142.817930 27.091780 49 1
52.611279 272.112150 66.422768 31 1
20.506718 196.176610 119.513050 3 1
-29.114304 119.719920 18.813343 0 0
-15.216109 153.986020 45.858585 50 1
-20.101603 285.586150 68.252960 26 1
32.020729 159.765010 -4.413494 0 0
12.884469 170.620360 -23.566198 0 0
9.317150 172.616490 10.480852 0 0
29.665340 310.774900 -60.788582 23 1
52.626076 376.515380 21.715885 30 1
41.375263 262.736390 17.477276 0 0
44.167236 215.182650 -7.820026 0 0
35.152897 311.579010 71.760284 38 1
-21.303255 166.497880 -73.326263 13 1
64.141724 377.851750 43.207405 53 1
26.402033 255.414080 71.433365 35 1
133.069750 266.061070 11.650323 22 1
-69.102638 161.807420 66.723717 6 1
47.799019 411.795070 -30.723433 34 1
8.893537 255.101960 40.792370 32 1
1.019819 304.029270 32.188400 38 1
-4.737602 135.009140 -19.905838 0 0
46.268055 197.758820 -44.540241 43 1
-81.173553 161.994400 17.021553 49 1
57.994617 266.249660 -4.254160 0 0
-23.156311 209.434600 -86.434654 11 1
90.478310 204.845290 21.161087 16 1
51.118671 321.840670 69.950378 28 1
7.965816 238.768480 -9.434201 0 0
-1.397686 47.044807 -2.211569 0 0
-34.712822 161.016250 -35.729336 47 1
117.081280 251.347600 2.206276 41 1
12.315354 223.702560 -20.515991 0 0
61.065449 238.009660 -3.056766 0 0
54.514606 376.366610 50.137680 53 1
-62.944569 142.679760 -43.595963 47 1
-26.756426 123.307560 5.495856 0 0
11.902830 276.027010 76.129074 25 1
-0.807932 323.482360 41.050674 36 1
44.924500 183.555540 78.243431 17 1
-46.793541 170.826370 13.537106 49 1
9.749214 118.845780 1.150104 0 0
-14.385250 112.205540 90.949631 4 1
-7.663620 85.822128 -1.603106 0 0
12.163952 174.844920 -1.511371 0 0
18.371370 216.445330 -111.264750 52 1
103.580310 231.390400 -34.429733 18 1
34.388062 349.458860 5.389456 0 0
-55.099648 176.004820 23.881310 49 1
-20.282507 146.532710 35.347565 0 0
14.230474 310.136350 19.183336 0 0
9.839149 193.210490 56.477783 0 0
45.567955 329.495240 55.296959 28 1
107.866610 249.181260 -24.081730 41 1
-44.604523 275.853300 57.978905 26 1
31.966320 266.371460 -3.533738 0 0
-67.498695 157.148680 -29.202808 47 1
71.439178 231.796450 -107.970310 45 1
59.868076 320.513730 15.159683 40 1
96.418030 211.151870 -60.484558 7 1
-9.859042 190.863590 118.013120 2 1
13.471125 324.558320 -80.673309 23 1
8.238314 153.145070 41.533627 0 0
29.287561 137.824980 -32.743523 0 0
-1.968681 315.632510 -72.171890 23 1
79.702728 300.029360 12.052748 40 1
29.017599 118.805320 0.486204 0 0
5.865767 264.358550 3.963297 0 0
-27.135317 108.928050 15.172894 0 0
-9.576732 257.253660 92.541229 25 1
-38.765114 333.994510 -60.812447 12 1
-40.097351 150.230800 -15.870732 49 1
63.115181 385.950710 26.616373 54 1
69.710449 127.141390 -23.174707 0 0
-23.862282 350.509610 19.288870 27 1
-40.094208 160.211170 52.427891 50 1
21.958799 300.331510 41.149395 38 1
-46.648701 171.713940 -48.766388 47 1
-0.455137 148.934130 26.113667 0 0
27.889057 128.475300 35.936890 0 0
-0.771396 220.822880 61.800560 0 0
42.476376 399.047360 -36.513363 34 1
-79.275826 142.054050 14.565940 49 1
70.909760 238.039840 -37.108646 0 0
104.431340 189.382740 18.895136 16 1
-30.258383 166.715520 19.928913 48 1
23.569199 156.540310 -26.236046 0 0
118.435420 269.268040 44.305763 40 1
43.527821 341.537020 2.891276 0 0
106.496250 172.313740 72.079865 15 1
-19.695368 302.486600 38.273445 26 1
-12.189592 58.862400 20.461540 0 0
10.004879 135.177320 36.034126 0 0
17.766344 263.723240 -14.022596 0 0
-4.106815 254.943360 -35.723480 0 0
1.414247 284.906070 73.185463 25 1
80.928520 109.913790 -20.322754 10 1
106.220980 164.602780 -63.538712 7 1
-62.813168 156.389660 -48.549862 47 1
-43.850307 157.242870 -67.983223 14 1
84.989540 236.857910 -102.425800 45 1
43.263935 298.639530 2.516953 0 0
72.474365 124.183120 -12.036839 10 1
78.111214 303.688050 0.349501 39 1
105.277740 318.714600 -2.353902 20 1
-80.074547 141.635650 -0.857078 49 1
36.870705 168.180180 -26.485987 0 0
29.963324 170.836400 4.548895 0 0
15.144448 215.919330 2.728257 0 0
141.927950 257.267880 22.361052 22 1
96.141060 243.424180 28.837517 42 1
105.543430 296.352110 -0.039069 39 1
57.431850 287.786770 51.249813 38 1
37.679054 315.537050 -15.757999 0 0
24.113960 326.268800 66.528244 36 1
50.571682 340.258450 14.020634 0 0
-0.396120 73.979591 -3.293579 0 0
17.444656 328.765990 51.086418 36 1
99.726227 302.543460 18.214737 39 1
-21.845209 139.474790 69.674698 50 1
88.530998 384.506900 4.758332 54 1
10.849487 129.472980 13.097982 0 0
2.179887 137.104450 46.670345 0 0
59.513885 275.743620 4.647461 0 0
51.885406 301.979060 77.203339 28 1
28.068829 315.052610 -72.556519 23 1
91.907761 101.415350 -5.028482 10 1
84.800278 381.481020 48.281929 53 1
8.841352 179.507510 -10.829871 0 0
2.344147 158.751890 -26.445185 0 0
-9.964819 179.989550 22.600683 0 0
-26.456139 143.118960 56.771523 50 1
-47.406498 162.076190 -30.611607 47 1
39.943489 380.962770 35.744091 29 1
12.745761 228.650760 -10.075902 0 0
49.938423 248.404100 -91.075127 45 1
-62.371693 165.957990 48.601460 6 1
53.024197 313.132930 63.678623 28 1
-17.324064 129.361660 54.618443 0 0
56.786823 226.820660 -9.780731 0 0
101.327640 330.359470 65.908401 19 1
52.693829 378.653440 -4.334402 30 1
77.770897 298.324250 45.540718 40 1
22.488956 315.910610 -54.786888 23 1
99.882980 288.869350 50.308907 40 1
-9.800925 318.505980 -64.870926 23 1
66.008820 277.298650 37.430222 0 0
0.684483 158.452130 17.301048 48 1
34.206665 404.132870 -42.573860 34 1
-17.080408 326.239590 44.742729 27 1
-0.897794 221.967850 -19.613348 0 0
63.657562 258.608730 -10.634149 0 0
18.213760 237.726880 -12.019809 0 0
65.915604 384.553620 -23.142488 34 1
22.412025 177.538450 -25.847755 0 0
104.596860 182.666240 -62.006023 7 1
108.036580 240.940780 -35.700054 41 1
128.503420 321.147430 70.444092 19 1
31.816177 389.901790 12.880037 29 1
64.220612 116.493660 -32.200413 9 1
29.753187 134.864960 -13.427243 0 0
83.540268 200.761110 39.039280 16 1
3.819156 298.827610 47.939320 26 1
24.104866 378.815830 8.049791 0 0
36.738960 309.691100 36.182861 38 1
-53.786621 145.505190 -63.838696 14 1
-19.296066 161.259780 -95.449821 13 1
5.188433 206.216480 -9.925242 0 0
106.059940 287.586210 18.086166 39 1
-22.312567 76.560883 11.897587 0 0
-14.198714 117.528580 20.548510 0 0
-4.114656 121.302260 -23.102139 0 0
3.379827 199.806020 144.945220 55 1
98.006378 254.468290 11.933892 42 1
-12.877501 64.852066 0.765871 0 0
-5.839253 170.512020 41.699173 0 0
-87.221718 154.094600 4.560889 49 1
-4.614303 348.511690 -108.453800 1 1
-48.839134 127.965840 -39.131035 46 1
-67.153976 131.401310 -67.957626 14 1
-54.296337 313.845030 -58.204742 12 1
98.812416 232.474330 -46.834080 18 1
37.978348 204.511960 -52.566227 43 1
-1.791084 132.079790 21.663467 0 0
-11.993896 151.570970 -92.900024 13 1
26.118208 263.715270 36.953159 32 1
27.913589 370.191800 44.939171 29 1
98.490181 319.259250 23.734074 20 1
-18.280960 345.214600 -69.440865 1 1
1.085483 236.711030 102.121060 25 1
90.364166 284.422760 60.857216 40 1
3.922866 274.802580 -10.679174 0 0
20.297174 239.409290 6.360803 0 0
-12.625317 233.914150 -61.549885 11 1
77.619034 397.123320 52.219067 53 1
-65.324265 160.548190 77.541603 6 1
34.406330 210.699300 -118.168660 52 1
41.837826 279.829380 11.155747 0 0
43.931976 379.568760 15.293089 29 1
20.664495 133.625930 54.128223 44 1
42.453960 360.804990 -4.644864 0 0
5.181523 324.328310 -60.443287 23 1
-43.647087 239.089630 48.895397 37 1
63.765476 190.809310 63.961945 17 1
-13.497966 184.296740 125.700160 2 1
93.205727 281.114750 -5.724361 39 1
84.329651 292.513280 -7.456183 39 1
4.957215 55.307823 -14.006937 0 0
58.372810 383.047420 5.698582 30 1
34.350018 297.511380 68.195274 38 1
59.811424 227.026350 1.284106 0 0
66.167038 195.102460 40.666573 16 1
76.658295 93.558220 -48.210300 9 1
27.055536 213.896550 -14.307375 0 0
-0.532031 351.058320 -91.281555 1 1
73.312630 315.634580 60.458900 28 1
-7.811615 208.096660 116.499210 2 1
83.607430 109.781300 -39.253044 9 1
152.103530 256.541470 20.531305 22 1
-3.535564 348.323490 -79.498299 1 1
17.758493 309.612880 33.563549 38 1
-27.519442 333.782530 -43.763451 12 1
26.783823 131.995800 13.788870 0 0
44.596130 221.672030 -92.436188 52 1
22.344641 267.751530 -22.653923 0 0
-79.475655 165.972730 54.842941 6 1
-79.947289 172.667940 3.679623 49 1
67.177834 311.455900 70.857498 28 1
-3.529124 229.144200 -68.046806 11 1
123.166130 260.563480 30.786757 22 1
17.426786 222.514020 -99.219391 52 1
9.137917 247.164460 70.834267 35 1
33.355633 357.418910 -1.056531 0 0
9.144655 232.562520 60.023273 0 0
67.798103 221.681230 -110.138640 45 1
-13.894293 290.602390 49.712540 26 1
13.509322 150.018860 -24.691990 0 0
71.009483 107.089110 -40.024441 9 1
88.653412 235.970840 -47.823341 18 1
47.381649 304.255310 48.991779 38 1
35.589561 389.456210 -43.142666 34 1
27.116816 253.883700 32.705063 32 1
0.425150 179.298740 -33.987312 0 0
-9.885176 115.280570 -17.104534 0 0
-9.879403 299.488980 38.415466 26 1
-14.143005 134.136080 65.539650 50 1
92.404297 265.023800 -17.583450 41 1
81.502609 117.879610 -26.735224 9 1
8.869496 258.065700 87.969322 25 1
38.116020 318.070100 52.178715 28 1
81.660263 389.719540 33.573910 54 1
24.125029 366.510440 5.898244 0 0
-20.026091 167.676480 48.513996 50 1
-11.686052 184.935580 35.112057 0 0
-67.692322 137.944850 -21.737106 46 1
100.732990 340.518010 49.859478 19 1
-0.940422 118.613440 -8.321069 0 0
-12.941735 158.555280 -26.448412 0 0
29.050200 180.597380 -3.585014 0 0
-18.185305 326.211580 -38.757370 12 1
-30.460804 85.206314 108.069810 4 1
27.847252 223.849120 -83.806885 52 1
2.348796 319.745300 -81.297958 23 1
103.745740 289.770080 35.645103 40 1
30.072145 272.239750 79.334793 25 1
118.419220 331.017210 72.706993 19 1
105.639310 253.879490 -14.751828 41 1
68.214714 264.155790 72.080193 31 1
21.321190 127.885660 -13.718780 0 0
-7.063300 232.541670 -78.643402 11 1
4.183454 316.066010 56.220375 38 1
-73.141380 153.030940 84.244057 6 1
3.736166 102.934140 56.162136 5 1
40.757969 166.903000 17.964834 0 0
-76.166039 159.390170 6.120769 49 1
-33.957047 69.444641 26.273676 0 0
29.087923 164.182500 -13.641049 0 0
-58.490597 165.458850 30.607254 49 1
107.520650 216.473340 -18.447084 18 1
29.510931 331.525150 -4.440098 0 0
-8.871783 123.005180 53.974174 44 1
26.945690 264.710240 6.731470 0 0
63.869999 256.185460 -85.384323 45 1
-50.244968 147.635090 -20.075552 49 1
19.713343 133.976390 38.616402 0 0
17.895983 376.269440 -2.273420 0 0
-29.896742 171.683590 42.533680 50 1
-26.225014 199.804320 -90.194267 11 1
-15.691279 239.271680 -70.812500 11 1
41.160900 139.957110 1.271406 0 0
69.926056 261.476930 31.763054 51 1
106.997480 282.768950 -25.722677 39 1
28.774889 249.252840 6.788020 0 0
32.730148 313.241790 14.514402 40 1
42.525192 288.542390 41.457790 38 1
-36.334442 335.772860 -70.434509 12 1
-27.273684 84.098412 20.138760 0 0
-49.618000 148.718800 -51.932926 47 1
48.317627 311.624180 0.630543 40 1
-50.527122 144.164790 7.835566 49 1
65.542206 371.677950 8.283825 30 1
139.941830 260.529480 4.174618 22 1
100.507430 292.846190 -10.200706 39 1
6.796488 98.202316 67.798439 5 1
-24.372358 351.352360 -103.226870 1 1
104.431860 180.752490 -51.299706 7 1
105.387560 240.615160 26.155132 24 1
109.303260 186.614440 -79.984779 7 1
12.312166 243.530180 99.728333 25 1
-12.688852 283.819980 58.779930 26 1
156.816910 249.124600 25.791029 22 1
58.851154 199.215000 52.245426 17 1
80.832062 101.168790 10.844470 10 1
4.283048 181.809840 -1.514731 0 0
26.211502 386.678890 22.763283 29 1
28.422890 330.730440 5.494693 0 0
-15.613683 353.735050 -117.035000 1 1
-32.098404 157.146820 57.560127 50 1
4.038381 162.592410 -9.248091 0 0
21.860359 283.654720 71.340118 25 1
34.140713 301.164920 10.899643 0 0
-84.230667 101.523690 -32.231606 46 1
20.235954 247.571990 72.344437 35 1
-17.342373 240.532390 51.812756 37 1
-40.403038 146.036360 66.230118 50 1
47.645714 299.231140 24.426519 0 0
62.119541 309.090640 48.687889 38 1
38.567451 196.592530 127.210330 3 1
22.701820 335.204590 62.354679 36 1
5.552906 125.293850 52.750591 44 1
14.317880 224.357940 -54.086857 43 1
127.204790 292.783660 6.026027 21 1
-56.773731 115.091590 -87.183609 14 1
-55.565918 143.076830 23.792667 49 1
-13.278256 109.174920 80.700554 5 1
-1.363145 39.259693 -8.820593 0 0
-7.100134 216.550000 -94.518471 11 1
29.783447 292.969760 -1.789178 0 0
75.905632 293.577060 37.023972 0 0
91.432213 235.983800 33.414318 24 1
65.960480 295.889190 78.359619 28 1
52.944710 188.017440 31.428820 0 0
-23.093103 160.402040 -48.808025 47 1
62.924694 325.032710 30.722420 0 0
99.794754 231.362920 -22.147657 18 1
93.671417 251.843140 -10.296305 18 1
-14.418516 248.497010 40.682983 37 1
59.178299 304.180760 4.261952 40 1
116.605630 262.214780 8.215557 22 1
115.211130 255.400420 15.498853 22 1
-8.060402 14.574191 -3.255346 0 0
18.731010 298.112000 58.681080 38 1
41.891171 326.686710 10.428700 0 0
94.169930 189.583470 35.812065 16 1
33.787762 249.035800 38.573658 32 1
61.759075 366.566620 62.606155 53 1
-7.886777 145.072480 -29.373667 0 0
19.908682 272.442230 12.141726 0 0
-53.402870 145.244420 -73.670784 14 1
-24.245829 164.878690 37.044285 50 1
-8.610779 131.337190 28.709824 0 0
22.993389 260.740330 63.352940 32 1
48.624775 202.278340 -19.289373 0 0
51.639946 390.173100 -44.137009 34 1
113.028340 286.585750 -16.568602 39 1
99.371216 219.925190 -70.735107 7 1
1.756687 188.540210 79.733589 0 0
41.510735 165.714200 -16.344316 0 0
39.550220 355.769710 11.806129 0 0
106.867450 276.456390 42.506802 40 1
-82.900673 160.590840 -2.240254 49 1
59.101913 386.091370 -8.842785 30 1
1.880827 195.685670 125.982280 2 1
16.742588 315.016910 61.549049 38 1
-3.619095 224.935090 53.369392 0 0
20.546547 102.900470 -13.773741 0 0
20.596367 263.815030 87.931229 25 1
-30.488596 229.035980 -79.231949 11 1
39.552147 320.036930 17.203892 0 0
-77.376450 134.773970 -30.959015 46 1
49.938507 386.567900 -19.938501 0 0
33.130943 404.569520 -32.762608 34 1
77.191536 333.683930 6.587876 20 1
-7.407965 142.732320 23.175619 0 0
-7.827822 124.897070 18.961573 0 0
37.075932 126.889310 31.625881 0 0
24.696182 254.858640 86.515976 25 1
4.548555 214.362010 52.630505 0 0
16.524429 117.625020 65.125252 44 1
0.311156 196.988850 99.953827 0 0
72.257874 304.880580 29.297979 40 1
-12.832876 166.146620 -79.195435 13 1
-39.711945 171.509490 30.229441 49 1
25.996143 256.439000 48.061558 32 1
65.093056 368.546780 -6.533931 30 1
67.838997 292.163540 23.954645 0 0
15.152203 94.359062 -24.301514 0 0
101.461240 200.043210 -66.360977 7 1
16.784035 194.892620 -6.854054 0 0
22.702496 240.197880 78.899094 35 1
-17.294420 197.287020 115.610880 2 1
103.573260 228.601840 40.570614 24 1
-33.564796 213.959400 -81.787315 11 1
29.231405 115.724280 -11.677901 0 0
-21.128046 346.971740 -86.005493 1 1
23.338181 126.579770 -1.242821 0 0
17.571301 141.423900 48.873016 0 0
97.427124 318.098050 3.314137 20 1
-56.386341 160.129530 -42.331490 47 1
-53.302826 157.159420 19.614059 49 1
-64.843178 176.755690 18.619793 49 1
61.558296 289.229710 37.714668 0 0
-79.793289 124.733890 -24.750376 46 1
-13.507996 313.612820 49.711761 27 1
29.478357 315.032680 -87.466217 23 1
-4.122409 243.624910 96.557304 25 1
94.474625 89.603340 -38.031113 8 1
-13.880879 161.217440 -9.009536 48 1
43.239723 183.506390 -14.303596 0 0
19.030302 321.482730 -72.664803 23 1
60.665985 281.065340 -3.447993 0 0
19.865498 186.929020 -26.640223 0 0
-89.073570 109.758490 -18.981373 46 1
24.471037 306.351440 3.539641 0 0
108.841190 180.457230 28.220381 16 1
85.998138 203.814770 60.377850 15 1
50.632114 285.656220 68.427277 38 1
-71.361023 164.372300 30.682602 49 1
-8.179790 352.558410 33.432629 27 1
32.697437 239.252870 -8.195266 0 0
5.694111 188.645540 -10.933501 0 0
85.315193 307.010990 15.597840 40 1
114.648900 280.418210 16.253063 39 1
74.710976 327.525760 34.594101 20 1
-34.022762 171.365570 -53.027126 47 1
-50.454407 141.427440 -27.544024 47 1
86.174835 396.299840 47.425720 53 1
61.415977 398.408720 -28.162075 34 1
16.048567 224.127730 -2.268313 0 0
-26.547880 159.844060 -30.623789 0 0
8.010381 223.630200 -71.290367 43 1
102.031490 191.469020 68.769257 15 1
-61.465935 163.139480 61.054916 6 1
4.599923 126.528490 6.423022 0 0
0.133587 174.319140 4.476394 0 0
10.598025 232.442900 -24.068817 0 0
16.625208 245.681760 -0.357612 0 0
23.201807 218.399550 -44.171127 43 1
47.712051 203.933070 -58.031925 43 1
-17.467194 348.318910 -94.759735 1 1
83.089874 329.116580 22.838499 20 1
59.272987 182.710160 77.959663 17 1
0.275135 73.471893 -12.807203 0 0
16.693113 112.883250 -17.035423 0 0
89.794472 388.505580 18.476618 54 1
70.786812 380.452970 32.378387 53 1
82.781998 236.540150 -37.146606 18 1
-30.450001 103.279970 99.727692 4 1
-15.236339 354.592190 19.630295 27 1
-4.365410 253.130810 99.977592 25 1
74.683014 386.024140 17.715235 54 1
6.420985 135.646760 -23.360466 0 0
-34.042004 137.019810 9.231650 0 0
6.216995 215.762880 -18.419971 0 0
62.421040 294.010860 0.986793 0 0
38.059113 298.202360 33.521637 38 1
-24.877213 56.073719 27.464329 0 0
46.107643 181.503390 125.199020 3 1
89.521446 244.458450 -85.710815 45 1
58.656971 324.284790 43.558113 28 1
57.990887 259.473140 2.622832 51 1
51.358871 389.791560 7.949069 30 1
94.288254 304.535680 41.303722 40 1
116.101130 339.545230 61.002907 19 1
-21.146612 104.857510 -3.198941 0 0
-5.351291 164.423650 -28.175802 0 0
66.274277 259.736910 -74.921021 45 1
-34.184109 328.860750 -29.262766 12 1
53.093399 384.707980 26.451963 30 1
-8.867064 312.353610 -57.069237 0 0
57.889343 312.467440 72.927734 28 1
17.240124 215.330470 -22.564358 0 0
39.748474 126.812940 -26.540310 0 0
41.113026 312.315400 -87.793564 23 1
117.071220 247.715840 -22.448349 41 1
75.451088 227.711430 -115.744100 45 1
108.800320 223.511930 -34.696178 18 1
24.950909 234.047970 -2.197759 0 0
35.601322 312.187130 -78.127602 23 1
26.280779 176.121580 -17.347095 0 0
22.873121 185.344380 124.097750 3 1
18.855759 306.106660 63.857430 38 1
4.858029 106.078040 -21.954636 0 0
55.511253 265.660610 81.396729 31 1
32.651676 378.252350 41.261688 29 1
21.084999 268.763210 79.684662 25 1
72.323219 368.265590 57.380260 53 1
20.759445 279.663390 -3.177926 0 0
-5.653879 147.067580 -38.416702 0 0
70.389328 306.121250 20.161907 40 1
2.416157 199.396730 48.157890 0 0
79.181709 245.784000 29.132721 51 1
1.356260 300.077880 63.531662 26 1
60.865345 312.438020 20.356770 40 1
23.118946 146.362260 31.452236 0 0
20.939535 289.342100 -7.979170 0 0
-76.709129 151.264340 20.874956 49 1
27.767694 274.420100 -6.917188 0 0
-11.502546 209.629930 -99.046242 11 1
134.057430 258.380650 16.922323 22 1
-21.903055 88.485901 106.133670 4 1
-30.312067 170.647800 -88.247635 13 1
22.011591 103.752700 64.033150 44 1
38.554569 193.217580 -47.626282 43 1
29.219954 192.445050 -42.264912 43 1
98.663979 216.340160 -86.323479 7 1
6.692961 321.558560 35.555885 36 1
-6.339263 115.582710 82.149178 5 1
-75.041702 116.652230 -66.805130 14 1
84.599770 309.760590 -2.480213 39 1
-18.983980 113.462880 8.781005 0 0
27.664808 215.191540 -113.392920 52 1
-9.645924 279.967740 68.582878 26 1
-50.139957 174.719180 -3.765101 49 1
2.668042 144.232450 57.085941 0 0
36.874603 215.793270 -57.217567 43 1
39.222263 134.611470 20.061228 0 0
57.533970 384.040280 39.976643 53 1
31.439709 227.522890 -46.931950 43 1
-35.050167 272.116390 68.700096 26 1
49.813019 406.614780 -40.146816 34 1
16.409813 322.016570 -6.851249 0 0
-34.863094 170.607960 -37.995686 47 1
83.601227 253.336210 -32.610149 18 1
31.912710 319.679470 64.105545 38 1
55.219513 262.473300 -16.506691 0 0
23.733360 105.286960 52.539330 44 1
5.936431 271.027280 86.947861 25 1
40.813049 288.943570 12.777768 0 0
-15.644982 328.646640 -56.982430 12 1
72.106445 262.580380 15.991077 51 1
37.320286 288.743530 -8.336922 0 0
103.653850 199.965320 -89.751358 7 1
-60.288189 155.989470 -57.574043 47 1
137.589310 294.505220 -20.915880 21 1
-1.421543 313.780940 36.861843 38 1
-17.007530 128.939640 13.167706 0 0
53.891605 357.484470 75.255882 53 1
26.094833 317.821590 8.286072 0 0
-23.706499 278.953060 59.756840 26 1
26.094118 224.048430 78.824966 35 1
-5.934134 242.682740 105.598760 25 1
32.044415 207.783710 -109.700190 52 1
-56.144012 161.253920 11.070012 49 1
43.630871 174.188420 24.079268 0 0
77.070198 253.483380 -43.375694 18 1
-25.697916 293.352080 51.303963 26 1
-15.495587 240.432330 34.083332 37 1
-47.740154 164.601330 42.584255 50 1
7.199691 222.891770 -80.681969 11 1
35.311123 382.624050 20.272783 29 1
8.786496 218.529390 -114.596510 52 1
-57.315338 171.451020 11.280807 49 1
-1.580268 339.893770 -75.681107 1 1
107.248440 207.271060 -69.621948 7 1
-3.227246 198.596020 133.243590 55 1
97.904716 80.351944 -23.205118 8 1
-44.874802 129.796710 -93.968422 14 1
53.705502 254.235870 -72.452888 45 1
-5.713555 66.620895 -26.526735 0 0
-18.228903 129.195950 -11.625400 0 0
-53.140617 163.786530 -60.905815 47 1
-58.103168 322.253720 -42.282532 12 1
39.737278 203.704860 -39.553268 43 1
16.466925 169.246900 15.187313 0 0
-27.221281 178.178420 36.077446 50 1
26.647970 313.656220 36.367496 38 1
62.373447 258.541960 18.457079 51 1
-47.946953 156.873810 36.129288 50 1
34.040157 268.018430 15.882651 0 0
-36.338451 83.718300 22.419939 0 0
91.412720 333.151340 52.954395 19 1
-71.296616 160.483840 -9.209932 49 1
80.603477 245.981430 -22.863140 18 1
-82.994858 117.045640 -34.583603 46 1
43.491268 334.691710 -3.198404 0 0
61.054951 379.351720 58.952869 53 1
-2.472965 188.795580 155.672300 55 1
-29.112503 137.312240 20.148952 0 0
103.407820 280.479860 51.333172 40 1
49.757553 297.813050 58.052525 38 1
73.228294 250.413640 -87.754791 45 1
-24.391432 50.417763 9.967826 0 0
-36.292393 144.105010 58.151833 50 1
62.309376 379.666690 -1.837316 30 1
1.159066 100.377980 -2.209304 0 0
55.673519 218.347670 -13.181692 0 0
-88.059776 124.467060 -8.003654 46 1
-62.292671 132.289700 -28.252485 46 1
-12.250136 104.174150 95.299629 4 1
33.606766 124.509820 49.820507 44 1
83.674095 105.660130 2.609908 10 1
-15.103894 51.777306 6.186764 0 0
-7.153920 248.835630 81.272636 25 1
75.792702 326.589320 43.603706 20 1
45.007084 276.707060 3.195190 0 0
-35.666214 278.669620 57.015938 26 1
-58.931995 161.542720 -1.318314 49 1
18.782829 223.506550 -84.699051 11 1
-3.733047 326.009280 51.028465 36 1
-18.886959 241.024280 78.632217 25 1
82.147606 205.918260 26.206898 16 1
89.142365 321.152470 13.786928 20 1
151.117430 254.842390 11.608219 22 1
94.491119 289.172730 1.229065 39 1
-38.672913 172.313280 -65.259773 13 1
51.945068 347.961520 19.120163 0 0
-7.662117 131.917620 -30.300674 0 0
-18.577896 219.939960 -83.696602 11 1
-9.490126 241.817340 56.422905 37 1
64.870598 107.233970 -31.174816 9 1
-25.519873 144.940930 -17.922806 49 1
39.212006 123.081570 22.251478 0 0
-27.022606 152.103260 51.459091 50 1
22.580286 173.778950 -1.215495 0 0
22.562071 219.160170 -53.356468 43 1
-0.774345 157.182310 34.604832 0 0
80.382500 254.347380 -58.154968 45 1
35.329483 374.797120 -5.808031 0 0
22.016073 246.747130 -17.428604 0 0
-27.157991 247.329670 45.627098 37 1
57.496780 283.701170 9.493047 0 0
102.196920 212.195910 -53.570942 7 1
68.607193 283.377810 54.556774 38 1
68.033348 227.780880 -4.109803 0 0
124.080410 257.586210 22.129839 22 1
13.517100 202.747190 -10.383548 0 0
-76.183037 136.399930 -11.413613 46 1
12.229235 305.983430 -5.833452 0 0
34.471550 288.793210 45.713867 38 1
-16.715982 176.396420 32.940231 0 0
83.958855 291.144900 57.271236 40 1
-16.877398 73.420464 4.890303 0 0
1.446729 147.259050 -31.419369 0 0
87.647469 307.160770 24.298302 40 1
4.834861 117.770200 8.630876 0 0
59.432007 241.961070 -10.984996 0 0
-32.688744 154.100110 -58.009274 47 1
51.233696 192.449420 66.134460 17 1
113.841870 344.187530 50.834934 19 1
-22.291718 151.939560 -55.142166 47 1
55.927948 404.726560 -24.844381 34 1
8.750773 315.136690 -70.091072 23 1
62.912834 246.214660 -98.404427 45 1
61.489922 296.004490 49.095661 38 1
44.628418 206.331280 -46.730171 43 1
1.030441 151.387210 49.787552 0 0
25.565933 167.997090 12.160236 0 0
0.297268 220.260710 -10.497445 0 0
13.131807 160.742280 -9.019032 0 0
98.655075 183.136580 75.469208 15 1
28.465828 133.300050 -4.315999 0 0
-54.193245 322.865080 -55.155949 12 1
16.507093 221.007320 -66.162712 43 1
14.716393 258.297450 47.363541 32 1
21.121559 250.832990 64.035339 32 1
33.540894 295.955570 59.084858 38 1
22.213028 139.545230 9.007011 0 0
42.519337 337.318510 11.320462 0 0
31.175909 221.727860 -92.531471 52 1
117.835310 252.848280 -6.606798 41 1
91.941315 227.659030 -57.987122 7 1
-5.711714 336.907350 -66.915848 1 1
-73.507385 163.904130 21.199648 49 1
-44.439602 326.533290 -51.017296 12 1
-31.792370 108.714790 22.792246 0 0
-31.910084 327.440060 -48.740372 12 1
100.093530 219.937760 -60.576660 7 1
51.913986 212.347960 -43.507118 43 1
-32.070580 335.898500 -55.165432 12 1
34.886868 242.602510 67.324036 35 1
-24.496967 322.192500 41.666424 27 1
40.044922 210.288670 -32.503117 43 1
13.973911 321.338780 3.101810 0 0
-42.670853 329.830050 -39.819393 12 1
49.036694 196.137180 -9.755568 0 0
75.734764 204.607270 45.497269 17 1
8.628698 330.543550 50.848709 36 1
36.596935 215.363020 -73.810234 43 1
-7.921077 76.653297 -18.985035 0 0
75.129799 306.898220 54.582569 38 1
-52.728508 162.921510 64.251640 6 1
27.014349 365.735080 -4.464618 0 0
55.554127 366.438540 69.204277 53 1
45.975292 289.786250 59.617207 38 1
27.002600 115.718570 55.917503 44 1
-14.185879 56.299736 -3.671455 0 0
29.355574 197.360200 119.323230 3 1
-5.518793 338.557100 39.359451 27 1
97.576767 88.755310 -26.492516 8 1
72.892914 252.185420 25.232586 51 1
-13.768465 346.771060 -76.955620 1 1
31.873007 323.954010 49.962948 36 1
102.614040 261.228300 -18.667393 41 1
-21.694830 97.570984 102.114430 4 1
22.671303 381.025150 32.386055 29 1
-5.330670 291.364690 70.519623 26 1
-4.202778 124.053550 8.005166 0 0
58.043938 251.985520 -90.602127 45 1
-26.105120 157.840300 -100.060170 13 1
