-8.197649 56.657642 0.206687 7 1
16.224867 46.860229 -10.896498 3 1
-1.284563 46.513496 6.014405 0 0
-29.527082 28.518940 17.528402 4 1
-22.783314 36.559563 17.698221 4 1
-25.523628 35.869892 15.070347 4 1
-19.925215 41.064095 0.506341 4 1
16.502615 56.490543 1.988603 2 1
25.762238 46.812927 -0.241519 2 1
17.469164 52.416096 17.805859 1 1
-5.396732 53.776470 8.128232 7 1
-16.870729 39.610802 -0.309440 4 1
-4.751512 26.719858 -15.991934 6 1
-16.878504 47.161148 19.643784 4 1
-1.928951 34.527576 -1.332064 6 1
-5.065473 33.795223 9.357815 4 1
-0.554422 51.542965 -3.289209 7 1
1.633023 35.284859 -18.793859 6 1
-5.418547 56.102249 2.887457 7 1
23.487089 52.613083 9.163591 2 1
18.289976 51.676750 21.439228 1 1
0.029177 51.652878 11.466810 0 0
23.859760 45.684063 9.060093 2 1
-32.035393 28.064259 13.222030 4 1
13.968859 53.106426 -4.137037 3 1
9.760158 52.409229 7.390557 2 1
-5.508116 27.920074 -11.381680 6 1
14.760011 49.987862 2.003288 2 1
19.113277 44.759594 -5.898319 3 1
-25.657244 37.605122 -2.494502 4 1
-28.407293 41.534031 22.819092 4 1
-7.032653 38.489677 8.825520 4 1
-5.037568 47.561844 4.414735 7 1
-2.465373 33.609840 -13.181782 6 1
2.577807 35.282097 -16.420769 6 1
21.628473 47.879631 5.188331 2 1
-3.449516 48.086227 -11.947048 7 1
-10.143029 58.597504 13.482579 5 1
-7.992665 58.132923 14.615257 5 1
-3.446960 35.842552 3.512203 0 0
10.920451 55.796631 14.473719 1 1
3.186416 28.977358 -19.816792 6 1
-0.956335 1.635372 3.971272 0 0
-4.700848 42.250092 -12.720957 6 1
-9.703971 49.738811 -3.881964 7 1
-9.830792 24.762640 -14.788567 6 1
-19.705906 36.884895 7.395844 4 1
-4.484600 35.444698 -5.069527 6 1
12.193780 50.116482 2.023679 3 1
-2.062653 53.984764 -1.768354 7 1
26.962307 44.463428 5.816773 2 1
-3.415584 49.227573 -2.402024 7 1
-24.776531 42.338665 11.377720 4 1
1.957044 43.370331 -11.457465 6 1
8.417227 59.502968 7.635356 2 1
-32.826946 33.905212 3.905905 4 1
1.904623 38.706707 -8.012692 6 1
-5.918650 35.220417 -0.964497 6 1
-27.658333 33.354645 18.521469 4 1
-15.306202 48.381096 17.222752 4 1
-19.451845 43.975872 15.310723 4 1
-8.269055 33.138344 -9.949604 6 1
-5.896943 16.204967 -13.038803 6 1
3.279469 32.372917 -20.133345 6 1
5.024368 57.287785 6.767853 3 1
1.081738 36.619785 -4.749425 6 1
-23.648270 34.938606 7.391190 4 1
12.423823 58.089893 3.292435 2 1
-3.860920 24.001989 -11.699404 6 1
-8.762975 30.485826 -13.214303 6 1
-8.782185 53.119110 -6.073852 7 1
-2.257152 27.135088 -11.623492 6 1
12.990897 44.596939 -11.777470 3 1
-19.870188 39.335991 -2.120202 4 1
-4.361934 20.194361 -12.019078 6 1
-6.736726 36.817402 -2.545232 6 1
0.667575 33.004051 -4.146509 6 1
-4.887670 47.693871 8.133566 0 0
-14.024747 51.603600 16.795845 4 1
-13.265064 45.791607 17.895977 4 1
18.221445 48.004490 -5.586112 3 1
-1.102856 34.330582 -10.007266 6 1
-12.397192 37.702255 -5.416459 6 1
-13.055855 34.478100 -14.425004 6 1
23.275076 50.207851 6.882682 2 1
-12.161532 38.621803 9.249358 4 1
-8.663304 44.974442 10.318785 4 1
-10.686506 49.541389 -6.443987 7 1
-7.938448 56.737656 7.160340 7 1
-12.591697 21.869404 -13.328286 6 1
28.832663 47.459782 13.527584 2 1
-11.116405 37.796024 7.263833 4 1
-3.060522 29.439631 3.036491 0 0
-26.024727 39.627167 16.726080 4 1
-3.758241 54.736706 9.301729 7 1
7.209966 57.658451 18.811501 1 1
14.334550 55.419266 -1.830255 3 1
-26.995447 34.147518 8.514143 4 1
18.616524 54.220024 -0.067334 2 1
-16.392670 37.524853 5.820016 4 1
-9.684783 56.380947 16.193521 5 1
5.295825 57.586346 3.638516 3 1
24.456146 47.990372 -1.523353 2 1
10.982295 54.883511 16.905231 1 1
-18.691263 37.314224 3.366742 4 1
27.017887 45.639168 1.098536 2 1
15.282978 53.923943 12.492621 1 1
-3.311172 33.086308 -6.627810 6 1
-2.388646 32.884865 7.666131 0 0
-10.782021 57.829956 20.662458 5 1
-3.025654 29.283516 -10.891047 6 1
6.952592 56.604679 1.380083 3 1
-5.436302 35.872627 7.223018 4 1
-7.295160 49.412128 -10.629159 7 1
-14.671216 38.870094 -7.546191 6 1
12.175789 47.241062 -6.003870 3 1
0.124257 40.665638 5.619561 0 0
-15.233140 37.379650 -0.079455 4 1
-28.827213 30.144148 21.413734 4 1
27.083878 46.204945 3.796780 2 1
9.541374 50.398109 8.986705 1 1
8.834521 54.592396 19.626226 1 1
-1.917347 19.464045 -13.977689 6 1
-11.784693 26.083094 -15.946390 6 1
-2.326386 49.013313 -8.473434 7 1
-0.799118 2.839893 1.820417 0 0
-12.054011 41.467628 11.023242 4 1
-2.286634 51.585258 -6.593131 7 1
-17.343702 39.481079 6.393421 4 1
9.763785 53.806004 -4.858197 3 1
-27.182240 33.288975 15.453311 4 1
-21.053644 37.127274 1.682040 4 1
19.818703 41.817894 26.196049 1 1
-25.151737 37.224922 -0.405487 4 1
-5.387390 34.974121 1.084047 6 1
-14.014881 39.107731 -4.854288 6 1
18.346416 47.066422 -9.112009 3 1
7.556963 53.435272 13.025226 1 1
-13.045032 38.308414 -2.799795 6 1
-0.508601 49.062489 -5.106405 7 1
7.964224 55.953403 26.942781 1 1
-7.897666 34.644039 7.405716 4 1
-2.625668 22.857975 6.250859 0 0
12.470126 46.599834 30.055878 1 1
-6.361051 34.545971 -5.233877 6 1
24.573765 50.840984 12.238979 2 1
-16.014338 40.140812 2.602306 4 1
-4.830429 36.758041 2.249868 0 0
-12.579470 36.806740 3.317491 4 1
-5.006050 53.907486 2.012798 7 1
0.955696 52.178730 9.222484 0 0
-0.648021 50.338444 0.413222 7 1
12.281179 55.888660 10.705835 1 1
-2.236743 15.921664 -11.772763 6 1
-12.914779 44.306381 14.022695 4 1
15.118760 49.621971 -9.290588 3 1
-3.263769 40.671654 6.729106 0 0
-17.498949 39.525082 -2.575918 4 1
-12.378757 36.032597 -11.101639 6 1
27.744186 42.809624 4.839480 2 1
-18.094063 41.424873 11.788919 4 1
9.822270 47.741062 -9.495661 3 1
18.656200 50.096531 0.334572 2 1
-1.763528 38.315113 -2.863887 6 1
-1.474712 51.082836 -10.323100 7 1
14.405020 43.644798 27.295288 1 1
-3.213841 25.899096 3.515033 0 0
2.445551 37.794079 -19.252542 6 1
-32.543671 29.917732 11.827012 4 1
-11.277050 38.027451 -8.053226 6 1
14.298544 52.147278 22.800438 1 1
-8.519584 55.703186 3.318834 7 1
6.947695 53.002636 -10.357344 3 1
-15.441456 36.669903 -13.429353 6 1
-2.248522 36.047829 -8.509495 6 1
-27.159431 39.918060 22.529684 4 1
11.120877 58.740517 4.869594 2 1
13.451504 46.713215 -3.849782 3 1
-8.208270 38.204014 6.920609 4 1
-21.559261 46.132713 15.137454 4 1
-10.507827 19.080334 -14.465933 6 1
-11.109503 58.500614 9.722251 5 1
15.703834 51.162403 3.424140 2 1
21.718367 51.605270 1.909911 2 1
-3.152484 22.156548 -12.258794 6 1
-3.856985 47.711643 -14.895774 7 1
-24.649485 41.522511 9.394874 4 1
-8.327357 57.668724 19.406374 5 1
-12.131346 51.824856 -4.892052 7 1
-5.380555 51.953114 -7.948713 7 1
-20.639467 38.105450 -4.383918 4 1
-1.422794 34.218788 4.072004 0 0
-0.872480 34.960892 -6.134370 6 1
-22.155722 35.579075 13.656220 4 1
7.229409 51.065697 -6.550120 3 1
-15.664074 38.037548 -11.235206 6 1
-13.512011 41.586899 14.718993 4 1
7.907643 52.482719 16.379236 1 1
19.843781 46.704609 4.612005 2 1
-9.669454 37.169853 -1.675356 6 1
-10.430067 40.094051 8.534374 4 1
-7.558454 56.367142 9.138266 7 1
-29.582529 26.816456 15.342052 4 1
-9.937420 35.822983 -8.245659 6 1
6.745458 52.718628 -2.939618 3 1
21.189917 48.203644 -2.181311 2 1
12.966619 49.744846 12.557904 1 1
6.834694 56.766113 21.625164 1 1
-4.607607 24.646439 -16.209846 6 1
17.981016 55.369297 9.974520 2 1
-9.368613 36.433792 -4.879575 6 1
-5.682568 49.671780 8.020803 7 1
1.527865 42.040257 -15.372396 6 1
-2.197670 12.435535 3.501610 0 0
23.019152 49.885521 0.144105 2 1
20.755756 51.444641 7.110543 2 1
-28.142101 26.951183 18.117126 4 1
-0.876475 23.606203 2.768395 0 0
-18.781528 42.717083 2.297980 4 1
-23.606445 38.418983 7.572211 4 1
1.655299 31.986216 -16.695169 6 1
-1.805988 49.892548 -12.104695 7 1
-1.163007 20.671938 4.554603 0 0
-15.371049 44.906311 15.853010 4 1
9.513642 50.980698 28.691088 1 1
-0.923111 32.182484 -16.653975 6 1
-4.907924 53.422493 -4.682972 7 1
-30.099737 28.631210 13.377024 4 1
-6.401074 50.480640 -4.291372 7 1
6.822652 55.418896 12.301418 1 1
14.026560 55.503838 17.289459 1 1
22.194687 50.949493 17.572399 1 1
19.736555 51.189457 19.782408 1 1
2.239149 42.717079 -9.395236 6 1
-8.183351 40.709930 11.631771 4 1
-24.967367 36.841892 13.143311 4 1
6.091977 53.402512 -7.006145 3 1
25.345694 49.223122 13.671265 2 1
-25.137045 37.251114 20.784706 4 1
-17.307524 58.255821 6.149927 7 1
-32.834953 31.622997 8.631518 4 1
13.129224 45.449394 -9.567346 3 1
-30.328878 32.324348 11.184262 4 1
-5.521065 32.763092 -7.089066 6 1
-5.023926 30.068052 3.613467 0 0
24.685766 49.345085 9.666361 2 1
-23.432913 46.737877 21.320255 4 1
18.258564 45.026196 -8.471037 3 1
-11.789943 39.110920 5.759959 4 1
-26.028826 34.281532 12.806124 4 1
-1.272920 6.398201 1.715676 0 0
-6.980237 32.580040 -13.072722 6 1
10.615575 45.845325 -12.702360 3 1
3.970530 42.956600 -14.496523 6 1
19.147604 52.185078 -4.563663 2 1
-22.178921 38.696156 -0.680264 4 1
-5.907817 58.096024 3.169492 7 1
11.159026 48.465878 25.349697 1 1
-13.411896 40.199604 9.131574 4 1
0.635558 34.382050 -2.029578 6 1
-14.154733 33.719669 -15.914007 6 1
1.682957 45.878689 8.145607 0 0
0.954499 39.750114 -2.584170 6 1
-4.069312 47.236618 6.367817 0 0
-27.360350 35.988438 6.452512 4 1
-17.580690 43.794601 18.565678 4 1
-27.112907 31.155615 21.555695 4 1
14.808027 45.882565 19.301714 1 1
-11.712952 37.082775 0.565252 4 1
-8.151740 52.155201 4.691521 7 1
11.087185 51.413265 24.544643 1 1
-3.569488 0.953266 2.344932 0 0
-13.481033 57.350113 3.849392 7 1
-23.030602 44.796692 13.066766 4 1
19.463377 51.910149 16.310675 1 1
26.659906 50.785973 12.158145 2 1
-16.050606 37.282314 1.746372 4 1
-6.850608 48.901546 4.704483 7 1
28.452066 44.572456 4.144901 2 1
-11.576739 56.281796 18.194407 5 1
14.189621 47.827835 27.224485 1 1
-17.056023 40.145264 16.712158 4 1
-2.720987 48.458775 4.078572 7 1
15.811436 53.826313 -5.348546 3 1
-6.606354 23.424194 -15.885662 6 1
-13.690748 27.491146 -17.723442 6 1
16.561169 53.962257 16.784975 1 1
-3.793953 30.036480 -8.623262 6 1
-4.826456 31.850075 6.488192 0 0
10.848693 58.040066 7.498944 2 1
-2.524647 55.735798 5.806222 7 1
-4.375052 42.424744 -10.602188 6 1
-3.081443 50.908909 9.091888 0 0
1.826573 44.656967 -13.077066 6 1
-11.144319 38.367661 3.914452 4 1
-7.726018 35.773304 -4.000434 6 1
-21.174650 35.827297 9.748645 4 1
-27.215588 31.127258 14.374742 4 1
17.419189 42.842201 27.728552 1 1
-1.997583 18.899958 5.808607 0 0
12.780053 53.472031 6.121026 2 1
-27.981735 35.351578 23.226473 4 1
-26.796680 39.801239 18.919559 4 1
-9.715175 48.172733 17.602472 4 1
17.946964 43.430061 21.179985 1 1
-5.988440 34.306747 -8.800058 6 1
-5.044512 54.285931 4.622905 7 1
-14.983623 59.736065 5.001396 7 1
-18.572035 41.260624 3.677764 4 1
-6.820163 42.240936 10.762573 4 1
7.873443 55.024864 4.553681 3 1
-28.210661 31.519876 11.296067 4 1
-1.479848 38.344032 6.157655 0 0
17.239090 53.032536 14.741871 1 1
-20.613764 36.472794 5.704527 4 1
-13.800281 38.798862 11.236393 4 1
0.157166 7.795719 2.591196 0 0
14.874320 50.350914 24.619665 1 1
6.051230 58.287045 12.248697 1 1
8.552559 53.790356 23.695511 1 1
-28.038483 26.640640 20.486956 4 1
-13.780565 24.589947 -15.069860 6 1
-2.640429 37.199913 8.024282 0 0
26.143362 47.090252 14.586216 2 1
1.076732 48.433319 5.410314 0 0
-7.540437 17.489048 -12.700754 6 1
-19.089100 40.800148 9.711878 4 1
14.031738 46.996773 -0.034367 3 1
9.672685 51.935429 13.188057 1 1
-29.759527 33.686802 6.572031 4 1
-2.661336 34.223934 -11.314958 6 1
-29.959694 30.319832 15.041678 4 1
-12.416174 58.264282 6.782355 7 1
-2.665433 17.115355 3.507509 0 0
-20.152328 45.135700 20.028820 4 1
-1.823998 24.712679 4.194871 0 0
16.259977 42.167763 -13.393966 3 1
2.482439 51.779316 5.874636 0 0
0.161737 40.648643 -5.175053 6 1
18.018444 45.600578 17.331829 1 1
6.915145 54.095917 7.244776 3 1
3.316270 41.154469 -13.185605 6 1
7.555439 56.708206 25.192698 1 1
-2.367254 7.836976 3.845087 0 0
-27.121414 35.384411 4.498654 4 1
-6.466373 23.764275 -12.196219 6 1
-6.776213 27.762323 -12.843727 6 1
8.733081 54.170792 26.902292 1 1
-9.725458 56.332611 11.468187 5 1
19.521572 54.931732 6.920360 2 1
-23.285135 37.500824 4.383234 4 1
-18.976303 52.776001 17.967634 4 1
-23.504477 37.843578 -2.174353 4 1
17.112574 54.040092 19.294649 1 1
-1.774447 40.835968 8.565844 0 0
-12.653732 46.411770 15.115921 4 1
20.791208 49.321011 -5.783615 2 1
-6.900458 27.361059 -16.192446 6 1
-0.399318 41.147339 -16.328691 6 1
25.095814 45.108204 -0.858315 2 1
10.044201 55.689270 0.261288 3 1
1.447810 39.233906 -17.874783 6 1
-25.993719 36.385212 2.481216 4 1
-26.079054 36.715736 16.714003 4 1
-11.229625 57.582748 14.888972 5 1
-4.827024 36.335274 -2.254971 6 1
-5.868913 48.638645 -9.589090 7 1
-3.301441 29.108627 6.786705 0 0
9.400476 48.655777 -7.584481 3 1
-1.773829 34.486099 6.776794 0 0
-10.767814 33.651157 -13.676873 6 1
26.420122 43.876331 1.587700 2 1
7.136324 54.738678 -4.103946 3 1
-0.903916 29.721846 -14.639609 6 1
-8.567415 54.398651 -3.627454 7 1
-1.963975 30.893347 -11.633612 6 1
-8.806017 55.518768 12.981297 5 1
-22.289501 43.664455 20.921371 4 1
-15.238464 37.873058 7.368337 4 1
-20.925896 43.231281 12.321743 4 1
-20.525328 47.090492 18.344213 4 1
2.973444 53.774971 5.938613 0 0
16.199310 55.109959 11.194022 2 1
-3.800825 50.880157 -7.533454 7 1
-30.062405 35.440422 3.999123 4 1
23.206495 46.993874 4.440773 2 1
-10.046537 36.641407 5.276176 4 1
8.911957 48.198990 -12.958699 3 1
25.737022 46.886978 10.812512 2 1
-9.457443 47.912319 14.565194 4 1
13.087532 46.001904 -13.089272 3 1
-10.364666 44.427540 15.637521 4 1
-14.744201 42.979446 16.455179 4 1
-23.151838 46.619949 16.274052 4 1
-30.680927 31.438744 9.080419 4 1
18.132050 49.920986 -2.040896 2 1
-6.989067 47.522316 -10.733840 7 1
-5.801848 44.920670 11.220169 4 1
16.647478 41.844173 26.292545 1 1
15.074581 53.773361 9.800403 2 1
19.799994 43.661697 25.381210 1 1
0.599051 21.618454 -13.094557 6 1
-1.550454 28.568033 6.267780 0 0
-26.311787 28.194296 21.090498 4 1
21.679213 49.924446 -3.274817 2 1
22.630926 48.599514 9.245790 2 1
-1.597604 31.160681 5.250662 0 0
-7.560022 29.684023 -15.565944 6 1
-18.800398 46.446232 17.628866 4 1
0.833689 50.759758 15.064149 0 0
-1.675199 46.130104 8.258364 0 0
15.724895 44.037697 22.600574 1 1
-21.331226 39.510300 21.094488 4 1
-5.780058 46.983772 -12.611755 7 1
-7.867515 58.569180 16.574247 5 1
-22.489605 39.380245 -3.430953 4 1
-2.310721 43.065231 7.083434 0 0
-33.143879 29.961292 10.032660 4 1
2.503841 42.770123 -3.594059 6 1
-9.338624 54.602062 5.940176 7 1
-7.909171 52.997105 2.591387 7 1
3.468636 20.394901 -13.965264 6 1
-0.866533 32.074066 3.290524 0 0
-24.144695 35.051064 11.314752 4 1
27.521627 42.711838 2.960884 2 1
16.615276 45.402855 -5.062805 3 1
-13.958785 38.304680 -10.404979 6 1
13.864870 48.335472 2.179748 2 1
17.885899 52.599159 6.328218 2 1
-3.898066 28.430237 4.762828 0 0
-2.865849 32.335133 -8.313061 6 1
25.815754 47.930466 4.896506 2 1
3.875105 24.692657 -14.567840 6 1
-12.149374 52.910671 -1.734376 7 1
-26.538456 31.629862 18.562111 4 1
16.718143 53.489330 -3.552502 3 1
-0.524370 49.723759 8.325564 0 0
-2.657221 34.043777 0.935872 6 1
-9.165435 31.405729 -14.883616 6 1
11.193208 53.938774 -3.028787 3 1
6.573483 53.786228 -1.195026 3 1
-24.677271 34.858177 8.974472 4 1
-5.801177 39.388409 9.917119 4 1
12.375543 49.823334 14.409094 1 1
17.229668 57.074596 6.404799 2 1
-21.694798 39.510719 3.380045 4 1
2.907727 41.702751 -5.213710 6 1
-23.696609 34.862034 17.039881 4 1
12.809483 49.246380 -11.224054 3 1
-18.965219 49.562618 19.902952 4 1
0.638793 40.386627 -10.577309 6 1
-23.746695 40.106804 21.208292 4 1
-1.195402 39.351601 -13.905093 6 1
-4.853260 38.036800 4.547017 0 0
-17.107450 52.477959 18.260752 4 1
-1.728656 56.346321 0.713187 7 1
0.114323 50.631306 6.306149 0 0
0.569327 35.993393 -2.960535 6 1
-3.025750 47.646034 8.179257 0 0
25.425097 45.380177 2.869236 2 1
-28.719646 37.501461 0.226159 4 1
-2.764024 23.195375 3.159759 0 0
-29.323654 30.233679 16.785040 4 1
-10.842369 49.743759 17.760857 4 1
1.116788 33.518402 -18.217386 6 1
-24.125837 36.552490 1.488517 4 1
8.944043 57.118279 4.715995 3 1
-20.202452 51.612450 19.056452 4 1
15.358288 58.068348 6.039171 2 1
9.134776 48.115749 8.585335 1 1
0.138919 26.688751 -16.050781 6 1
9.219956 56.565639 11.598705 1 1
6.402542 59.107368 16.083529 1 1
-24.220049 39.920525 -3.029795 4 1
6.385468 57.760769 5.157229 3 1
-11.614858 38.872768 0.014858 6 1
20.301397 53.775330 15.789293 1 1
8.363165 55.479782 17.922201 1 1
11.177444 50.764580 -10.370439 3 1
16.387602 43.795666 -8.188066 3 1
-19.117887 38.468533 14.325822 4 1
-13.557026 48.367580 16.439554 4 1
12.362264 53.129154 9.400632 1 1
2.619352 37.754509 -14.463204 6 1
-3.604246 49.770454 -12.682561 7 1
-5.230113 50.692848 -0.340819 7 1
-2.547043 39.954464 5.189788 0 0
-13.376725 56.835747 10.373440 5 1
-16.664633 59.348576 4.269229 7 1
-11.737689 43.706535 12.672157 4 1
-12.414658 40.241673 -2.613620 6 1
-16.521778 45.489201 18.804337 4 1
-13.701891 35.599449 -13.007607 6 1
13.036205 52.620224 4.498822 2 1
11.502636 53.186485 20.391428 1 1
4.152775 40.645962 -17.471588 6 1
0.762580 30.309610 -16.900723 6 1
-10.426484 22.760811 -15.436044 6 1
-0.347245 24.222294 -12.538273 6 1
-0.609417 13.161994 2.789994 0 0
2.283395 44.614098 -9.829081 6 1
-27.134068 42.944836 20.767654 4 1
18.116304 48.936245 23.982595 1 1
0.097255 9.807219 3.479327 0 0
-17.842474 49.680714 18.123106 4 1
18.664930 45.633774 25.115759 1 1
-0.566404 6.466581 4.083807 0 0
13.631094 44.953491 28.324299 1 1
3.053136 30.862228 -19.124420 6 1
22.354351 46.992226 1.438986 2 1
-3.004080 39.952679 -13.244361 6 1
-8.273631 24.908287 -16.153603 6 1
16.454147 40.757549 -9.879413 3 1
19.033344 47.449814 20.010019 1 1
-2.302714 48.784340 -1.007414 7 1
-11.408150 55.678089 -1.552824 7 1
-1.294142 28.446928 -16.204235 6 1
-1.294635 35.109108 -15.936510 6 1
-1.676507 49.942966 4.222193 7 1
1.361437 41.902607 -2.300674 6 1
8.175274 52.574005 19.133303 1 1
-5.512724 35.238804 4.926744 0 0
-21.376217 38.737110 18.804296 4 1
-30.998461 27.240837 11.882464 4 1
-24.739052 37.557434 3.190395 4 1
-29.000492 30.006119 19.239124 4 1
-24.871248 38.711823 13.047647 4 1
-3.437937 38.379509 6.562947 0 0
-18.735888 47.136585 20.019985 4 1
13.404233 47.901794 17.426111 1 1
-10.044071 27.284140 -15.870113 6 1
-2.519902 50.478661 12.792301 0 0
-33.311600 31.307394 6.911966 4 1
-28.879799 37.563221 22.755541 4 1
9.469845 50.567680 19.506914 1 1
-1.135667 27.449810 2.987998 0 0
-17.595297 42.183643 13.588492 4 1
-20.084860 37.250702 11.319214 4 1
-2.830772 40.152386 -9.841633 6 1
-25.872749 44.101162 18.014067 4 1
17.487190 55.958454 3.926187 2 1
-6.831398 53.975754 1.465837 7 1
-8.029654 38.002762 0.351112 6 1
-12.803386 57.474472 11.962349 5 1
-2.934006 51.214741 0.872406 7 1
-10.655713 56.622414 5.376518 7 1
-3.164752 18.831030 -12.047588 6 1
11.960319 48.088772 19.897751 1 1
8.760248 53.093571 25.345663 1 1
-3.808321 34.409271 -8.452158 6 1
-6.608027 46.962677 2.672471 7 1
-0.915623 15.438482 4.789101 0 0
8.145420 49.181892 -2.736600 3 1
-19.546223 39.532349 -0.358322 4 1
12.340826 47.218048 31.740017 1 1
-13.416325 38.656662 0.726231 4 1
-19.637129 39.519131 -3.904525 4 1
-9.640757 49.408936 -9.391005 7 1
-9.052492 43.227463 10.475309 4 1
-5.080790 51.072678 9.197710 7 1
-9.170532 36.785698 7.608912 4 1
-3.532068 44.379547 7.121799 0 0
-1.177835 17.368580 -11.800100 6 1
-1.394815 36.953442 0.044277 6 1
-8.312162 34.231503 -11.368801 6 1
-0.481690 53.317116 5.209476 7 1
12.520072 51.959618 22.694693 1 1
-0.682311 37.480366 4.806389 0 0
-27.535105 33.253876 13.351380 4 1
-6.768243 36.853107 0.883285 6 1
6.212579 56.182262 2.956321 3 1
13.937510 44.432858 -13.402899 3 1
-0.806342 39.479351 -15.766189 6 1
-2.755804 35.157108 -4.568296 6 1
19.731379 47.820309 3.218180 2 1
3.870556 38.190407 -17.880499 6 1
0.232945 39.208260 -0.973013 6 1
2.052433 51.293770 10.315867 0 0
17.807970 53.395393 8.553474 2 1
-8.896690 36.636044 -7.030562 6 1
11.636413 46.569214 -9.127363 3 1
17.642944 51.145191 23.015991 1 1
-27.197165 30.249077 16.045044 4 1
10.406428 52.268372 -8.098275 3 1
-4.140937 48.265797 -10.319410 7 1
1.689170 50.979137 8.104313 0 0
-1.725076 32.659760 -10.275994 6 1
-27.594856 38.412758 -2.189890 4 1
-0.913993 37.946381 -17.829958 6 1
-4.884056 33.305111 -5.520226 6 1
18.406433 54.764141 14.788096 1 1
-2.362140 2.240807 2.517532 0 0
7.878728 50.521091 -1.385660 3 1
-24.457912 39.423130 10.932883 4 1
-7.973752 28.956295 -13.639326 6 1
0.814960 34.552979 -13.853096 6 1
19.081240 49.356457 5.453373 2 1
-6.343788 53.761776 6.624885 7 1
5.648983 53.864422 -4.501602 3 1
1.679518 32.171833 -19.218937 6 1
-2.501822 4.333622 3.069695 0 0
-26.858265 37.787510 0.404946 4 1
15.049191 42.840267 29.133108 1 1
-11.680463 56.666439 0.795924 7 1
-6.935060 22.027031 -12.190195 6 1
-4.155789 16.796101 -13.021406 6 1
-10.586349 40.060482 6.692124 4 1
15.614017 49.293278 12.497272 1 1
-4.590597 48.084923 -13.309599 7 1
-9.583206 56.801418 21.448183 5 1
22.223486 54.101349 9.286450 2 1
9.251908 51.402866 15.850356 1 1
10.681021 51.401150 11.445793 1 1
7.333357 50.464046 -12.434226 3 1
12.881449 52.694401 -6.018510 3 1
-28.048744 33.741455 20.192171 4 1
14.393788 45.973907 -2.350856 3 1
10.134458 50.021606 31.906885 1 1
-22.250391 36.430504 2.851861 4 1
-7.451056 43.240025 13.835024 4 1
-10.961113 57.710274 16.649548 5 1
-1.250840 27.289413 -13.098553 6 1
3.343736 36.306252 -19.863487 6 1
-25.032593 44.923420 15.685884 4 1
-3.135117 25.461712 6.179469 0 0
-21.285101 40.523758 6.643206 4 1
12.685894 56.668827 2.301823 2 1
-8.948743 49.681278 -6.864666 7 1
-1.855375 20.082933 3.059507 0 0
0.403188 48.209866 9.136239 0 0
-20.186188 38.350140 15.751629 4 1
-13.933745 39.666477 7.490650 4 1
-3.414040 30.660578 7.596620 0 0
17.277815 42.518116 -11.242339 3 1
-11.034596 38.624321 -6.330906 6 1
-11.353237 37.666134 -1.227689 6 1
-1.799644 35.292191 -12.436213 6 1
-31.755983 28.925234 14.807893 4 1
5.957311 59.992287 12.601437 1 1
16.720932 46.265930 16.280874 1 1
-15.738950 38.276764 10.525125 4 1
-6.245022 53.465282 -5.841746 7 1
-0.578719 51.202995 15.984383 0 0
2.176387 40.423840 -7.556770 6 1
-7.436566 52.219643 6.279263 7 1
-3.112052 35.847019 6.609774 0 0
-9.468415 57.728249 7.852232 7 1
-25.211704 41.690609 13.495748 4 1
6.417831 57.834553 14.889826 1 1
7.274518 56.158142 -0.326836 3 1
-17.145294 37.895336 -3.199943 4 1
7.372112 53.716560 8.991144 1 1
11.447462 54.950001 -0.463400 3 1
-9.329009 57.489197 3.758296 7 1
-0.891645 19.063402 -12.330710 6 1
13.924791 53.879475 -2.579456 3 1
-1.320574 18.354698 2.993964 0 0
16.193632 53.064014 5.688537 2 1
16.469091 45.423752 -11.845235 3 1
16.595243 42.822315 24.598869 1 1
11.110638 52.790565 -6.348261 3 1
-27.920126 32.690384 16.937750 4 1
12.531016 49.162514 28.006327 1 1
-0.500466 51.477745 -7.108549 7 1
-8.268353 47.404861 11.890491 4 1
-4.118619 49.821903 -6.162814 7 1
13.295619 45.791222 24.553391 1 1
27.347260 46.250523 11.123425 2 1
5.019675 58.146080 8.361428 1 1
-19.049330 40.369858 19.408045 4 1
19.408430 48.383026 21.713507 1 1
-13.410364 47.869450 18.361189 4 1
1.224193 39.358242 -4.276785 6 1
-25.922119 34.244259 14.623954 4 1
-12.265667 50.227455 -6.255011 7 1
14.580709 52.364574 12.126545 1 1
15.132198 56.568722 0.903058 2 1
-13.439758 38.898243 5.231112 4 1
21.267082 50.760586 -1.816787 2 1
-32.007149 33.453079 6.694991 4 1
1.837425 20.278900 -13.118522 6 1
-2.831921 52.462280 -10.359076 7 1
7.261570 50.950909 -4.824018 3 1
-14.502460 41.397820 12.295053 4 1
-25.209473 33.180561 17.088554 4 1
16.277573 52.539658 -6.616471 3 1
7.962023 56.434593 15.220387 1 1
-5.407721 33.252827 7.752580 4 1
2.018267 28.040842 -18.238890 6 1
-3.056023 32.151360 -14.100101 6 1
16.572697 48.291275 24.941402 1 1
3.299046 34.653042 -18.224104 6 1
-24.533052 36.349483 10.161527 4 1
5.556555 55.835342 7.535911 3 1
17.213652 52.956429 20.669594 1 1
8.412216 52.163212 -10.721581 3 1
19.597813 50.543293 21.451052 1 1
-1.190010 20.850533 -14.705747 6 1
14.013058 45.725029 30.350666 1 1
-0.994891 45.142578 4.941492 0 0
-13.947120 44.470554 17.009127 4 1
-15.495481 39.347580 4.324865 4 1
-10.017475 40.592949 11.870564 4 1
14.895813 54.012299 6.790361 2 1
14.688639 47.360920 14.690799 1 1
-7.774617 51.736198 -8.219009 7 1
-21.107393 37.462551 -0.005320 4 1
-9.602942 35.779987 -9.933160 6 1
-32.791935 28.547045 9.118190 4 1
-21.754524 47.993774 19.269459 4 1
-31.378468 31.178255 12.145236 4 1
-4.042063 56.770618 0.817736 7 1
-1.284270 55.766418 3.369311 7 1
8.731346 51.009521 7.123545 3 1
-17.183702 38.302711 12.734431 4 1
15.794596 51.022202 13.136665 1 1
-1.475335 42.527191 8.704019 0 0
-0.741851 18.314341 4.635692 0 0
-11.692626 40.376545 9.660434 4 1
10.406292 59.606953 6.876467 2 1
-2.027673 32.806122 2.220711 0 0
-31.564903 36.437874 1.289613 4 1
-0.706906 11.750673 4.720974 0 0
0.780237 4.058323 3.005561 0 0
-5.186159 18.418762 -14.145308 6 1
-22.063745 49.271236 20.809513 4 1
-28.580463 33.438145 8.189417 4 1
0.277703 47.178368 6.360960 0 0
0.873332 40.866947 -17.944254 6 1
23.762045 50.830799 10.728253 2 1
23.864559 51.547451 7.865310 2 1
-1.454764 35.394264 5.312189 0 0
21.855087 51.623062 8.463879 2 1
-28.875072 33.208492 11.338773 4 1
-28.978848 32.186668 22.593487 4 1
-13.280191 20.902063 -14.598184 6 1
-10.012794 50.346336 -2.317167 7 1
15.497331 45.664494 28.037823 1 1
12.657953 55.757694 12.364986 1 1
-25.280396 36.737549 7.096656 4 1
-0.531823 52.740719 -5.033296 7 1
-8.015631 55.207462 7.962100 7 1
-22.937582 37.961521 18.656158 4 1
-12.630341 37.563698 -7.127318 6 1
-7.060740 49.562019 -1.530856 7 1
-30.874964 28.846523 11.332897 4 1
-28.947556 37.054287 1.943064 4 1
-7.867501 49.572334 -3.767826 7 1
17.744875 51.196007 -6.073676 3 1
-4.610215 34.090153 3.882502 0 0
-29.194168 25.835291 18.879803 4 1
-5.428141 31.228760 -8.401794 6 1
24.875336 49.562267 6.459930 2 1
-6.544162 54.690769 -2.747155 7 1
-0.305752 37.490265 -1.574955 6 1
27.892721 46.093987 12.826687 2 1
-0.583380 4.591464 2.098415 0 0
-21.005096 41.286613 9.932217 4 1
-10.315900 33.299137 -12.006844 6 1
-0.510026 51.211407 13.045416 0 0
5.525375 56.589684 0.105648 3 1
14.541955 45.179436 -7.199897 3 1
-2.877186 1.268554 3.878051 0 0
-2.170657 53.145817 -7.728460 7 1
-11.173251 58.488400 8.010605 5 1
-0.519218 40.611588 -2.976052 6 1
-9.714484 58.613232 19.603582 5 1
-1.961780 38.684277 0.765607 6 1
22.719294 46.911804 9.267290 2 1
10.289840 50.457016 17.555307 1 1
-4.986197 50.168354 -9.649683 7 1
-6.306540 40.683331 11.161374 4 1
-4.949350 33.123425 -11.498644 6 1
-0.112440 49.974072 11.533714 0 0
-27.318476 31.559822 12.748946 4 1
15.341748 55.043827 13.811987 1 1
25.643650 47.830624 16.057545 2 1
-8.345596 36.239254 -2.389343 6 1
-0.499491 43.393475 7.302045 0 0
-7.666860 21.637735 -15.323328 6 1
-1.353675 26.821081 6.257583 0 0
-25.350191 33.767029 11.357718 4 1
-4.324314 35.382336 9.278784 4 1
19.077620 49.574162 -4.587767 2 1
20.467937 48.151390 10.850081 2 1
20.582018 50.455795 -4.564436 2 1
6.656210 57.893467 17.220304 1 1
-12.993600 39.431744 -1.260940 4 1
-6.110706 36.054722 -4.507686 6 1
20.589396 48.981728 8.857883 2 1
-1.457242 15.284758 2.646778 0 0
2.258291 24.633965 -13.832923 6 1
7.152839 53.709003 0.399804 3 1
-7.473467 25.737516 -13.828963 6 1
-28.057468 38.713192 21.794827 4 1
17.332016 44.104355 -9.533757 3 1
-10.340217 29.748741 -16.444921 6 1
-24.210701 37.995125 9.693374 4 1
7.117792 54.752037 16.524105 1 1
17.291651 47.986935 -2.424871 3 1
-2.681942 9.401630 1.599432 0 0
-24.022856 35.575275 5.107480 4 1
18.893066 42.295856 23.401918 1 1
17.166553 56.782513 8.557688 2 1
10.624190 56.201298 2.200781 3 1
-25.155846 45.287987 21.906488 4 1
-8.025901 50.411495 -9.512519 7 1
6.895019 55.518940 10.631723 1 1
5.799163 55.458771 -1.403136 3 1
-2.163844 52.828434 4.335849 7 1
-3.088226 20.385147 4.917997 0 0
2.535171 43.371017 -6.883816 6 1
-3.116040 42.505238 5.502703 0 0
-9.458233 59.302128 17.162683 5 1
-6.370858 50.508034 4.367688 7 1
12.990291 46.429775 27.653685 1 1
2.266539 42.985992 -16.724091 6 1
-7.149295 34.369526 -10.024179 6 1
16.776817 44.690891 26.973783 1 1
-5.187559 24.974718 -11.380121 6 1
-10.381532 45.935692 11.701368 4 1
-4.672251 20.889984 -15.436954 6 1
-8.138879 45.529121 15.490213 4 1
-3.433072 54.674603 4.740489 7 1
17.466097 49.669930 -7.762084 3 1
-25.532988 32.558926 15.402615 4 1
20.585125 53.773827 10.892373 2 1
-10.766135 31.416988 -15.324133 6 1
1.732149 53.322006 8.283827 0 0
7.798083 54.656364 20.920813 1 1
-28.149616 36.882946 21.380623 4 1
-6.883412 31.540449 -10.181260 6 1
11.060066 48.984058 28.752813 1 1
0.151164 35.528427 -10.519823 6 1
12.835927 46.690590 25.974422 1 1
14.093483 44.065910 25.211477 1 1
-15.615670 52.165337 16.769014 4 1
-19.570175 50.129364 18.469328 4 1
-3.655222 54.698879 -1.471437 7 1
-9.062022 55.896545 9.951738 5 1
-6.264633 52.717548 2.847864 7 1
-0.426802 54.050049 -2.008956 7 1
0.934713 34.664112 -3.875350 6 1
22.238682 53.130245 11.257748 2 1
2.607769 25.425474 -16.040194 6 1
-3.438791 26.678762 2.056646 0 0
27.716160 45.068752 2.712239 2 1
-9.102659 58.083038 5.468083 7 1
12.495302 54.863636 17.567171 1 1
1.154347 22.802801 -14.986612 6 1
3.044609 55.354183 8.450292 0 0
-7.574306 57.312881 5.656655 7 1
-15.333835 50.534069 18.429123 4 1
10.150626 56.693310 8.188493 1 1
3.038829 36.857479 -16.585451 6 1
17.602337 48.434097 14.350986 1 1
10.403799 51.423115 26.575340 1 1
8.073797 51.874252 12.790881 1 1
-13.866890 45.257351 15.278085 4 1
-2.381037 53.582386 10.832327 0 0
-22.405531 38.460876 0.933803 4 1
22.411978 49.119678 5.968288 2 1
9.378206 53.188595 22.373484 1 1
-0.970357 10.879495 2.477993 0 0
-10.852407 35.461823 -11.400526 6 1
-8.522299 17.742537 -14.133057 6 1
-8.630380 20.249920 -12.911160 6 1
-0.950812 51.911728 6.534058 0 0
-9.868434 56.146454 6.739470 7 1
-9.036540 26.183119 -15.080389 6 1
21.702410 52.386524 5.532534 2 1
27.579924 48.153713 14.417516 2 1
0.198025 54.376030 2.635136 7 1
-8.288110 39.097931 9.690969 4 1
-10.915289 42.612862 11.313516 4 1
-6.462259 43.496094 11.756673 4 1
-26.248671 38.283112 -1.035098 4 1
13.095221 55.535286 -0.705327 3 1
11.880748 51.586582 -9.131748 3 1
9.675593 49.719872 -12.761752 3 1
-12.238795 27.449831 -16.918545 6 1
-29.558994 35.052010 22.906404 4 1
-9.173790 55.880245 -1.111145 7 1
18.225416 49.839443 1.947570 2 1
-15.015950 39.516895 14.089132 4 1
-13.218882 58.632801 5.361848 7 1
-8.433147 58.855797 11.892036 5 1
-30.081045 31.195459 13.364438 4 1
-9.332128 31.872473 -12.495566 6 1
15.014030 57.526455 3.859013 2 1
-25.969250 41.689465 16.554068 4 1
-9.336057 53.859413 0.351196 7 1
-7.206471 46.733410 13.143485 4 1
7.132003 56.055614 23.718630 1 1
-3.696487 45.625633 6.078711 0 0
-12.541959 37.521069 -10.097306 6 1
11.070208 49.009815 26.886560 1 1
10.488437 51.347672 14.497469 1 1
9.093331 52.513329 5.905402 3 1
14.588158 52.126476 4.226842 2 1
-22.266245 38.140942 -4.482900 4 1
-2.590273 34.922127 -9.637973 6 1
22.545832 51.204414 3.324574 2 1
14.387738 46.705551 17.933588 1 1
13.967940 47.033970 -11.769782 3 1
-4.969869 36.467525 3.989799 0 0
16.313208 47.530399 -0.247344 2 1
-1.224313 55.163395 6.601394 7 1
-4.131251 51.077839 7.859120 7 1
0.780955 30.585478 -19.295427 6 1
-9.147308 59.637360 14.489399 5 1
-19.034876 43.982483 19.341257 4 1
-1.981965 37.501755 -11.660639 6 1
-29.966017 26.967043 17.879274 4 1
-25.076523 34.145283 20.096661 4 1
1.966665 40.254261 -5.454561 6 1
-19.701416 37.409992 0.806284 4 1
-2.831600 38.996639 -11.695475 6 1
8.389050 54.442581 -7.300191 3 1
-2.146863 49.780556 8.338642 0 0
24.165791 46.230614 -1.569266 2 1
23.173149 48.580193 -3.207517 2 1
20.470150 43.680290 23.484682 1 1
17.488916 54.134380 11.597092 2 1
-3.486678 54.045322 7.853216 7 1
-17.775135 37.506744 -0.265016 4 1
19.440538 49.358730 -2.815318 2 1
-4.793371 34.081387 -4.081486 6 1
-0.409452 51.939606 0.413880 7 1
-31.224751 34.618134 3.228808 4 1
-14.818826 45.448181 18.191036 4 1
-31.992218 30.382309 7.971971 4 1
-9.765748 48.669655 16.063841 4 1
-21.544439 37.093132 15.916933 4 1
-12.185452 23.676588 -14.165365 6 1
-8.959131 51.829388 -7.099859 7 1
26.069025 45.963520 5.737551 2 1
-8.399470 26.456383 -16.596447 6 1
-6.820050 35.452526 6.505816 4 1
-10.195648 57.221905 9.344348 5 1
16.844673 54.532883 15.184411 1 1
-11.667189 56.586948 12.684011 5 1
6.679203 56.143822 4.561431 3 1
-23.577131 34.906075 14.741955 4 1
5.945081 58.677605 6.527318 3 1
-25.837814 45.773083 20.462923 4 1
-27.268309 35.464443 9.553646 4 1
-4.126861 50.681553 10.498347 0 0
-6.129027 49.912987 6.493874 7 1
15.299749 42.311665 27.193880 1 1
-13.250203 39.069942 -8.333316 6 1
-10.653484 52.380783 -1.472829 7 1
14.889779 56.795124 8.375225 2 1
1.080197 51.641125 5.101664 0 0
-27.282845 28.831875 19.078491 4 1
-26.460897 33.767498 21.428623 4 1
-1.546693 39.065392 -6.530304 6 1
-3.111533 36.108818 1.921196 0 0
15.305327 42.924969 -12.274825 3 1
18.026751 54.558582 -1.620917 2 1
15.666860 54.620090 -0.462393 2 1
2.783242 45.109539 -14.341388 6 1
-21.487410 42.531986 10.940636 4 1
-26.764486 33.699913 10.037949 4 1
-22.091236 47.669296 20.902018 4 1
19.956484 46.379017 23.048018 1 1
-22.621378 40.803459 8.687921 4 1
2.598629 39.496941 -11.683588 6 1
1.656027 42.006180 -12.245202 6 1
-4.114314 32.431007 3.129745 0 0
20.623955 47.611328 1.844950 2 1
-0.965305 42.862507 4.189895 0 0
-26.551636 42.963619 18.922201 4 1
-15.525444 38.169777 -2.387357 6 1
2.678282 41.192078 -9.609163 6 1
-0.752046 20.761570 -12.565904 6 1
15.634650 51.479523 23.749203 1 1
-3.394568 50.525078 -9.140492 7 1
16.238993 45.189129 19.483789 1 1
-9.884104 36.580364 -3.371771 6 1
2.786348 22.404114 -13.603682 6 1
-2.107742 49.688160 0.360760 7 1
-2.689728 27.768442 3.284760 0 0
3.503304 42.470951 -11.846313 6 1
-11.347981 36.723541 2.077364 4 1
-16.852232 50.868858 18.788006 4 1
-25.609041 42.536545 14.948452 4 1
-19.347586 41.946449 19.506826 4 1
13.355260 47.937408 28.634705 1 1
-20.863325 37.017258 12.746215 4 1
16.007830 48.349293 13.728575 1 1
9.943167 53.511776 20.336172 1 1
-12.031414 41.798279 14.178100 4 1
9.772464 50.437897 24.076889 1 1
8.626185 51.989506 2.754386 3 1
11.227302 47.903595 23.296412 1 1
-16.784679 48.388622 17.812086 4 1
15.245900 43.556423 24.183958 1 1
-25.237719 39.609840 14.338646 4 1
-22.910442 41.203800 5.716824 4 1
-18.359074 37.625870 -1.844824 4 1
-7.036098 44.667519 14.416870 4 1
-7.552614 56.871159 3.787421 7 1
-11.779834 53.227753 -4.239882 7 1
-18.234888 37.669102 9.163756 4 1
17.694761 47.434669 -4.049252 3 1
20.607449 52.597965 2.613329 2 1
-9.590424 56.644993 17.754129 5 1
18.139435 49.054073 17.679838 1 1
-22.927761 35.462746 12.277368 4 1
-5.930086 57.046703 1.723957 7 1
8.264880 52.681213 11.432034 1 1
-28.114634 32.071320 19.438040 4 1
-24.708075 33.540852 13.871515 4 1
-17.628551 48.520603 19.338709 4 1
-16.243334 42.581829 14.307653 4 1
-1.416256 40.656384 6.045311 0 0
25.827379 50.486145 9.596682 2 1
-2.487125 50.767693 -13.232451 7 1
6.488173 55.117558 1.691190 3 1
-5.952759 36.844944 -1.145327 6 1
8.420487 57.121006 10.172119 1 1
-5.744067 49.915867 2.912791 7 1
-8.173614 37.674637 -1.633205 6 1
-4.503394 34.836853 -1.869719 6 1
-3.628970 39.139141 -14.443650 6 1
17.919907 50.289021 4.932593 2 1
9.265357 49.725849 11.205462 1 1
5.433789 59.342384 9.339958 1 1
22.265444 47.286556 -1.444944 2 1
-24.103132 37.923744 19.802654 4 1
-0.487581 13.703415 4.310205 0 0
-3.648680 18.348309 -13.721852 6 1
-1.433882 35.016647 2.667622 0 0
-6.983733 55.871208 2.704314 7 1
-2.079201 0.287305 1.836518 0 0
20.039831 44.852467 20.495752 1 1
-15.240810 40.126945 -3.050685 4 1
1.343229 41.464790 -13.838460 6 1
-19.743959 38.838455 17.339520 4 1
7.239565 58.034969 8.340497 1 1
-8.321338 53.456215 5.579210 7 1
18.632318 42.723740 26.733202 1 1
8.921705 54.913937 -5.696455 3 1
5.925992 56.727627 12.412985 1 1
-15.812612 58.438297 5.471152 7 1
-1.064304 40.033527 -0.625399 6 1
14.078315 45.197395 22.030437 1 1
-16.159651 40.948208 11.190426 4 1
8.266216 53.135811 27.986883 1 1
20.487938 52.379498 8.615695 2 1
-2.299298 52.035633 9.854857 0 0
-8.064757 57.169281 15.851645 5 1
-11.186389 57.436359 19.181376 5 1
-8.317246 32.342171 -13.927217 6 1
-2.414504 34.450386 -6.624712 6 1
20.089033 48.160515 5.258825 2 1
-26.518669 41.329617 22.305080 4 1
-1.977567 53.340366 -3.192842 7 1
15.836734 48.091091 -9.890678 3 1
0.051495 50.098995 -6.593740 7 1
-2.644606 17.719072 4.950058 0 0
3.303516 39.585617 -14.758597 6 1
22.995579 47.938156 11.367378 2 1
11.651597 46.172012 -13.825805 3 1
-9.973705 21.269135 -15.184962 6 1
-7.384248 19.544079 -15.013550 6 1
9.731005 54.600025 17.891022 1 1
15.115674 44.993759 29.395933 1 1
-1.112875 33.753117 0.786266 6 1
-11.582936 54.996014 -0.078209 7 1
11.626447 50.665779 25.855232 1 1
-1.830821 37.295746 -14.987982 6 1
-0.269421 36.168533 -17.476175 6 1
-17.804419 51.230331 17.417313 4 1
-23.406845 45.178761 21.353949 4 1
-14.423158 37.079708 3.401774 4 1
-31.058012 27.433239 14.654855 4 1
-5.375341 48.182812 2.994366 7 1
19.251554 46.578537 17.123926 1 1
3.807599 27.001480 -16.819408 6 1
-13.386222 52.329403 18.017572 4 1
-7.643833 33.745434 -8.536872 6 1
-24.593184 48.081654 20.854479 4 1
13.469390 58.629467 6.349012 2 1
-15.740719 38.088524 8.853895 4 1
28.878859 44.455555 12.405560 2 1
-0.189093 33.383129 -2.905476 6 1
17.216673 50.160927 -0.298007 2 1
-23.710670 38.297554 -0.375156 4 1
-5.646739 34.727421 8.252808 4 1
-10.425609 46.809307 17.375164 4 1
29.500425 42.918671 5.063814 2 1
1.634148 49.076946 9.578151 0 0
24.361357 49.530987 4.994245 2 1
-12.295527 33.304642 -13.748196 6 1
0.494549 49.340755 14.165774 0 0
-2.769221 13.889848 3.488678 0 0
0.030841 46.208633 7.874433 0 0
-3.304500 27.540535 -10.527649 6 1
25.065691 48.363529 2.091496 2 1
-15.432020 39.049698 -0.538192 4 1
-27.297829 39.534725 20.365667 4 1
-26.721012 35.662159 22.251629 4 1
-25.156042 38.692799 0.094952 4 1
-15.155269 40.244923 -4.608369 6 1
-7.897898 16.289797 -13.615033 6 1
-27.430283 29.297693 20.992746 4 1
-18.081713 40.331699 0.334520 4 1
-25.547386 39.205017 -2.673573 4 1
9.720026 54.504086 -3.329222 3 1
-10.683074 26.753963 -17.592197 6 1
-12.836882 30.867626 -17.098972 6 1
-14.655119 50.078083 17.115623 4 1
-23.232182 43.430862 10.212009 4 1
-9.462183 49.916672 -5.416882 7 1
10.224419 49.320995 21.635574 1 1
11.175458 48.339615 -12.681514 3 1
-14.778949 57.603474 10.664364 5 1
21.808969 47.987534 -3.622355 2 1
-3.140174 10.810884 3.431979 0 0
-10.944892 55.031590 2.416941 7 1
-5.832375 49.806702 -8.132218 7 1
-13.314260 53.754559 -2.424223 7 1
-17.318569 37.365055 2.665274 4 1
-20.178673 39.203449 -5.363353 4 1
-8.409219 50.306061 -1.604408 7 1
4.618368 55.384907 9.641469 3 1
1.544538 53.457558 6.485366 0 0
2.457934 33.725796 -16.819433 6 1
28.615391 45.509563 6.414586 2 1
-20.009233 37.758308 -2.309375 4 1
-8.848900 37.686485 5.417318 4 1
-2.007411 31.837143 6.604221 0 0
-3.005781 21.077902 3.291260 0 0
-2.456507 23.537746 -12.172376 6 1
-20.500069 45.094288 15.545478 4 1
8.232562 49.250317 -12.064702 3 1
-8.937921 28.406858 -14.840305 6 1
-4.032151 29.700756 -15.159079 6 1
18.329035 46.064148 -5.592950 3 1
-20.353418 48.720722 19.130335 4 1
-11.992774 57.493729 10.486340 5 1
-10.837284 36.942406 -5.019290 6 1
10.070098 52.282860 4.427865 3 1
-15.616441 46.190342 16.716728 4 1
-25.718628 34.856621 7.846082 4 1
23.461002 52.341064 10.768778 2 1
-5.838058 31.774645 -13.705871 6 1
20.695076 51.210869 17.201212 1 1
6.544925 56.178661 15.747093 1 1
-19.997116 40.053230 7.327872 4 1
-2.149420 2.969448 1.007942 0 0
-16.690586 39.980389 1.236444 4 1
-8.363295 39.285603 8.172138 4 1
8.827575 48.994381 -9.009218 3 1
8.205534 57.063019 0.597049 3 1
16.377953 41.320999 30.033539 1 1
1.284188 50.709957 11.504800 0 0
19.384903 52.498703 -2.592852 2 1
1.904529 37.340374 -8.700606 6 1
-2.258924 39.244080 -8.750853 6 1
0.192333 29.632467 -18.147627 6 1
18.688091 48.935070 3.132622 2 1
1.935760 46.235744 -12.804522 6 1
13.814245 56.040829 1.469333 2 1
-17.440144 38.912426 -4.369449 4 1
-8.488344 35.222523 -7.442926 6 1
8.917674 56.647068 3.260028 3 1
-13.714293 57.691654 7.349236 7 1
16.668556 52.601559 16.092098 1 1
11.129375 48.580963 30.538860 1 1
0.881409 34.928215 -7.031155 6 1
-30.183147 29.192255 16.046854 4 1
16.370243 51.070492 14.595508 1 1
-31.462435 32.747330 8.838033 4 1
-4.799694 52.482086 8.674749 7 1
-9.439988 42.980793 14.064934 4 1
27.620018 49.032494 11.648751 2 1
2.254797 33.786785 -19.224745 6 1
20.086645 44.484848 18.578133 1 1
17.498955 44.615974 -6.293420 3 1
12.663830 53.577682 -3.381756 3 1
15.397194 44.443871 -12.838806 3 1
-28.890495 27.492138 16.599716 4 1
-6.518602 18.617943 -12.645166 6 1
-12.492381 50.989243 -3.671197 7 1
-8.002115 37.089539 -4.733723 6 1
20.151035 55.322800 8.262577 2 1
-1.983256 47.503036 5.092256 0 0
-12.322345 49.518829 18.147673 4 1
-2.538547 50.486626 10.449597 0 0
-1.064539 23.592682 -15.995382 6 1
13.866385 44.323051 31.421822 1 1
20.942274 49.320225 19.992500 1 1
-17.097050 41.147091 3.042853 4 1
9.391870 51.592110 25.452261 1 1
16.835669 44.376144 20.752039 1 1
-3.560467 33.262688 -12.102375 6 1
15.983900 50.134747 -8.099617 3 1
-9.195810 23.228958 -13.100387 6 1
-4.655141 47.246441 -11.556661 7 1
-17.539949 37.406303 4.354756 4 1
-12.184483 29.060848 -16.937588 6 1
14.777504 54.249229 19.424324 1 1
15.525877 53.874878 8.354572 2 1
6.972867 54.799576 13.692019 1 1
-0.355906 50.274139 -4.204825 7 1
-3.848656 31.847031 -5.683798 6 1
-3.084347 49.740860 -5.043650 7 1
-2.524593 6.644490 2.597117 0 0
25.224445 48.316387 10.674797 2 1
-15.742023 40.288494 9.640126 4 1
13.717483 46.377457 20.377201 1 1
19.806761 48.810085 0.228612 2 1
-20.940001 39.228031 -3.191030 4 1
13.613075 52.229340 -7.370012 3 1
26.860771 47.898315 10.994614 2 1
-9.028926 32.755539 -11.199962 6 1
-10.752094 39.046776 9.643879 4 1
-30.182463 33.037613 9.859496 4 1
-9.616364 37.804077 -6.190462 6 1
-4.228549 35.998898 -3.687488 6 1
2.098165 31.277838 -18.031824 6 1
21.588507 48.921764 11.504860 2 1
18.469097 49.398083 -6.108809 3 1
-7.307588 49.913345 -6.850725 7 1
-24.599159 44.774662 13.817191 4 1
1.051378 16.722275 -12.424868 6 1
-4.699850 34.368683 2.345884 0 0
-29.231798 36.147430 0.648287 4 1
3.418497 43.301250 -8.638736 6 1
22.463598 53.080883 8.161466 2 1
-13.821591 38.626884 -6.317025 6 1
-6.429285 45.437645 12.829004 4 1
-0.420680 35.065117 0.531662 6 1
23.681507 46.197472 1.054657 2 1
9.448335 51.488068 10.076135 1 1
-12.550925 38.751747 3.391996 4 1
-14.587881 42.336346 13.468204 4 1
18.745043 54.166889 1.447223 2 1
-8.144974 59.031269 20.017918 5 1
-15.808516 58.450592 6.975510 7 1
16.319426 49.098579 0.317878 2 1
-0.752076 9.768838 4.721153 0 0
5.623428 57.673836 10.944936 1 1
-1.794185 34.600536 -14.090984 6 1
-11.214200 49.918617 -3.220926 7 1
21.895145 49.402561 -4.679191 2 1
1.199883 24.925125 -15.519616 6 1
12.471981 48.374874 18.516895 1 1
-11.235952 19.302881 -13.173371 6 1
15.651014 43.561386 -9.565196 3 1
-5.445502 42.480869 12.506718 4 1
-14.426009 37.820992 -1.429774 6 1
15.069179 52.858528 21.730484 1 1
-14.338547 38.759468 -3.406249 6 1
-3.798822 33.440258 8.598058 0 0
-9.366535 41.312557 8.769569 4 1
22.162907 50.435345 10.618299 2 1
-18.362425 37.484600 7.119740 4 1
-24.558435 40.942734 10.884453 4 1
12.669976 48.200405 -0.858789 3 1
-10.517013 46.886810 14.109282 4 1
23.731190 49.891026 3.504444 2 1
-0.880129 49.276402 -8.120089 7 1
11.929221 49.788029 16.442326 1 1
-7.562891 47.060318 15.616646 4 1
17.407240 50.328468 17.199028 1 1
-2.017289 37.156811 -9.495004 6 1
-21.410658 42.403751 20.640648 4 1
6.753605 57.226387 20.167286 1 1
-27.560865 29.874598 22.401466 4 1
6.538314 58.986633 19.338600 1 1
-1.873535 31.988836 -15.469700 6 1
-29.524622 28.330507 14.731989 4 1
-0.002469 33.920841 -12.720061 6 1
-9.893114 58.349754 10.924246 5 1
7.049373 58.162956 22.167439 1 1
-27.018482 34.692039 7.100712 4 1
8.390663 53.859791 3.753914 3 1
-3.509625 22.731594 5.033554 0 0
-7.458655 36.934010 7.114089 4 1
0.497933 26.676056 -14.496859 6 1
-11.270757 36.545837 -8.159948 6 1
-9.472441 57.602814 22.692921 5 1
-4.454962 55.170315 3.587152 7 1
14.216104 49.118336 12.031615 1 1
-17.188377 40.034283 8.591633 4 1
21.478296 53.184505 6.863921 2 1
-6.258960 35.312756 -6.538589 6 1
-2.861846 37.404671 0.166135 6 1
17.213675 44.264980 -11.009728 3 1
-2.582486 36.937031 4.083836 0 0
3.378774 42.152565 -15.986572 6 1
-5.738232 33.696095 -10.153000 6 1
-7.343776 44.551186 10.910630 4 1
-4.531339 49.961819 -1.456521 7 1
-2.159357 34.897018 -2.748579 6 1
-0.894663 44.832684 7.150916 0 0
0.061713 53.787380 -0.403847 7 1
-0.032826 29.299448 -16.168720 6 1
9.036234 56.005112 -2.073968 3 1
-25.657423 43.879704 22.170250 4 1
-25.626400 32.872143 18.472641 4 1
-27.432793 37.017857 2.561748 4 1
1.396285 44.674049 -14.607821 6 1
18.427164 48.865494 19.127842 1 1
-12.117270 56.408001 14.763049 5 1
13.988818 55.422768 15.142927 1 1
7.991379 56.786713 12.774359 1 1
-5.371125 54.119659 -3.434744 7 1
-3.117108 47.499409 -13.638404 7 1
15.773753 53.578362 11.146092 2 1
-4.626359 55.916199 -0.399339 7 1
-8.781804 58.984070 9.878720 5 1
4.462225 58.237122 2.612260 3 1
-1.967534 23.934786 5.491052 0 0
18.710728 45.003319 18.490606 1 1
6.728938 53.554321 -8.401788 3 1
-20.586229 36.548847 8.526632 4 1
12.384539 55.736195 14.338575 1 1
13.926392 49.593006 -10.192728 3 1
24.255388 49.408379 12.607371 2 1
17.716236 42.601604 -8.378349 3 1
-2.726338 48.605766 -10.570808 7 1
-1.744269 42.225956 5.967283 0 0
1.112887 18.873661 -13.378899 6 1
-25.497829 45.223827 18.885656 4 1
-22.251680 34.808369 11.095354 4 1
-1.418207 37.861393 7.546354 0 0
26.610151 50.006439 14.139778 2 1
-3.597379 27.818764 6.147939 0 0
-1.580182 38.071220 3.768944 0 0
3.850918 53.910316 7.263587 0 0
-3.515716 56.890156 3.148010 7 1
17.364216 46.047653 25.657372 1 1
9.131104 52.848343 -8.548086 3 1
1.256993 35.866425 -8.530523 6 1
-2.058651 37.233124 -6.648815 6 1
-17.043819 60.270473 5.443678 7 1
-1.647207 12.228622 2.157307 0 0
-27.965469 38.549374 23.339724 4 1
-3.198173 34.011295 -5.466187 6 1
0.256194 50.865372 7.816755 0 0
17.162525 47.467613 -9.915677 3 1
2.158804 39.845913 -8.902578 6 1
-24.026011 46.570251 18.136946 4 1
-20.298243 40.234795 1.661737 4 1
-0.030880 33.041309 -17.443703 6 1
20.453604 43.065464 21.147625 1 1
9.405510 58.254665 7.615103 2 1
-6.400240 37.298943 8.258931 4 1
1.820029 42.077477 -10.756011 6 1
-8.167379 54.445354 2.661619 7 1
-21.810993 46.324635 16.922735 4 1
-2.544415 36.719292 -4.922797 6 1
-20.227362 40.778515 4.507600 4 1
-16.767262 44.494068 15.973943 4 1
4.957122 57.254074 9.712863 1 1
25.312519 47.676296 13.536543 2 1
-10.757264 54.435024 0.986145 7 1
-8.695869 49.245461 -8.291208 7 1
-13.173278 50.459080 17.405954 4 1
-13.390558 38.850048 2.190237 4 1
-27.402208 27.295927 19.325993 4 1
-16.263235 39.244438 -1.733150 4 1
-4.777945 31.189335 4.543509 0 0
19.245173 46.781284 24.255610 1 1
3.768670 39.798637 -16.325960 6 1
13.766101 51.508560 11.109843 1 1
-9.506015 56.096043 14.757654 5 1
-27.660978 43.894482 21.963114 4 1
-0.414992 34.487045 -11.367554 6 1
-0.009502 54.807659 0.759126 7 1
0.163735 21.355537 -14.493687 6 1
-10.040579 17.751993 -13.821405 6 1
-2.255855 24.524876 2.817114 0 0
-15.402629 48.192982 18.763239 4 1
-10.352878 55.236824 5.051386 7 1
-26.053652 36.691265 1.060136 4 1
-4.402677 50.147186 -3.057997 7 1
-11.339399 57.024471 21.737406 5 1
28.955870 43.574913 3.082787 2 1
-2.329611 41.567841 7.403976 0 0
-26.657776 38.527611 22.270828 4 1
15.266578 47.357906 26.368149 1 1
-25.106047 35.455048 12.327488 4 1
-1.422611 54.642673 8.460638 7 1
-2.614382 55.262268 3.693083 7 1
-5.821023 36.303467 5.866939 0 0
-5.322453 37.792908 1.355831 6 1
-13.287632 37.157829 0.594572 4 1
-3.135575 17.039865 -12.003239 6 1
-9.521890 52.853813 -0.680856 7 1
-2.012448 54.837761 -0.593445 7 1
9.067169 51.657906 8.422617 1 1
-2.267105 9.280176 4.026364 0 0
-4.277216 29.960274 2.372418 0 0
1.829053 29.485302 -19.732466 6 1
12.973948 46.483978 23.240067 1 1
0.833998 24.845337 -13.107147 6 1
-0.974744 40.642254 4.172585 0 0
20.328491 52.185726 0.205792 2 1
7.235876 50.889000 -8.806695 3 1
23.561443 47.203735 -4.150049 2 1
-5.684867 29.351374 -11.215490 6 1
17.126244 49.962421 15.209740 1 1
-0.233325 34.726505 -4.854876 6 1
2.835379 53.983208 8.951097 0 0
1.846380 37.634296 -10.700308 6 1
-15.520251 39.824211 -8.248779 6 1
-14.693803 59.212475 6.427418 7 1
-19.635542 37.170757 2.279650 4 1
