-43.135803 59.569202 34.683411 9 1
-12.731695 98.455406 8.810564 14 1
5.886981 64.434624 -64.915298 17 1
-5.849091 81.492897 -42.138313 16 1
40.679741 53.447762 7.887339 5 1
-1.232559 69.600822 -59.548054 17 1
0.706724 70.705933 -0.918806 0 0
-26.984076 100.392730 0.332592 14 1
1.391695 66.783272 -63.225105 17 1
-43.243038 60.652592 19.103249 6 1
21.176361 73.446922 29.777006 3 1
-8.710401 105.859340 -29.547033 16 1
-33.034931 98.582565 -30.125786 15 1
35.135845 42.928741 54.745911 4 1
-56.626934 95.760963 -26.065323 15 1
13.701363 25.353241 23.423660 10 1
29.508915 45.875694 51.074680 4 1
-13.403091 99.253868 5.485677 14 1
2.834519 38.717102 -5.824638 0 0
-19.888699 104.370290 -14.074360 11 1
41.103107 34.848991 13.143988 5 1
34.070683 42.418732 50.176296 4 1
11.640981 64.827484 -48.073479 0 0
-25.987989 93.716721 -37.452774 16 1
40.761662 46.108742 15.646622 5 1
43.230495 39.376984 54.794739 4 1
19.153625 75.331528 40.896500 3 1
35.086746 63.366169 39.984917 4 1
14.097490 69.146820 -60.328804 18 1
-0.245617 43.394623 -1.593690 0 0
-42.179153 103.825720 -22.648476 15 1
-11.696712 102.003070 -12.629827 11 1
-15.084479 88.166473 -38.614304 16 1
36.694302 51.412506 18.904600 5 1
-12.871986 43.639366 4.375329 0 0
-52.758404 91.893105 -36.069756 15 1
18.324375 66.511490 -54.731483 2 1
-22.460011 89.695442 11.570319 14 1
35.732796 60.421749 33.891830 5 1
41.927410 72.790794 6.215118 5 1
-38.276142 86.050919 1.316425 14 1
-39.859100 91.220085 -33.793518 15 1
-63.642658 92.094810 -29.618822 15 1
-32.427273 84.656197 8.030296 14 1
-7.207420 85.407562 -42.381371 16 1
-0.099168 88.941864 -3.473778 0 0
12.518915 58.882290 54.359257 3 1
55.751366 31.308662 50.521893 4 1
-6.360049 91.661804 -4.063483 0 0
36.963184 56.981876 44.684170 4 1
-40.030731 64.067451 16.793453 6 1
54.956127 36.166378 46.009624 4 1
20.794050 52.596115 57.554592 3 1
36.093349 57.579273 14.566906 5 1
17.473463 69.246208 35.914032 3 1
-6.780199 99.774979 -11.929342 11 1
20.010872 68.549103 46.785854 3 1
-44.223232 66.486320 3.468877 6 1
-14.616112 99.781738 1.279527 14 1
5.248326 20.006697 4.729370 10 1
-41.554356 99.705833 -23.290409 15 1
31.889027 67.102440 31.602118 5 1
11.932146 25.657675 20.915947 10 1
-23.250113 103.549410 -5.171763 14 1
-0.689923 87.821327 -39.949032 16 1
1.472541 83.603004 -1.911502 0 0
24.821442 18.514275 8.415029 10 1
-5.665079 19.500544 -7.764976 8 1
-14.052720 96.085251 -32.186470 16 1
-15.913883 101.317390 -11.897621 0 0
8.789658 58.730774 -36.178104 0 0
13.577359 67.468071 -53.270447 17 1
19.144527 47.942188 57.854912 3 1
41.351910 53.095917 45.469810 4 1
11.625992 22.750591 12.875784 10 1
-36.337521 82.122345 6.748988 14 1
27.310993 41.668991 58.307701 4 1
12.143229 52.580853 59.821934 3 1
39.825668 58.323284 -48.839012 2 1
7.794680 68.778732 56.560329 3 1
-21.329180 88.878082 20.178986 14 1
-29.823717 85.930824 15.491634 14 1
-7.547591 84.544426 -4.441465 0 0
30.488331 74.114998 25.917091 5 1
-20.971157 99.498940 1.185658 14 1
-4.986838 90.997383 -39.804008 16 1
9.730972 24.586655 16.744026 10 1
27.389965 68.774010 24.023018 5 1
-7.800587 88.569534 -41.361057 16 1
-14.209843 92.757477 -8.141604 0 0
7.278896 75.103264 -52.709011 17 1
8.851372 23.323006 23.203878 10 1
-54.229073 97.522545 -24.724260 15 1
39.218578 67.597588 9.131685 5 1
-31.142624 102.353270 -12.121333 14 1
-5.083037 93.654503 -35.591953 16 1
52.730415 45.259846 45.094349 4 1
-36.965019 56.519646 36.730927 9 1
-47.179905 64.306534 30.103535 7 1
-40.232758 57.488049 39.635345 9 1
18.300194 61.675293 -56.848686 2 1
-38.967789 91.217285 -30.496941 15 1
38.810032 50.333721 49.067482 4 1
-47.600346 83.519615 -35.302704 15 1
29.975046 62.764198 35.678703 5 1
-16.440363 103.240520 7.667408 14 1
23.958761 67.811661 27.453030 5 1
6.533411 68.498734 -61.107155 17 1
29.656811 57.729816 33.549496 5 1
28.708607 44.216358 55.637577 4 1
-1.325199 3.410003 -2.143404 0 0
-0.872120 28.583275 -2.475017 0 0
41.042156 73.052460 10.493882 5 1
-27.830284 60.172924 38.450691 9 1
-33.925541 99.902191 -10.288489 14 1
17.620407 65.136002 43.040974 3 1
-9.940169 94.569397 -9.690302 11 1
-19.907745 95.301796 13.330924 14 1
40.282871 27.989405 59.311447 4 1
41.539764 51.343239 15.269768 5 1
-9.471685 81.395584 -4.392650 0 0
50.145752 37.166538 46.307507 4 1
39.602200 41.077496 48.705608 4 1
12.717949 100.410500 -12.532042 13 1
-3.411949 37.566555 0.141994 0 0
23.391951 19.165354 4.302535 10 1
4.654140 50.311588 -19.294720 0 0
52.385849 40.900112 47.758656 4 1
2.704646 90.651062 3.281083 0 0
-38.270832 65.662605 13.836887 6 1
-31.136978 60.163528 34.835335 9 1
44.782005 52.656078 44.097603 4 1
-31.369167 54.134678 41.370014 9 1
43.465965 54.605381 11.610729 5 1
33.893013 54.991108 41.211353 4 1
3.057766 48.084564 -0.753689 0 0
-13.070554 95.720757 -3.447393 14 1
-2.603528 5.308983 1.238557 0 0
44.003845 38.432899 7.656967 5 1
0.766666 59.725578 8.770374 0 0
-16.107388 94.383377 -9.437574 0 0
-0.091703 21.554392 -2.374063 0 0
0.947157 84.366646 -39.795170 16 1
30.899614 58.635372 19.780815 5 1
-9.083512 96.077118 -33.935234 16 1
36.404346 72.930717 18.055279 5 1
2.810605 78.910637 0.124131 0 0
39.003674 48.406567 43.821308 4 1
-38.183414 59.147106 31.680515 9 1
36.388283 46.884060 45.988945 4 1
-6.904223 22.964554 -5.629252 8 1
0.981595 30.361820 -2.358476 0 0
-19.280722 106.000630 -3.384567 14 1
-18.306868 107.220200 -6.589594 14 1
47.001080 35.643642 53.955704 4 1
27.644445 56.454597 22.702854 5 1
36.620117 55.506191 -51.691513 2 1
-0.621287 98.502769 -34.568336 16 1
37.151825 51.507156 28.823534 5 1
34.167263 53.998726 21.791140 5 1
-34.325054 60.963211 30.948286 9 1
-12.926719 102.133000 -23.817045 16 1
33.945431 75.101089 21.062378 5 1
-1.075749 94.320084 -37.710361 16 1
-2.351599 22.917463 -20.386681 8 1
7.501288 67.995705 10.923667 0 0
15.944193 22.770174 -0.092367 10 1
-48.831146 102.932490 -24.525976 15 1
-48.567287 65.329262 23.248146 7 1
-48.487309 61.612103 22.298267 7 1
9.383390 73.618233 14.592711 0 0
13.477864 78.328697 48.827038 3 1
-39.503315 94.366180 -0.078949 14 1
4.699405 86.547043 0.291535 0 0
-45.019482 63.966618 6.176309 6 1
40.612911 54.553501 23.585209 5 1
-15.738285 87.633614 -41.768036 16 1
25.059078 72.611328 -48.726948 2 1
47.405346 41.064789 45.092625 4 1
-16.378197 104.309680 -16.170433 11 1
13.362785 70.030121 55.949554 3 1
25.543879 62.271481 48.689178 3 1
-1.632125 84.913216 -0.202533 0 0
20.173561 75.911583 36.615807 3 1
55.604061 49.180862 40.589142 4 1
34.655415 47.572811 26.368673 5 1
-11.471106 87.341408 -39.526756 16 1
3.235185 41.548096 -1.431719 0 0
-20.386616 105.065630 -10.850137 14 1
49.485435 39.200592 51.015415 4 1
-2.657819 11.417690 0.298050 0 0
33.162350 62.336582 41.398693 4 1
9.575070 71.511063 48.998993 3 1
-30.212019 58.095631 40.235790 9 1
-49.100925 65.777534 13.668886 6 1
-42.803879 82.040962 -36.606213 15 1
-43.492924 67.472176 10.950098 6 1
-2.632025 87.231110 -37.564133 16 1
-42.708569 97.604584 -25.168596 15 1
-16.121969 99.311348 -6.457476 14 1
47.245026 55.587605 37.176525 4 1
36.521587 43.200985 21.232971 5 1
54.828804 26.728943 50.743717 4 1
-6.673865 96.202629 -0.083983 14 1
12.405365 23.480284 5.272384 10 1
8.019078 68.992638 8.311141 0 0
18.133776 45.949917 59.436600 3 1
4.007294 44.897694 -12.690674 0 0
30.867804 60.408897 -51.849243 2 1
30.115713 59.217377 39.307400 4 1
32.608650 39.092392 54.375774 4 1
-19.566156 100.179770 9.855904 14 1
-19.207293 93.120552 17.569773 14 1
-2.038485 78.759750 -40.289181 16 1
-23.478510 88.544044 15.507541 14 1
36.173100 60.053623 13.577359 5 1
41.425808 53.652851 19.721786 5 1
25.538498 19.728388 13.460102 10 1
51.692009 39.535469 43.803543 4 1
10.387280 73.074692 57.690987 3 1
-52.884148 66.082977 20.603300 6 1
35.569546 53.271084 31.476643 5 1
-18.275850 25.007719 -6.474303 8 1
-0.635680 46.445625 -0.497176 0 0
8.051419 89.960014 -3.091626 0 0
-25.521128 49.563633 13.565622 0 0
-55.888554 69.555489 28.281965 7 1
-25.813118 84.969360 18.218853 14 1
5.629492 95.096786 -6.706826 13 1
42.838921 26.885595 58.559937 4 1
22.598970 70.547462 39.973988 3 1
-9.158593 87.296967 -4.123409 0 0
-42.492344 56.086311 38.340210 9 1
-46.003269 59.492676 26.097876 7 1
-5.549273 89.188980 -3.930243 0 0
-21.728958 91.809578 -39.163136 16 1
22.277018 48.926003 53.541153 3 1
6.907866 57.067394 -31.073141 0 0
0.754360 21.976887 15.541867 10 1
12.045902 104.589390 6.088169 1 1
21.194281 69.143509 -52.511604 2 1
8.180698 22.215574 12.277222 10 1
38.273468 39.273499 20.062599 5 1
26.683372 61.958305 33.802082 5 1
17.239218 107.872510 5.226878 1 1
25.580191 58.446049 -56.246506 2 1
-40.416645 65.485382 2.659490 6 1
1.202990 39.126106 0.925410 0 0
46.110348 41.737041 2.830757 5 1
2.694494 46.763084 -17.710072 0 0
-18.084620 47.835831 9.922318 0 0
-21.353476 92.791397 -36.211277 16 1
-49.494408 94.626495 -34.250160 15 1
14.837345 50.579777 63.977203 3 1
-30.748026 95.134750 -28.511068 15 1
-32.698463 86.339752 11.226129 14 1
15.862450 99.377266 1.738454 1 1
20.059158 22.417324 12.675168 10 1
35.754860 71.876381 14.037855 5 1
-26.258970 95.340790 -30.971457 16 1
20.011314 57.612988 46.275280 3 1
11.619458 20.874468 1.590669 10 1
0.602148 56.186180 5.380339 0 0
39.376038 46.089973 18.989182 5 1
45.506550 58.388985 5.004516 5 1
20.813648 19.937916 12.289034 10 1
2.178129 59.102200 5.748379 0 0
-53.953392 89.280029 -37.341743 15 1
-3.886106 6.424046 -0.707168 0 0
-44.419579 61.666176 14.464842 6 1
-27.242065 101.979130 -12.290417 14 1
-14.617421 23.796738 -2.901550 8 1
15.858833 49.294548 57.703709 3 1
32.417221 35.539806 60.248192 4 1
18.567591 26.946718 23.460724 10 1
-44.306168 49.783169 49.029297 9 1
-1.174290 27.766785 1.067124 0 0
-39.874504 89.234573 1.048150 14 1
-36.678337 100.707590 -25.048607 15 1
11.245946 67.944504 -52.458080 17 1
42.787964 55.784195 13.867086 5 1
-32.070362 53.070015 47.838829 9 1
36.510826 68.042351 12.749335 5 1
44.039604 51.107986 9.021586 5 1
42.012730 56.960102 17.911518 5 1
-2.718695 43.831650 2.266729 0 0
11.004047 76.998589 54.661053 3 1
-4.840016 22.736174 -16.335876 8 1
21.721481 74.495598 33.748928 3 1
2.140778 91.752144 1.118367 12 1
37.956238 60.006119 41.717464 4 1
28.985775 69.830322 -49.461979 2 1
17.215227 52.101105 60.015152 3 1
43.490551 65.637337 8.989171 5 1
-47.780651 61.442001 26.733814 7 1
-41.866894 61.586437 25.244755 9 1
38.191471 55.697254 11.949835 5 1
9.464992 76.998352 56.691372 3 1
10.826295 60.332283 58.092060 3 1
31.950180 66.512062 18.223717 5 1
19.989365 53.317856 48.997051 3 1
4.073721 72.000252 -55.079170 17 1
37.283287 56.875340 30.515425 5 1
14.433531 46.219406 60.715416 3 1
-13.987446 25.995836 -13.929419 8 1
23.871630 62.469894 27.095253 5 1
18.646671 70.106941 -67.606567 18 1
11.981790 67.898605 49.428562 3 1
42.453411 57.940132 4.981934 5 1
6.786265 59.159031 -37.670490 0 0
-0.515977 20.580477 -16.149046 8 1
42.741142 36.483505 50.160881 4 1
10.785532 67.642502 -56.087868 17 1
-9.730109 94.794510 -0.192405 14 1
43.277344 46.610416 49.868065 4 1
-31.991745 97.658493 -26.107803 15 1
-13.687637 100.515360 -4.882202 14 1
-6.217300 66.937843 -63.362484 17 1
11.713192 74.321106 -51.441162 17 1
4.091948 62.200272 8.938880 0 0
9.006127 97.390549 1.015118 1 1
-49.415707 62.840569 15.955625 6 1
37.086021 31.341434 56.305290 4 1
43.675529 47.332535 3.957723 5 1
-11.973413 25.193783 -19.772644 8 1
-39.410854 57.676777 21.706606 0 0
23.911770 66.029396 47.883888 3 1
-0.016517 80.603828 0.717248 0 0
18.470472 108.699140 1.812920 1 1
-37.553913 92.015053 2.202850 14 1
-44.979546 57.892048 32.866112 9 1
-32.433796 100.038770 -2.607485 14 1
31.961403 59.167847 45.856258 4 1
2.415297 87.817627 0.883186 0 0
-46.046440 61.328125 22.089809 6 1
-28.549797 103.517680 -19.548872 15 1
39.916542 30.497673 55.076824 4 1
-37.029915 56.110867 43.171825 9 1
20.164030 67.185425 32.119991 5 1
-51.705559 95.339828 -25.716124 15 1
38.329224 54.608868 27.711197 5 1
-56.443287 100.000240 -26.535894 15 1
-21.678984 101.802780 3.893430 14 1
40.077435 71.972801 8.152485 5 1
34.927917 57.260937 38.743496 4 1
3.842180 91.531036 -5.194729 13 1
-10.098540 106.637020 -21.160410 16 1
-37.568199 99.470016 -29.696690 15 1
-19.008232 97.621773 12.657732 14 1
-23.464287 98.056793 -35.142277 16 1
-51.706615 87.360809 -37.830841 15 1
6.896618 100.170390 6.253875 12 1
-45.666416 95.657005 -33.517300 15 1
-22.663565 90.073212 6.938888 14 1
-19.388519 103.179100 3.725327 14 1
-12.717504 108.801550 -20.049072 16 1
38.224606 51.991367 14.185208 5 1
-34.255390 97.011787 -8.869480 14 1
37.375957 50.668018 42.827847 4 1
16.756002 75.849823 40.883198 3 1
-41.755905 99.684364 -26.170763 15 1
39.388386 48.087799 11.782739 5 1
34.530514 44.492764 25.909805 5 1
-12.960920 91.600021 -39.426685 16 1
-30.683037 102.850490 -9.766174 14 1
-23.944330 102.133340 -22.379580 16 1
-2.203572 73.993706 -58.931309 17 1
14.809408 54.129044 55.542408 3 1
26.988125 73.756691 -47.734440 2 1
41.821796 39.711506 7.507113 5 1
-0.098141 67.548416 -2.149574 0 0
-23.737019 85.063095 21.922600 14 1
12.567366 55.703442 63.029594 3 1
-39.475040 61.983685 27.945745 9 1
-32.245377 104.546740 -18.865295 15 1
18.984421 72.344551 -62.693657 18 1
-2.611867 26.762463 -0.707891 0 0
9.844009 52.137180 62.882103 3 1
36.872314 29.074743 58.691956 4 1
24.962873 50.075214 54.231434 3 1
14.943767 65.380630 -56.085411 2 1
37.167152 48.985336 19.648386 5 1
5.932316 107.317560 9.500228 12 1
-2.772156 65.417511 -62.760952 17 1
-36.877769 67.444969 9.001596 6 1
-5.304945 99.406097 -35.468658 16 1
-2.250557 42.744873 5.287197 0 0
-7.817255 42.363056 7.085530 0 0
23.082367 58.847771 43.964870 3 1
-4.428748 105.497010 -30.824780 16 1
-28.019285 57.730171 43.129871 9 1
-39.891270 83.833252 -35.947113 15 1
-11.897618 24.108742 -16.041460 8 1
-24.501078 102.342110 -17.969620 11 1
14.868645 71.153267 -51.863121 17 1
-17.238560 97.998833 -29.190716 16 1
40.272694 31.787327 58.152840 4 1
12.142887 21.936529 -0.593326 10 1
16.340752 62.897186 46.584671 3 1
-3.059153 79.899788 -1.728769 0 0
-3.566786 73.161964 -2.615853 0 0
38.090004 39.305290 56.299320 4 1
18.398111 51.359245 53.481548 3 1
-19.612347 99.621033 6.846139 14 1
3.322088 59.516365 -0.208832 0 0
7.822699 68.672676 -52.228046 17 1
2.476693 21.186123 11.535185 10 1
-8.451940 80.048744 -2.608252 0 0
13.806137 68.230026 -69.773056 18 1
-53.215199 66.073708 26.215050 7 1
36.229683 32.651886 59.752548 4 1
46.920158 44.766624 2.107702 5 1
4.488994 55.458370 -1.018192 0 0
7.997413 64.299530 61.747688 3 1
-14.607134 97.207092 1.025650 14 1
16.113083 69.509903 -70.210899 18 1
-16.042633 24.451490 -7.228624 8 1
22.345165 62.458454 31.275265 5 1
47.564308 25.041328 56.405518 4 1
-4.227524 96.195389 -34.784107 16 1
27.548302 54.673977 28.643448 5 1
42.384418 49.697083 47.745007 4 1
4.153547 96.729599 8.153028 12 1
-17.612864 100.545230 -13.436496 11 1
13.329509 52.328381 65.078896 3 1
-26.210356 102.968420 -15.545893 11 1
-38.781921 53.849392 40.106270 9 1
20.855318 50.202183 50.868160 3 1
-6.304898 22.755043 -18.281530 8 1
10.716289 68.069702 -70.589020 18 1
24.290062 58.107014 53.773872 3 1
-34.406590 92.562416 4.473774 14 1
-49.975552 66.208931 30.438057 7 1
42.101578 49.926159 13.398255 5 1
-9.084708 90.223236 -6.642260 0 0
-13.067688 83.821686 -40.562134 16 1
-2.022962 65.588341 -0.452589 0 0
-1.884400 46.435375 6.274940 0 0
7.764971 95.179703 6.827925 1 1
7.171343 66.188660 -58.948322 17 1
43.648354 39.763935 47.737602 4 1
-22.319540 101.453520 -24.657503 16 1
45.531757 42.905792 44.837425 4 1
16.252314 60.040623 47.498413 3 1
-22.134842 101.424750 -13.177850 11 1
-34.433769 99.243477 -28.279585 15 1
25.646406 47.774723 57.964024 3 1
-13.123857 44.256786 6.688581 0 0
-23.645168 98.545090 8.338392 14 1
-35.782825 92.687981 -31.952555 15 1
-1.701822 73.081749 0.828150 0 0
40.035725 61.620129 37.331196 4 1
10.250282 75.249901 50.798222 3 1
0.649068 99.585899 7.574852 12 1
24.858032 55.368942 45.044533 4 1
-47.688358 56.625511 39.075966 9 1
23.262762 19.729458 11.359153 10 1
30.628628 53.974258 31.073578 5 1
18.911932 69.298332 -64.987099 18 1
8.646246 71.519424 59.851177 3 1
-51.054996 63.791885 23.981894 7 1
44.247120 59.381824 38.566063 4 1
50.627483 45.886078 46.070404 4 1
6.903286 96.393356 -9.066505 13 1
-26.535437 85.552681 15.933325 14 1
42.448032 62.923798 13.235760 5 1
41.044765 34.481575 10.654432 5 1
28.700628 63.627193 42.365639 3 1
38.855961 62.129818 27.974207 5 1
-17.831669 92.505035 -39.111866 16 1
42.024494 49.865143 41.071178 4 1
32.468918 49.752411 30.017048 5 1
2.512363 100.873340 0.728041 12 1
10.763194 65.890007 -45.585938 0 0
-4.360808 69.131187 -63.211178 17 1
50.275074 36.155663 52.045403 4 1
2.933969 43.712921 -0.121408 0 0
-31.186104 96.339523 4.739490 14 1
21.920460 71.872353 -51.189117 2 1
24.114460 73.330116 29.248852 3 1
16.557201 25.976038 20.575773 10 1
-47.619503 63.718765 4.194310 6 1
-26.141760 102.563540 -5.657625 14 1
5.683370 75.329018 -54.596157 17 1
-49.022934 103.651980 -21.526941 15 1
-52.961658 68.312698 28.627115 7 1
35.493900 40.559235 50.651466 4 1
1.343083 46.928097 2.444390 0 0
28.465914 37.268845 59.640945 4 1
30.843412 75.827309 23.709251 5 1
11.166673 63.095444 56.832989 3 1
-8.845687 91.230446 -3.175126 0 0
-26.171539 101.323630 -1.776316 14 1
11.676074 62.175697 61.559933 3 1
38.270123 52.903126 47.235622 4 1
40.748295 35.442768 56.951611 4 1
-6.911944 85.733353 -7.441785 0 0
-2.475901 10.097014 -2.536926 0 0
16.895412 102.307170 -13.685354 13 1
-40.549286 64.741982 7.547876 6 1
-16.652424 103.209410 -25.901260 16 1
3.411681 55.807491 2.388666 0 0
10.809258 100.714530 6.592573 1 1
10.221481 70.524277 -70.108467 18 1
15.479129 97.201668 -7.707015 13 1
52.046169 29.320560 53.599674 4 1
31.538280 42.953007 51.872974 4 1
-8.079866 82.827095 -6.719857 0 0
49.851322 34.838463 47.925522 4 1
-32.225468 53.543571 17.249010 0 0
33.737965 45.189182 48.215595 4 1
5.325114 96.405838 -4.652549 13 1
10.169615 106.255330 4.853334 1 1
5.272087 50.838398 -25.207306 0 0
26.064631 70.826111 36.297146 3 1
24.537441 20.950529 18.016451 10 1
20.211815 45.341969 54.997425 4 1
33.956959 63.770550 36.051685 5 1
-50.182472 62.060322 20.433430 6 1
27.338470 63.647778 -52.561584 2 1
29.367161 70.347702 32.502304 5 1
22.352863 64.721634 -52.177193 2 1
-29.847578 88.867775 3.475769 14 1
54.060562 34.424995 47.350803 4 1
36.367783 68.081482 24.643032 5 1
-42.536419 62.133163 16.176460 6 1
-44.463848 60.906128 27.235888 9 1
39.031975 45.530605 52.143353 4 1
1.514572 93.593483 4.413136 12 1
21.067360 74.395401 38.205921 3 1
-8.117799 22.411701 -13.738903 8 1
46.449226 50.628445 3.578197 5 1
-2.916345 87.393166 -40.778000 16 1
-14.069214 46.273872 7.540691 0 0
33.932400 57.857620 -51.713741 2 1
15.952337 45.743221 63.775112 3 1
42.497204 32.632591 7.393662 5 1
-28.704449 83.856323 15.729433 14 1
42.556683 59.504574 13.711739 5 1
-11.536560 23.604740 -6.501025 8 1
40.187454 49.027966 17.538673 5 1
12.813183 96.298599 1.984535 1 1
-51.965977 63.035679 13.838541 6 1
9.977330 98.637199 -11.464229 13 1
7.800362 102.313260 9.763347 12 1
50.969734 31.453114 53.465668 4 1
25.522209 60.940071 40.681000 3 1
-33.373051 54.708054 39.515202 9 1
-2.877029 2.584282 1.141553 0 0
32.640877 61.346531 36.757637 4 1
-23.579119 103.847430 -9.522870 14 1
3.505619 77.823547 -53.939671 17 1
-15.864895 100.080660 10.891104 14 1
-34.111412 58.737553 35.637646 9 1
5.403927 65.547447 8.087751 0 0
-18.619381 92.287392 20.828133 14 1
37.704391 76.707886 13.910178 5 1
16.680630 68.660072 -65.505302 18 1
45.375366 25.133232 57.703964 4 1
1.588002 87.716156 -4.795930 0 0
-38.022472 86.354614 4.519246 14 1
-18.285664 99.627167 1.657813 14 1
-32.847115 90.643837 1.077727 14 1
-39.930584 63.954258 20.633677 6 1
30.289339 63.304546 -50.466038 2 1
25.978977 51.543728 55.965263 3 1
-5.181633 99.907021 -32.601070 16 1
0.464450 36.038658 -3.491998 0 0
-1.913078 96.573280 -35.002956 16 1
19.252991 105.011250 -0.398064 1 1
-17.356730 26.666935 -10.959947 8 1
29.659986 72.235748 29.993109 5 1
11.231809 23.397429 3.056944 10 1
34.861622 51.742428 23.236164 5 1
3.085886 67.438797 -58.552048 17 1
0.793186 43.304550 2.243123 0 0
0.881038 48.085865 -2.258217 0 0
0.892983 31.414141 -0.236792 0 0
-1.946996 102.901440 -33.730061 16 1
-38.183479 65.390289 17.425776 6 1
12.636338 102.629030 0.909955 1 1
25.742510 53.544018 54.383686 3 1
-46.027428 57.411495 36.726414 9 1
-36.389397 91.895638 -2.045489 14 1
-10.347236 24.069731 -12.614008 8 1
-40.280987 60.292828 31.971109 9 1
0.574443 50.261513 2.950550 0 0
-0.898271 0.851148 0.402866 0 0
-37.369308 95.533607 -5.690882 14 1
2.521071 50.892433 -23.268028 0 0
-3.033523 83.924187 -2.078403 0 0
37.601879 46.502583 24.256195 5 1
30.609507 56.632141 21.336908 5 1
-10.534914 75.619354 -41.862759 16 1
20.315086 22.425512 15.671337 10 1
-49.518143 65.412231 10.885974 6 1
-16.210007 107.118570 -15.968291 16 1
4.585060 22.237398 -1.115508 10 1
30.606379 42.797417 55.514870 4 1
3.091588 44.757748 -14.867973 0 0
27.145254 67.244926 -50.796005 2 1
-35.735706 53.909412 16.766504 0 0
31.278316 35.431126 58.150509 4 1
13.827744 63.131371 50.018665 3 1
-10.670089 81.810577 -6.359354 0 0
39.556408 74.312424 12.227529 5 1
-51.536625 93.781364 -31.307533 15 1
-6.354194 92.725639 -39.020679 16 1
5.304047 90.383186 -2.122243 0 0
-32.175137 102.573680 -20.827415 15 1
5.407275 19.365618 2.427725 10 1
-45.844246 63.185940 23.568497 7 1
-59.002087 98.629837 -27.702957 15 1
13.005467 70.176430 -57.941891 17 1
-14.776108 101.568470 8.771556 14 1
6.452155 99.037392 -8.943820 13 1
-35.728085 53.202900 50.251713 9 1
38.741051 52.883556 12.090320 5 1
-42.082611 60.503765 22.731291 0 0
-27.287329 87.395149 17.920856 14 1
-16.724817 96.134209 -30.772476 16 1
1.744022 101.485660 -34.063267 16 1
-18.503674 95.498199 16.301554 14 1
27.477961 57.654163 42.367737 4 1
-52.921066 62.379421 18.713757 6 1
13.370675 22.039248 -2.752072 10 1
48.721977 31.752157 54.292877 4 1
-47.469631 64.519081 27.767031 7 1
-51.085957 66.650581 23.616255 7 1
-19.920448 99.331413 -32.282139 16 1
-35.830406 84.053207 7.947148 14 1
32.756901 64.539757 -50.088551 2 1
5.345129 59.931206 1.304982 0 0
-47.719833 62.536209 17.697538 6 1
40.570889 39.722927 10.936851 5 1
-30.218281 98.627419 -7.668549 14 1
1.788407 93.015648 -37.930805 16 1
-19.446442 99.561340 -3.889794 14 1
-17.584805 103.848510 -14.131824 11 1
12.313065 77.751068 51.740707 3 1
-32.069939 94.131714 -30.302326 15 1
11.267712 52.709545 66.642853 3 1
15.567379 99.173378 -6.387432 13 1
55.579773 42.168926 41.990063 4 1
21.297024 71.148705 30.080706 3 1
-35.266956 58.209053 38.590900 9 1
29.654943 63.324757 20.425215 5 1
-47.629025 85.767845 -35.875580 15 1
-47.351105 62.878723 10.495372 6 1
42.479351 65.247711 4.898457 5 1
-37.054276 62.583416 26.588440 9 1
34.990829 77.667122 17.941799 5 1
-23.217905 48.493916 9.642657 0 0
-1.761251 70.621849 0.448939 0 0
52.921001 37.296791 49.307987 4 1
5.410489 58.345806 3.041353 0 0
42.705612 39.740437 5.237401 5 1
-5.828810 99.425537 -9.847639 11 1
-0.030094 35.267239 1.412971 0 0
-11.275008 99.780273 -4.327641 14 1
-15.071752 103.181810 4.589434 14 1
31.313208 65.876709 33.478237 5 1
-49.951981 64.104843 26.650135 7 1
14.817974 21.419075 1.409736 10 1
-14.743737 42.844791 5.507909 0 0
-52.353352 103.937070 -24.365356 15 1
-14.512333 90.052925 -37.200150 16 1
9.488195 98.121605 -4.264510 13 1
8.577547 100.174530 -10.154799 13 1
-15.248388 104.256580 -27.452856 16 1
1.202540 33.699917 -0.441626 0 0
40.525169 32.435692 53.571320 4 1
-0.159961 8.018885 -1.645452 0 0
-0.973331 70.723282 -40.731232 16 1
-25.483097 86.644600 21.084908 14 1
-12.120565 100.378940 -6.571620 14 1
-6.179734 73.878799 -41.956078 16 1
11.768919 76.089577 48.459984 3 1
26.956726 67.182907 38.303802 3 1
38.702133 45.075890 15.535078 5 1
34.911274 61.828552 -50.866829 2 1
-14.127863 101.004680 -13.325853 11 1
-1.648550 52.658314 -0.292438 0 0
-3.287105 95.092400 -37.659103 16 1
8.619509 66.913239 57.759594 3 1
-49.224152 64.974060 5.522665 6 1
19.692453 50.293976 57.727943 3 1
53.712563 28.617367 50.038818 4 1
39.796703 41.879967 17.202089 5 1
-36.346565 68.038979 12.892256 6 1
18.233475 73.893250 25.743574 0 0
-14.076447 105.947460 -18.537642 16 1
32.723389 52.642544 43.455826 4 1
50.681271 26.458261 52.381809 4 1
-6.502396 22.159492 -10.901867 8 1
-49.568787 91.353371 -37.466320 15 1
18.509237 22.973066 17.470556 10 1
6.843403 67.198975 61.393517 3 1
-0.210871 15.744694 -2.736196 0 0
-3.703956 14.254453 -2.106413 0 0
-0.510636 40.359425 1.921621 0 0
-18.553188 97.450317 -12.407396 0 0
22.161608 63.779331 29.403803 5 1
1.626964 96.727356 -35.382332 16 1
-52.762672 93.754364 -34.722843 15 1
46.903797 47.265945 2.616242 5 1
-9.636646 91.858978 -39.354012 16 1
14.188910 59.971771 49.856792 3 1
5.053532 51.381248 -21.489805 0 0
2.445131 24.083496 18.754030 10 1
14.417762 67.841217 54.902100 3 1
2.289636 102.581880 10.977732 12 1
25.561275 67.243584 42.347431 3 1
12.348572 79.723129 47.281151 3 1
29.103991 59.324596 47.253216 3 1
-15.252090 100.959850 -3.047975 14 1
5.607136 73.441498 -56.022213 17 1
4.910693 90.337029 3.884853 0 0
-39.346367 83.607292 4.600769 14 1
-13.112710 89.210953 -5.263923 0 0
-16.408604 96.612740 -36.885162 16 1
16.072157 104.817710 0.168386 1 1
19.051949 78.455376 40.090542 3 1
-44.298378 58.522205 30.182539 9 1
-7.621478 102.750630 -33.005360 16 1
9.560359 93.130783 3.423009 0 0
4.809713 71.721390 -57.944294 17 1
40.626163 56.454922 -49.895584 2 1
39.654751 40.011299 13.297130 5 1
45.376808 42.399445 5.815376 5 1
-6.182292 71.465363 -4.735374 0 0
34.460068 57.081577 33.344070 5 1
15.946203 69.685890 -55.436275 17 1
0.380450 24.963902 -0.339419 0 0
42.573490 37.859348 11.093387 5 1
-1.157491 81.364738 -2.785862 0 0
-44.412212 89.837456 -35.731747 15 1
4.719531 104.010540 6.368684 12 1
-47.378246 54.142036 42.553898 9 1
41.930855 41.176376 54.246017 4 1
-3.694406 101.600650 -34.498276 16 1
16.505350 20.986353 -1.419417 10 1
39.569740 70.369392 14.971945 5 1
16.534565 77.994713 43.913574 3 1
6.022264 22.993105 17.057928 10 1
26.354856 56.078690 -58.268158 2 1
42.677708 43.373238 52.666416 4 1
-60.835945 95.123039 -29.043137 15 1
7.100489 98.733521 8.506806 12 1
-28.628242 86.911858 8.479117 14 1
36.614677 35.775578 58.631207 4 1
-50.032768 87.224731 -34.649456 15 1
14.169340 95.708038 -6.491613 13 1
3.318086 18.169336 3.468435 10 1
11.761721 68.635002 58.585445 3 1
20.078653 74.019257 27.816603 0 0
27.828304 61.523087 46.156731 3 1
2.085846 64.142242 -65.305389 17 1
31.412441 53.336197 50.311298 4 1
-3.674116 41.022011 4.839636 0 0
-1.981208 63.443291 -3.341844 0 0
25.247768 64.313171 34.058926 5 1
-23.670713 101.050330 -26.724054 16 1
23.703032 55.642727 55.337234 3 1
21.403906 61.897144 42.676208 3 1
41.600220 61.812336 17.671873 5 1
35.087494 73.281487 19.879166 5 1
-21.877176 101.007240 -20.050800 16 1
-9.555971 100.173320 -30.681644 16 1
43.309994 43.419533 45.650024 4 1
37.367954 58.761913 -49.340012 2 1
-39.361015 100.536090 -22.543476 15 1
-3.389126 44.552010 6.642886 0 0
34.307011 56.014061 18.888578 5 1
13.256967 67.993561 -48.830788 0 0
-39.348087 88.970825 -1.147550 14 1
-11.719590 101.114050 -34.251865 16 1
25.203413 45.996555 56.505352 3 1
-0.056620 12.082759 -2.237653 0 0
-25.995802 100.001360 -26.379803 16 1
-5.177519 69.120132 -41.686005 16 1
-28.723066 85.765976 11.404226 14 1
10.061158 23.998293 19.141148 10 1
-0.645364 80.581657 -40.806614 16 1
13.848198 48.379074 60.336361 3 1
32.477257 69.776985 -46.536800 2 1
36.170662 45.540001 22.301277 5 1
52.348866 33.439857 51.908451 4 1
11.318515 71.641869 -65.777771 18 1
-20.109962 102.126860 -16.176367 11 1
46.107311 42.586868 51.723354 4 1
-40.525391 52.779278 44.337372 9 1
2.934336 49.246273 -21.582369 0 0
-16.069105 93.064781 -34.084763 16 1
-34.524857 83.933830 9.878803 14 1
50.042805 24.609694 54.610657 4 1
17.360733 64.430542 55.075508 3 1
11.265959 69.075493 10.845506 0 0
42.009605 67.146141 12.871214 5 1
-34.152683 86.819923 4.201924 14 1
-22.251699 92.573563 19.723524 14 1
-41.127953 92.702591 -0.893711 14 1
44.855423 49.210281 2.775340 5 1
32.490730 56.321846 47.852310 4 1
2.668622 69.799965 -60.724449 17 1
21.334713 20.307358 15.540234 10 1
6.713015 73.718430 57.774483 3 1
12.278699 45.689388 67.747040 3 1
-30.120823 93.683601 8.380063 14 1
-11.164907 82.287804 -42.859409 16 1
12.992848 23.795944 17.571789 10 1
44.469944 43.704521 2.290215 5 1
5.879889 64.367516 -62.659973 17 1
55.392746 45.824669 42.972157 4 1
-11.473126 78.905548 -41.149155 16 1
4.015024 23.651852 14.615644 10 1
55.241631 39.064598 43.655266 4 1
-5.682669 103.764800 -26.840385 16 1
-12.967036 22.197592 -2.229992 8 1
-35.420776 84.067986 4.046821 14 1
-7.544246 89.528847 -36.948486 16 1
0.124414 89.814331 -39.281590 16 1
-23.025822 102.985890 0.079567 14 1
-56.425568 97.836861 -25.117630 15 1
-25.802603 94.592247 -35.230324 16 1
-11.192303 98.655594 -10.279766 0 0
27.289803 51.819309 46.573818 4 1
16.826010 21.737299 7.852219 10 1
3.851162 108.341730 11.958526 12 1
21.218431 62.288277 -54.634808 2 1
-41.001766 55.907936 42.497948 9 1
-0.354193 91.974335 -36.316971 16 1
7.359502 97.418655 4.208205 1 1
35.243813 64.429939 -47.750607 2 1
-0.769260 82.874924 -40.688900 16 1
-5.986829 95.612915 -9.679524 11 1
42.393639 68.406326 5.054454 5 1
1.252971 93.679428 1.863211 12 1
13.527009 23.132622 14.085960 10 1
39.095070 49.613983 22.069448 5 1
51.171238 51.878014 38.789978 4 1
-44.803520 99.981644 -22.837311 15 1
5.983552 44.677608 -3.283581 0 0
-17.392918 100.072710 -24.706577 16 1
6.757483 96.519180 8.343689 12 1
-50.453079 64.510468 17.348001 6 1
37.076805 61.387997 -50.246601 2 1
-15.316489 98.197914 -35.201302 16 1
16.553568 24.746862 16.622993 10 1
-35.460419 101.047590 -21.057501 15 1
2.037460 73.842339 -55.135044 17 1
18.251656 70.466423 45.881321 3 1
7.294421 53.515022 -26.629160 0 0
46.122181 39.681576 53.369461 4 1
37.840637 68.923302 10.978431 5 1
2.184980 34.870972 -2.084707 0 0
-2.335071 5.468724 -2.017624 0 0
-50.603806 91.498558 -32.224140 15 1
12.374455 74.271652 46.837208 3 1
-47.078152 98.735268 -26.175665 15 1
15.679484 54.914948 53.315647 3 1
25.080353 66.286003 -50.300339 2 1
23.901840 59.432915 29.093204 5 1
7.994313 22.694328 20.453344 10 1
-4.580812 43.514496 4.725862 0 0
25.299431 70.344589 -49.100357 2 1
9.537126 65.041153 -62.413544 17 1
10.293489 92.403534 -0.872402 0 0
1.724782 41.729744 -8.556396 0 0
20.755648 67.525017 -51.028732 2 1
-29.076143 98.421242 3.957975 14 1
4.117070 42.331085 -5.281526 0 0
40.877136 61.861095 21.469942 5 1
-48.344505 64.979477 21.051510 6 1
-63.254532 94.604851 -29.585001 15 1
32.073063 66.992943 -49.144295 2 1
41.670811 32.616901 9.590896 5 1
-55.828514 101.902890 -23.463121 15 1
35.992092 55.469902 31.783661 5 1
-17.063749 96.416840 -3.755454 14 1
-35.667545 62.877991 29.812473 9 1
-40.406101 94.950371 -27.555277 15 1
-4.043473 21.544514 -4.665825 8 1
0.073802 85.392792 -4.551147 0 0
8.431412 96.783882 -2.107951 13 1
27.811745 60.857533 39.163017 4 1
1.646461 61.527245 0.613818 0 0
-6.761308 96.935738 -2.186105 14 1
-2.483746 17.858040 -5.441257 0 0
53.858250 46.756783 40.522568 4 1
27.953102 68.452705 34.071220 5 1
-39.225040 65.350197 10.726686 6 1
45.956493 35.723698 49.164467 4 1
-43.000206 65.876595 14.595256 6 1
-12.172269 95.581841 -37.315228 16 1
38.008404 49.928551 25.820202 5 1
43.338669 51.918179 11.266291 5 1
4.033255 22.659382 12.128863 10 1
-42.772667 53.206165 43.982021 9 1
-12.573943 98.668625 -12.163404 11 1
-0.975330 53.990772 2.267364 0 0
15.458174 70.821495 -67.080582 18 1
-34.149170 55.414707 45.810181 9 1
-27.494289 83.912987 19.217459 14 1
22.461275 61.609051 -56.978111 2 1
26.531057 56.501270 52.008198 3 1
43.688591 42.993893 9.430848 5 1
45.652054 32.838783 50.946274 4 1
6.699463 108.718540 12.594371 12 1
10.042168 69.015259 49.685562 3 1
0.072631 105.754890 7.422037 12 1
-21.280941 49.545795 11.987819 0 0
10.316641 72.404213 -52.165737 17 1
-57.262287 68.773941 26.698349 7 1
-42.137138 58.540218 30.681538 9 1
8.587762 92.397858 -8.124719 13 1
10.631865 102.845520 6.006339 1 1
-31.959782 100.503270 -11.119400 14 1
30.805927 54.705967 -56.788155 2 1
9.797684 57.584549 65.517273 3 1
-21.565903 97.344666 -12.712967 0 0
15.472076 68.048149 -58.623234 17 1
36.518169 64.176369 12.517420 5 1
7.115513 65.888130 10.253076 0 0
3.742818 62.736523 6.489760 0 0
48.101814 51.941326 42.950535 4 1
8.589484 75.153023 54.225140 3 1
-43.949837 57.596760 37.467434 9 1
-10.469205 88.407890 -41.425526 16 1
-52.471676 95.515251 -27.816721 15 1
10.993650 68.497360 -49.671082 17 1
38.378330 46.903282 22.095219 5 1
-31.989971 83.654129 10.016827 14 1
28.085308 48.593853 49.509434 4 1
-25.299276 100.299020 2.410919 14 1
16.656158 65.061073 -54.710304 2 1
-12.706592 85.937859 -6.646941 0 0
10.819286 66.463791 -60.548481 17 1
23.998322 67.337723 46.014618 3 1
41.407887 37.918114 13.569385 5 1
15.454362 75.023315 22.233393 0 0
35.411720 75.488701 16.047028 5 1
20.675922 22.413494 9.479106 10 1
7.993679 23.505661 15.892633 10 1
-17.679028 104.543820 -8.913999 14 1
11.429607 93.294052 0.988845 0 0
-12.535965 91.805260 -7.004064 0 0
-20.688885 97.819298 7.528212 14 1
-36.469952 93.691330 -28.191193 15 1
24.844801 73.721329 27.142509 3 1
-7.630037 88.667625 -2.565391 0 0
26.377928 47.564034 53.353329 4 1
4.540316 54.146019 -29.989294 0 0
1.584310 60.659351 4.032739 0 0
8.356912 22.443798 3.890680 10 1
52.034195 33.389912 47.873684 4 1
10.515336 71.019142 13.504840 0 0
7.438217 70.958549 12.593943 0 0
-14.543973 100.543550 4.083042 14 1
-3.020530 24.878759 -1.957068 0 0
-35.157417 89.659637 5.636731 14 1
-44.712917 105.566120 -21.120253 15 1
-13.017395 88.938072 -9.294494 0 0
46.006920 46.033127 4.349718 5 1
-37.619816 57.968964 19.064533 0 0
-32.244164 56.740421 37.511715 9 1
-45.350761 67.226532 12.098230 6 1
-15.915319 90.287285 -8.012089 0 0
39.268650 43.666508 13.318170 5 1
14.902295 73.183853 20.037535 0 0
32.232735 55.281265 22.469690 5 1
38.105465 43.209034 18.042191 5 1
-22.819387 95.250038 -37.504162 16 1
30.238512 45.309261 54.337406 4 1
14.835806 76.580231 47.501129 3 1
12.796198 64.917824 -59.740860 17 1
18.624750 64.002907 -56.435123 2 1
3.773249 107.712990 7.966881 12 1
18.458687 58.600037 57.880974 3 1
-14.200869 103.234780 -31.587130 16 1
33.278694 52.985416 32.061840 5 1
-25.539925 94.234695 0.180162 14 1
38.575397 58.743832 31.119368 5 1
-52.470776 85.273361 -37.297478 15 1
-5.699395 89.156685 -40.818588 16 1
28.902084 64.724220 -51.447613 2 1
20.916298 108.185580 0.710305 1 1
39.735661 75.340813 10.140051 5 1
9.870227 64.914078 -42.188126 0 0
-37.116467 80.596619 4.194183 14 1
-36.637814 58.188900 34.563732 9 1
24.124910 52.183361 47.268120 4 1
-51.702263 62.863186 10.001926 6 1
10.906964 92.676033 -5.637043 13 1
33.295540 42.053017 55.647133 4 1
-29.515976 84.167572 13.664404 14 1
-0.805566 58.320312 3.485671 0 0
-40.110577 106.300450 -20.862928 15 1
28.261301 60.351852 21.394115 5 1
-29.634617 87.871651 14.225428 14 1
-46.350639 97.449951 -29.898239 15 1
-22.100271 95.450722 15.875781 14 1
14.814528 65.041702 56.491776 3 1
12.854134 99.351265 -6.185743 13 1
8.217458 75.896301 58.324818 3 1
-4.206256 68.721985 -1.406875 0 0
37.173344 41.846828 24.007532 5 1
2.816936 22.480316 16.054724 10 1
-19.130714 99.461525 -25.879833 16 1
-19.849646 97.930588 -35.383869 16 1
1.211518 39.724655 -7.813955 0 0
-55.448601 67.558563 25.364849 7 1
-8.233913 24.148409 -25.069475 8 1
27.492279 72.454384 25.055937 5 1
1.674631 17.219746 1.058001 0 0
-22.965876 102.039700 2.147982 14 1
11.906787 64.667381 60.378983 3 1
37.160202 41.698486 19.730959 5 1
37.196903 72.824867 12.136695 5 1
-23.970232 94.783104 -31.092966 16 1
45.628372 54.855862 4.447857 5 1
-32.312782 100.072350 -22.498960 15 1
-32.730171 98.319954 1.613978 14 1
24.625042 64.956192 25.975777 5 1
29.313490 50.805470 46.162025 4 1
0.927458 100.917570 2.870906 12 1
-33.791851 96.591888 -24.509138 15 1
-19.227758 100.627390 -27.793230 16 1
24.934717 62.351727 -54.677269 2 1
17.784334 23.149883 9.664688 10 1
45.071075 30.456816 52.620045 4 1
3.478658 87.683044 -37.509457 16 1
46.100502 47.611942 40.804478 4 1
31.961292 51.869255 28.929708 5 1
-20.887981 102.739140 -19.147150 11 1
43.284100 36.520401 8.420685 5 1
-30.534109 96.370537 -3.968958 14 1
4.052838 64.325851 4.559481 0 0
15.164508 69.035950 42.433578 3 1
-6.996488 104.825770 -30.892483 16 1
-32.273865 90.026833 8.512160 14 1
-35.441853 99.028549 -23.759785 15 1
-11.414886 107.817500 -24.725048 16 1
-25.616575 100.066200 -8.408593 14 1
-6.219018 81.616196 -6.586429 0 0
7.560710 60.508602 -39.182396 0 0
-43.593086 96.224167 -33.230984 15 1
12.509630 57.869785 62.036064 3 1
11.101170 72.245049 47.405556 3 1
-45.377892 61.254013 19.180452 6 1
0.504411 70.657410 -57.951077 17 1
7.535925 59.049946 -34.439457 0 0
17.792810 66.863846 40.506577 3 1
2.052587 21.965199 -0.444141 0 0
37.310066 59.219261 37.087330 4 1
3.341337 45.440742 -1.362223 0 0
28.574543 75.176315 25.558447 3 1
7.019948 97.837387 1.752953 1 1
0.490262 57.401157 -3.096096 0 0
0.050918 73.969299 -58.000767 17 1
-10.879380 101.053860 -28.088417 16 1
29.973845 39.706100 56.207691 4 1
-21.025385 47.120972 8.604325 0 0
-60.293396 96.228767 -26.371336 15 1
-7.981343 97.354691 -10.992440 11 1
37.135864 63.335594 39.291981 4 1
-53.063625 90.173416 -33.676605 15 1
-22.985226 94.223984 -33.038319 16 1
23.153135 69.550064 -51.692471 2 1
7.006615 105.522190 8.587440 12 1
-25.123772 95.265610 12.774563 14 1
12.706008 96.460297 -10.427532 13 1
17.223848 73.418716 22.797991 0 0
-28.012362 50.378269 14.534548 0 0
45.727097 57.354214 36.660599 4 1
12.844163 55.658695 56.337658 3 1
42.131638 44.067749 6.299401 5 1
-7.112127 78.958961 -5.797668 0 0
12.100492 62.302368 54.194759 3 1
-20.324652 105.778730 -6.823315 14 1
-3.343726 19.113474 -7.180069 8 1
-1.734120 81.773285 0.135835 0 0
26.258802 61.893730 23.461578 5 1
-13.197453 23.619703 -9.320527 8 1
3.207382 86.328575 -1.254971 0 0
-1.175376 60.209385 -1.291486 0 0
20.012892 65.174599 -52.817101 2 1
34.573032 63.712555 33.759998 5 1
-26.157383 88.898170 4.384952 14 1
34.516926 30.873959 59.173603 4 1
4.516335 46.691822 -16.205387 0 0
-39.686890 56.664589 36.336819 9 1
21.344522 48.165997 51.754333 4 1
-43.659634 67.013397 1.389933 6 1
-42.812443 57.741253 33.590992 9 1
40.428055 61.561546 23.725519 5 1
-55.432533 94.682968 -28.000608 15 1
-23.993849 102.432010 -15.691420 11 1
-10.432159 23.953516 -18.843130 8 1
26.884384 54.626106 44.774044 4 1
18.079384 68.754982 -69.181534 18 1
14.224560 98.166618 -12.642295 13 1
-21.398653 93.692215 6.209102 14 1
3.942738 51.282349 -3.198755 0 0
0.145448 101.736110 7.840378 12 1
3.820722 62.662273 2.695143 0 0
-9.588334 102.223840 -26.763266 16 1
-17.407673 99.884323 9.382476 14 1
42.632870 69.422882 9.409679 5 1
-27.875668 104.373080 -17.051197 11 1
47.649254 45.583687 48.391201 4 1
-7.377815 82.205391 -4.786778 0 0
15.172922 26.480452 22.196928 10 1
-6.113233 23.107063 -22.262024 8 1
-12.716230 95.652336 -11.185457 0 0
28.088696 39.844967 57.380806 4 1
3.607980 20.262299 6.133245 10 1
-15.367042 97.149002 -10.415576 0 0
-5.571452 89.686073 -7.513618 11 1
52.733040 27.031876 51.101639 4 1
-0.834735 14.780694 -0.044173 0 0
35.303711 61.974937 36.656528 4 1
-1.566314 72.164848 -58.005569 17 1
-41.807297 62.972858 11.740661 6 1
15.470535 71.622383 -64.774139 18 1
-6.343773 92.564270 -2.013413 0 0
43.494774 46.756371 42.866982 4 1
26.969711 61.358341 -52.844063 2 1
19.379778 21.738262 -1.318103 10 1
8.775759 59.488110 65.562439 3 1
10.813178 73.031975 12.721318 0 0
22.729538 23.711771 21.248112 10 1
6.716282 67.844353 -56.243095 17 1
3.940943 21.009369 2.561824 10 1
-18.593182 96.353889 -37.071095 16 1
11.963452 95.621704 -1.638397 13 1
23.594942 72.336975 36.006855 3 1
-4.019208 106.994000 -29.351116 16 1
32.911480 52.442928 26.045118 5 1
-49.308025 89.361969 -38.204121 15 1
0.654318 60.359356 -2.565811 0 0
-14.365589 90.498703 -9.908643 0 0
-32.460312 53.549049 43.150467 9 1
-10.725606 43.467991 4.174109 0 0
-18.694691 101.913340 -9.081666 14 1
-16.199762 96.162766 0.027936 14 1
11.673208 100.385640 0.939045 1 1
17.892532 20.988636 2.465956 10 1
38.798920 63.314240 9.509451 5 1
39.986767 55.796074 8.457206 5 1
-4.653644 22.492146 -20.466625 8 1
-32.754517 96.627640 3.316974 14 1
12.443308 70.397034 -61.966667 18 1
-49.640961 95.579956 -28.055433 15 1
6.248326 55.434616 -29.864834 0 0
-20.118967 90.384094 23.795841 14 1
-37.955738 54.053333 46.845081 9 1
-37.988243 82.154594 5.375062 14 1
-13.312610 25.215618 -12.029483 8 1
-10.615849 89.158920 -37.311245 16 1
0.672992 50.206753 -2.517792 0 0
1.701467 18.636124 -13.110824 8 1
27.961390 45.705414 52.533768 4 1
-1.126201 19.728170 -12.414242 8 1
39.249821 68.712837 18.139076 5 1
-44.294598 97.947067 -29.626040 15 1
18.119041 22.298086 13.704516 10 1
2.492514 44.701359 -9.393527 0 0
23.531239 73.256638 33.602943 3 1
-21.510290 87.570168 24.255791 14 1
2.972665 38.520695 -3.356909 0 0
-41.224316 99.021606 -29.379644 15 1
22.713705 64.137619 33.122147 5 1
38.186581 56.820904 -52.289383 2 1
40.325920 51.114281 20.075960 5 1
-23.265194 100.171310 -5.903563 14 1
11.196052 66.336632 53.505676 3 1
14.618179 57.970417 59.939030 3 1
12.305845 94.396294 -8.705037 13 1
-40.464619 86.604630 1.499424 14 1
-0.911235 105.530550 -30.299868 16 1
30.213493 53.712837 43.883457 4 1
3.948768 44.680008 -3.907604 0 0
10.183010 79.416168 51.080952 3 1
-16.488539 100.839100 -22.869307 16 1
-46.344765 52.801380 45.129986 9 1
-4.865948 79.634064 -41.819363 16 1
41.551460 54.512280 21.678070 5 1
7.434721 73.410912 55.689095 3 1
-30.010412 59.222923 36.372612 9 1
-45.186108 101.730220 -21.279617 15 1
6.720141 93.174118 6.867658 0 0
-41.451157 101.828220 -23.273951 15 1
-23.938787 99.435394 6.053165 14 1
31.728655 74.022682 21.255018 5 1
10.732182 96.272415 1.549254 1 1
-19.862299 100.701980 -5.750120 14 1
5.385539 61.116768 3.085923 0 0
-7.134327 39.240112 2.661476 0 0
-2.192508 21.284336 -17.334698 8 1
45.363945 50.058987 5.689529 5 1
-8.093277 92.390556 -35.919956 16 1
-34.061081 51.556679 51.336441 9 1
-2.580591 73.748215 -41.459351 16 1
14.994846 61.093281 58.767765 3 1
17.799782 102.564490 0.497499 1 1
20.881420 69.326843 -64.205719 18 1
0.655413 77.955833 -1.131209 0 0
0.737242 23.634565 13.481561 10 1
27.537100 72.410088 33.955292 3 1
-17.756550 45.965553 8.863184 0 0
-32.620358 101.721270 -24.268389 15 1
37.252895 66.252892 26.080616 5 1
21.124546 75.449005 -49.146351 2 1
1.479376 37.064472 -5.233948 0 0
9.995822 69.192459 -67.813118 18 1
-0.504780 22.116241 10.787110 10 1
-25.768404 99.179947 -24.427507 16 1
12.950775 45.330151 64.015602 3 1
-11.104039 103.850690 -31.382610 16 1
0.022398 40.051659 -4.889844 0 0
32.865635 39.535206 57.514362 4 1
16.398167 44.138390 62.346111 3 1
-46.292980 66.023636 7.567758 6 1
9.237073 68.523811 52.864712 3 1
-42.841194 93.089035 -36.245663 15 1
15.042327 72.669708 42.059113 3 1
33.137707 70.210274 25.985342 5 1
-21.843847 99.766571 -2.360898 14 1
12.070062 100.403080 -8.719263 13 1
5.631160 66.416092 6.168981 0 0
-13.958093 87.054390 -8.652240 0 0
-15.157845 98.394714 6.288289 14 1
-9.263617 84.874100 -42.249428 16 1
-3.950749 96.266068 -11.142842 11 1
-22.051394 98.813774 9.760009 14 1
40.964912 67.083519 15.188691 5 1
-23.488358 99.395226 -24.816217 16 1
14.703308 102.653570 0.489143 1 1
8.915951 62.388264 61.684258 3 1
35.954716 57.627228 -50.941128 2 1
-9.631075 23.574282 -16.911253 8 1
-15.510012 25.459560 -9.085251 8 1
55.424698 39.137367 46.332722 4 1
-11.898508 86.216423 -41.257038 16 1
-10.426014 22.401770 -10.332386 8 1
-45.999374 59.830975 30.457420 9 1
-14.249172 97.455475 9.876712 14 1
8.663762 96.076851 -10.236916 13 1
0.113311 63.583328 -2.400813 0 0
-13.561717 99.131790 -29.462320 16 1
16.988878 71.039879 -49.999138 2 1
29.809700 37.749878 57.849503 4 1
16.496113 21.504639 4.162411 10 1
9.494507 59.878803 -40.615860 0 0
-15.719219 104.906910 -23.131525 16 1
23.323601 63.167961 38.963764 3 1
-41.740318 59.561848 24.684587 7 1
-21.034998 96.409996 -29.511061 16 1
14.399361 103.279640 6.072841 1 1
26.268187 60.434845 50.062790 3 1
1.848418 83.954018 1.040177 0 0
-2.342728 91.543335 -39.188446 16 1
-6.946137 107.657600 -23.632526 16 1
18.593901 24.050804 20.642977 10 1
-53.266228 101.864810 -25.500525 15 1
12.396111 48.990559 68.196007 3 1
-4.311043 89.667076 -36.918812 16 1
-53.375961 94.870399 -31.910976 15 1
50.215153 47.495113 39.959816 4 1
6.891119 63.706985 7.986733 0 0
-20.882586 95.767807 9.028844 14 1
-39.997128 67.786118 7.868521 6 1
12.468197 23.600227 7.915220 10 1
4.873664 100.351130 4.286215 12 1
-32.585182 86.489304 5.980773 14 1
13.875652 98.574524 1.236856 1 1
35.548321 66.301956 28.586519 5 1
-30.407721 90.380020 10.860266 14 1
-48.339916 92.798523 -36.567963 15 1
13.355792 71.289009 -53.709808 17 1
31.670769 64.504387 37.510040 3 1
-50.847172 62.909805 7.786293 6 1
-6.967881 94.002007 -0.475299 14 1
-34.118637 53.969631 18.151728 0 0
-9.257097 70.426727 -42.624725 16 1
-10.673494 25.247211 -22.572796 8 1
2.573348 94.817146 -37.201546 16 1
-16.601116 102.745290 -6.815087 14 1
-20.216478 45.140499 8.062527 0 0
-19.202709 102.305690 -22.875885 16 1
-4.765403 107.240480 -25.400990 16 1
43.945641 51.992760 4.267542 5 1
22.374512 19.742765 9.442059 10 1
-29.842155 56.711155 43.612461 9 1
35.253834 59.356171 -52.337589 2 1
-7.074632 87.619621 -4.527112 0 0
-50.299252 66.014465 27.900528 7 1
-40.408596 67.744652 3.309909 6 1
-51.193890 99.947701 -25.938995 15 1
-40.572563 63.417160 26.888573 9 1
-7.215281 97.085243 1.733923 14 1
42.072617 44.795326 12.581639 5 1
-24.065214 49.194183 11.431463 0 0
-34.436615 82.813271 6.015225 14 1
25.334892 69.037209 26.464767 5 1
-12.838550 24.778101 -17.783998 8 1
-39.030300 67.218193 15.208162 6 1
34.117970 63.141502 -48.950722 2 1
25.995434 49.214584 60.015087 3 1
17.686270 71.528946 -61.274315 18 1
19.861744 70.994835 -49.795803 2 1
31.945278 47.101547 47.643944 4 1
13.565838 26.097324 19.568907 10 1
-40.702541 63.811909 14.791601 6 1
-57.444077 99.632050 -24.698801 15 1
-13.740187 81.558578 -41.083271 16 1
-3.996575 21.025579 -13.689929 8 1
23.609667 69.222427 -49.685333 2 1
6.602838 71.079918 -53.889988 17 1
54.667500 30.243471 49.097057 4 1
-33.174747 57.017849 41.587208 9 1
0.999453 61.100025 6.019854 0 0
-1.029112 76.573448 0.986130 0 0
32.179325 68.350998 29.961264 5 1
-39.724247 97.633194 -32.333969 15 1
-35.491211 103.836560 -20.793283 15 1
-45.474701 90.421600 -37.491550 15 1
36.932915 47.051643 26.609043 5 1
15.747827 68.073624 -62.673676 18 1
20.741581 54.804958 58.312351 3 1
22.752956 66.311447 49.647041 3 1
-1.454405 40.976463 -1.537411 0 0
-14.240470 24.269253 -5.359952 8 1
45.485741 57.620495 3.024322 5 1
-17.761271 99.689919 4.018637 14 1
43.284412 59.596592 3.968380 5 1
1.923624 90.917999 -1.963424 0 0
-8.895245 85.850014 -38.981239 16 1
17.624697 99.971260 -13.486244 13 1
9.431018 59.915890 -33.848270 0 0
-15.256295 104.175770 2.768384 14 1
-43.607841 63.583858 18.419813 6 1
-18.545336 101.809440 -12.078368 0 0
-48.919998 88.776619 -33.327530 15 1
15.411232 75.649872 42.631279 3 1
1.689374 88.887550 -37.181187 16 1
-41.602962 94.794922 -34.627132 15 1
17.699440 47.996658 60.294041 3 1
-16.237661 102.564770 -2.158678 14 1
-38.779755 93.455299 -34.445850 15 1
-8.736554 22.129990 -7.188181 8 1
56.680832 36.517136 47.109245 4 1
12.379579 74.860382 54.480843 3 1
-14.011963 89.841637 -39.753983 16 1
-40.749897 96.246498 -2.896876 14 1
41.762886 70.713020 5.884150 5 1
-2.899278 22.035370 -2.407831 0 0
37.489666 34.415062 53.914696 4 1
28.028990 54.763409 24.192080 5 1
38.818687 39.569290 15.880534 5 1
48.518131 41.848396 50.344070 4 1
-25.586002 99.472412 4.398726 14 1
-5.556781 101.637680 -31.082525 16 1
18.150318 55.618935 59.265556 3 1
-1.611874 59.759285 6.994305 0 0
-0.355660 89.679649 -1.456499 0 0
15.885300 23.872887 11.558750 10 1
-13.400415 100.928890 -26.350328 16 1
44.733376 63.438171 5.552533 5 1
-34.121632 94.115379 -30.677937 15 1
-13.045812 106.840460 -25.861609 16 1
44.171680 45.917881 8.284773 5 1
32.806561 71.455040 18.513775 5 1
-35.271442 56.076031 17.263271 0 0
41.634098 58.128708 20.378595 5 1
-9.993109 94.856529 -37.716621 16 1
10.413570 94.869713 4.561698 1 1
8.216583 20.736965 -1.371061 10 1
39.541943 53.711262 25.139986 5 1
