34.343815 55.752174 -54.723183 3 1
-44.553322 62.789047 45.022179 8 1
-86.052124 145.625500 -60.650124 11 1
20.240080 176.317920 96.361641 22 1
-85.336197 147.318130 -69.839203 11 1
-73.016899 166.510970 -56.176048 11 1
-13.091867 164.886260 -28.302921 17 1
70.432114 137.364010 36.229626 20 1
-64.323044 157.392620 -5.177343 14 1
8.244760 184.460600 73.246460 23 1
-93.242622 141.750490 -46.402870 11 1
94.538101 128.591310 32.467735 20 1
17.740822 185.864880 -48.775761 13 1
3.943799 142.355960 -75.682861 17 1
-24.110853 137.246810 74.689919 23 1
-71.782990 149.955670 -8.879185 14 1
107.559810 109.691750 42.948807 20 1
8.618762 147.498690 -70.580460 17 1
-24.216763 172.445010 -55.330914 17 1
-29.869394 184.398900 -21.011074 15 1
33.861141 182.075070 50.285984 26 1
51.156574 125.780780 45.983963 25 1
-14.345407 167.726490 -74.929749 16 1
-51.575550 168.348270 -27.109177 17 1
-13.618271 183.311800 62.966648 23 1
-7.385380 182.616200 -65.442345 16 1
22.641855 58.607521 -50.856728 3 1
-98.694901 71.410240 19.057726 9 1
70.284622 137.599330 18.167900 24 1
4.238266 147.536030 -69.771782 17 1
-70.189407 78.877991 -37.862442 10 1
28.691902 99.389893 6.770744 0 0
-0.183306 176.540990 78.702316 23 1
-28.170698 183.448490 -39.877716 15 1
52.312256 167.480030 13.518671 26 1
-80.321815 135.276380 8.764865 14 1
2.518977 126.654000 -4.235585 0 0
-87.653206 149.596190 -53.514759 11 1
10.759193 192.349910 -44.144825 13 1
89.417320 99.650444 -34.443127 24 1
-73.782578 138.936280 5.480011 14 1
27.353785 163.146730 109.127490 22 1
-74.278801 160.978810 -44.159344 11 1
-10.968343 143.296690 -81.016182 16 1
-29.544460 20.758846 -13.924797 12 1
85.637573 117.667760 -5.496569 24 1
-11.771996 175.705750 61.924606 23 1
-8.196410 175.378800 -70.101280 16 1
-5.292544 16.917406 -6.207231 12 1
-20.344309 26.614004 -20.692656 12 1
18.404972 187.006360 -9.358254 6 1
5.350328 71.943352 -2.449054 0 0
51.040436 183.088070 86.870201 21 1
-69.617630 163.636510 -60.454945 11 1
77.071350 136.276860 22.220852 20 1
46.289665 116.324160 58.355804 25 1
49.674015 169.989360 33.593754 26 1
14.091002 168.182860 -66.118027 13 1
-81.302147 159.108580 -78.063484 11 1
60.809849 46.489124 -24.922676 4 1
-60.612267 90.490715 12.526863 9 1
75.881363 130.424270 -22.895739 24 1
42.436131 176.868210 102.908600 22 1
-85.056801 130.127700 6.594620 14 1
-65.411209 91.075104 12.731005 9 1
5.735651 132.244160 13.362823 0 0
-1.280657 163.568570 -7.126653 0 0
84.458557 125.753720 2.294520 24 1
40.928432 127.225330 53.972267 25 1
1.671999 184.666020 57.104919 23 1
-11.175331 190.729860 -55.608856 16 1
43.704224 112.204840 65.002014 25 1
-13.110248 196.623340 -34.818260 15 1
-14.419877 169.879000 -61.539215 17 1
40.771248 172.265110 42.383621 26 1
78.787796 132.804340 32.225018 20 1
-17.838371 194.745410 -28.192110 15 1
-7.685071 179.372240 -6.515934 7 1
55.251507 74.968163 -40.509415 2 1
17.647890 180.369960 -6.066987 6 1
23.647638 160.533420 110.777880 22 1
64.437096 138.400760 21.930973 24 1
-42.594700 163.919780 -8.340577 14 1
62.834591 116.494320 49.339222 25 1
-36.988411 175.241330 -54.425060 17 1
-73.876526 134.878620 19.510658 14 1
-57.866459 172.598180 -50.994133 11 1
18.205233 193.400220 51.908886 26 1
-70.224915 145.561480 9.570721 14 1
14.268485 170.975750 -57.933968 13 1
49.523327 42.695869 -14.765823 4 1
9.072200 162.548050 31.276649 0 0
7.702854 165.420290 -57.990002 17 1
30.308681 59.913830 -24.320604 0 0
92.966713 131.448060 29.148796 20 1
2.056436 184.221040 75.716568 23 1
41.819714 133.573790 120.253040 22 1
-0.116613 17.723450 14.487382 1 1
53.351074 59.173790 -21.314978 4 1
27.942678 183.232330 84.594963 22 1
6.451760 136.395290 16.484638 0 0
-18.542578 143.527280 73.902718 23 1
-33.149685 174.093540 -23.571863 17 1
-78.530373 86.820755 26.516037 9 1
-21.317423 19.961176 -11.084167 12 1
-48.537533 77.475937 32.897419 8 1
-45.724579 160.393940 -5.004617 14 1
66.686722 132.092250 30.220509 25 1
-56.143101 156.743740 -3.982604 14 1
11.668862 188.768070 61.603695 23 1
-31.477129 166.448900 -59.422894 17 1
26.126680 68.557083 -43.894867 3 1
76.964645 132.175170 -1.644808 24 1
-0.366896 30.217255 -4.170312 0 0
-56.160313 173.507450 -24.016762 15 1
105.584260 122.247440 33.324039 20 1
-57.846977 93.412476 -20.208179 10 1
-1.184399 3.427315 1.620033 0 0
-0.582788 182.099520 -6.433117 0 0
45.353699 58.487343 -13.131270 4 1
80.407700 125.409540 5.935225 24 1
5.782694 184.374370 7.813293 5 1
70.360580 61.626278 -48.884857 2 1
-64.880882 161.664180 -22.084585 14 1
112.012410 102.757160 48.136414 20 1
50.083664 79.602707 -41.682384 2 1
1.717554 151.482240 -76.680145 16 1
3.679117 121.095590 0.886303 0 0
-27.629881 164.222980 64.966156 23 1
59.046268 182.300220 90.655533 21 1
12.512367 179.211490 44.956924 0 0
-58.984364 170.068070 -29.928673 17 1
37.643566 179.618850 36.316135 26 1
-13.263174 111.574430 -14.096181 0 0
-45.370895 173.309950 -37.408672 17 1
12.936232 175.593750 39.379772 0 0
-27.072645 143.720250 -22.531330 0 0
-72.193855 139.858020 16.007492 14 1
42.290409 181.161060 35.089535 26 1
60.687935 70.607605 -44.456669 2 1
27.895662 154.999560 -65.058578 13 1
10.237624 41.894230 -6.671361 0 0
-2.330518 186.041580 -36.925346 17 1
-20.031801 147.570110 -75.295372 17 1
-54.672165 96.576729 -7.878647 10 1
41.072723 181.320830 22.209808 26 1
38.788918 68.763893 -44.614628 3 1
64.344147 108.026020 54.292553 25 1
-21.522863 142.509000 77.074944 23 1
2.166827 69.560555 -4.652884 0 0
-81.507240 157.313900 -56.363068 11 1
4.936804 173.759700 -4.940201 0 0
-7.193294 57.590477 -7.457897 19 1
82.937981 119.291950 -30.984692 24 1
63.345638 73.340332 -26.703089 2 1
7.119407 146.945910 -77.072502 16 1
66.307411 140.370850 8.499582 24 1
14.414591 177.910480 32.362122 0 0
-19.961973 170.961110 -66.512650 16 1
-5.186113 99.415787 -7.347339 0 0
53.144733 157.633910 34.158466 26 1
26.621662 172.224700 -53.281452 13 1
-16.665359 151.510180 77.950821 23 1
-52.005642 163.557650 -0.176039 14 1
23.147028 176.851670 93.354271 22 1
117.830730 79.765633 50.050556 20 1
-3.778061 44.228851 -2.953763 0 0
1.258231 8.333056 0.047536 0 0
10.297684 177.888120 -3.598550 6 1
-17.540827 189.343830 -29.874626 15 1
-94.733879 133.745960 -55.778526 11 1
43.611916 172.357600 29.442493 26 1
56.600704 138.508440 27.577114 26 1
51.295002 97.188766 66.164268 25 1
14.597672 184.753590 -45.296337 13 1
-14.751163 174.937470 -39.482086 17 1
-57.054321 153.349440 7.193192 14 1
4.197660 177.913650 79.458435 23 1
14.540523 185.270450 -10.235431 6 1
3.874800 195.988170 59.189960 23 1
-30.346565 138.251750 74.594955 23 1
55.750072 158.282380 17.156656 26 1
-64.312027 159.241040 -17.571722 14 1
53.684090 161.389180 23.244661 26 1
87.791595 110.950790 -16.047676 24 1
6.010667 19.123760 17.249916 1 1
31.889183 187.606690 37.905468 26 1
37.499191 137.166400 118.325970 22 1
41.552994 158.651690 112.566870 22 1
53.315716 75.476746 -44.117352 2 1
20.578533 53.325333 -53.198536 3 1
-1.930304 151.208130 -67.997589 17 1
44.131584 122.322770 57.610558 25 1
-62.077766 87.460434 -29.297363 10 1
57.794521 152.139310 19.648857 26 1
57.238049 154.340130 28.592648 26 1
37.270100 180.331540 99.530251 22 1
-61.106529 174.241710 -41.619854 11 1
27.921303 146.842480 116.441220 22 1
64.731155 111.890370 52.186501 25 1
-4.648524 175.307950 -28.379820 17 1
-0.520435 145.000730 -7.284349 0 0
42.362305 68.897209 -34.250019 3 1
57.436565 147.767780 13.109941 26 1
6.759712 186.069210 4.079803 5 1
-64.099434 88.670883 -22.103220 10 1
28.450260 186.799000 51.672375 26 1
-68.968254 171.614670 -67.947830 11 1
-48.814899 168.029070 -6.016236 14 1
60.217163 71.218681 -33.176903 2 1
-51.893456 170.650250 -11.994087 14 1
55.506310 154.477540 13.535131 26 1
78.561470 51.519104 -46.925419 2 1
-107.153880 109.494090 -79.156967 11 1
83.186646 119.453780 -10.861542 24 1
40.698055 176.656330 52.018810 26 1
-23.526236 190.178990 -30.361012 15 1
5.575934 180.241960 66.520203 23 1
28.878754 164.800480 -51.994423 13 1
-23.546896 180.721220 -35.945374 17 1
-76.504608 84.477112 -19.706223 10 1
-8.465595 183.294310 -3.753873 7 1
58.969948 124.689730 43.440460 25 1
-52.440163 175.102020 -49.683018 11 1
-21.826674 177.031650 -27.483860 17 1
1.091183 165.074310 -13.774566 0 0
17.569592 46.506767 -16.311310 0 0
44.316818 178.399580 42.710529 26 1
70.671425 131.224210 30.393475 20 1
-56.894005 85.330177 28.072027 8 1
-55.170620 77.550552 30.704058 8 1
38.020752 187.279240 34.540997 26 1
47.665787 62.382351 -24.953497 4 1
83.145081 121.870970 -18.234650 24 1
36.760315 185.984330 28.256180 26 1
54.904968 181.624130 87.996109 21 1
-13.124527 177.500580 -64.233139 16 1
7.129323 153.649280 -72.581184 17 1
-91.722366 77.223892 23.273666 9 1
-38.439213 178.037780 -19.896429 15 1
6.271952 188.135060 74.178589 23 1
71.673027 137.583740 0.431766 24 1
-24.520437 129.934950 78.227165 23 1
13.029598 190.143280 56.568813 23 1
63.642132 140.510250 3.906441 0 0
-57.794601 178.513090 -54.335182 11 1
47.065895 172.706620 50.401535 26 1
26.588051 195.695070 45.299225 26 1
-13.715628 24.840309 -19.260630 12 1
-0.133974 182.882320 -65.802834 16 1
-25.278433 148.262910 69.532349 23 1
31.620686 158.401280 -59.054455 13 1
5.950434 143.846620 17.736099 0 0
-21.000824 186.378330 -42.756428 15 1
-3.466010 180.935230 -32.399330 17 1
31.460810 186.438110 93.343414 22 1
-44.502434 88.358475 24.367388 8 1
-27.516026 168.472030 -50.860790 17 1
46.368103 123.773420 51.109818 25 1
8.733667 174.071810 -61.156895 13 1
-26.231230 181.713590 -23.103851 17 1
23.889643 194.523770 55.502533 26 1
2.880400 190.985810 64.818314 23 1
-22.352028 135.712330 -17.327883 0 0
62.439209 142.945470 15.254239 26 1
-78.056564 90.926605 8.862360 9 1
-1.992775 176.293520 -65.966995 16 1
39.688950 184.850100 45.256100 26 1
-54.598892 92.842842 9.968613 9 1
-91.386703 141.781660 -70.748878 11 1
58.227913 143.190260 15.657749 26 1
58.203907 94.699760 64.227074 25 1
-9.347217 18.002491 -16.907734 12 1
92.784241 122.266930 47.537621 20 1
107.343440 105.322790 53.111683 20 1
51.770161 191.821140 80.012817 21 1
36.604950 187.860780 46.377609 26 1
8.564466 141.704880 -80.008896 17 1
-3.097994 165.623980 -26.445181 0 0
49.524231 133.097180 43.208267 25 1
62.743217 121.642450 45.525696 25 1
-6.901994 174.554370 -48.070873 17 1
72.857559 131.794570 13.701731 24 1
44.262459 128.177600 123.278170 22 1
-66.986084 146.157270 13.223841 14 1
-72.037323 147.108890 -4.153091 14 1
52.216183 189.753010 83.579224 21 1
-18.777487 173.084080 61.660465 23 1
-17.959974 191.413300 -47.566879 15 1
-98.571808 125.291690 -82.101669 11 1
38.963169 169.059200 107.044150 22 1
66.328224 67.968475 -38.489666 2 1
-84.675972 148.556950 -51.005123 11 1
-17.124949 159.952960 -77.283081 16 1
44.250072 100.273410 67.625519 25 1
-1.195495 193.068330 -47.128075 13 1
-15.582780 18.040876 0.347207 12 1
17.898350 174.334520 -51.111694 13 1
-48.489262 171.413060 -33.186195 17 1
67.068520 138.364060 -4.349740 24 1
38.666092 181.475510 30.008854 26 1
-59.219376 165.569050 -25.785000 17 1
100.634720 130.274580 27.604599 20 1
-34.308937 184.792660 -36.713970 15 1
-72.523926 166.816380 -40.741543 11 1
52.160244 61.344933 -29.364006 4 1
-89.524750 144.703310 -66.270462 11 1
-19.252310 154.025530 -71.384239 17 1
-11.097883 48.952133 -12.261837 18 1
-32.677490 174.108060 -31.276228 17 1
20.837643 190.226270 65.283104 26 1
-36.959023 174.806720 -16.790663 14 1
-84.913513 153.122820 -64.279510 11 1
49.197483 113.933450 61.205795 25 1
-12.642323 152.032260 -80.133606 16 1
-12.171614 171.598370 -55.553841 17 1
78.736412 126.720050 0.742134 24 1
-2.428948 107.733120 -3.608466 0 0
-4.934777 189.219090 -50.443882 13 1
-40.841850 168.430940 -24.021502 14 1
-54.961617 91.628693 17.603882 8 1
82.003304 127.855670 47.293713 20 1
1.239694 172.232480 -66.951485 16 1
46.444393 175.793110 29.188890 26 1
-4.005375 178.473710 -36.501263 17 1
-15.004065 143.816120 78.432007 23 1
28.769920 178.842470 99.677208 22 1
19.647520 49.433262 -13.908889 0 0
-67.677078 170.438230 -51.337215 11 1
-12.198207 193.736740 -38.713093 15 1
28.816925 142.419540 116.179370 22 1
-7.934686 99.544258 -10.265090 0 0
82.216217 122.406360 -26.795385 24 1
0.870427 189.584290 -41.308384 13 1
-15.783266 181.819630 -2.216647 7 1
-18.651678 190.916230 -38.410015 15 1
-80.067177 153.764950 -61.985161 11 1
-25.614275 169.618640 63.224556 23 1
76.628677 132.319460 -7.167332 24 1
101.395270 116.517110 44.548939 20 1
-62.231972 151.372210 9.852968 14 1
30.886030 184.713000 48.980026 26 1
75.293335 134.052000 1.644479 24 1
-52.801441 89.543739 7.312583 0 0
-7.630635 103.627890 -12.505792 0 0
-20.219397 151.236560 -78.818123 16 1
47.390957 87.071533 71.418289 25 1
-52.751350 171.884000 -34.766357 17 1
50.287403 161.537870 21.153822 26 1
43.051582 65.891655 -22.222900 4 1
-47.986313 177.331360 -42.349094 11 1
66.536087 138.959400 18.055820 24 1
-13.261184 58.539845 -2.556813 0 0
-8.790001 20.074587 -4.018035 12 1
42.452656 169.768370 36.862362 26 1
36.009979 62.370113 -28.001205 0 0
48.729424 119.364340 17.465990 0 0
44.362595 179.931380 26.045237 26 1
-44.297966 163.066090 0.233523 14 1
-76.974777 90.262054 15.107956 9 1
14.352552 180.717090 -9.287155 6 1
-1.907179 81.779037 -5.528577 0 0
9.895052 156.840930 -67.336807 17 1
-21.481392 147.562210 76.086189 23 1
53.886192 152.892930 21.485329 26 1
32.845631 70.039879 -41.707050 3 1
-91.877045 81.874947 11.581548 9 1
41.776890 141.571760 116.671580 22 1
-66.735657 86.536377 -28.758638 10 1
-2.234822 94.483284 -8.955485 0 0
-35.213680 172.961430 -27.633341 17 1
-73.639442 80.069206 -30.655914 10 1
-59.403725 85.657532 21.009026 8 1
35.035896 146.675840 -60.611839 13 1
-72.979134 93.676003 10.846658 9 1
-84.599899 153.885620 -70.763092 11 1
-14.432066 148.679410 -73.485138 17 1
-20.986164 181.041240 -29.691877 17 1
-5.341919 51.514874 -4.625243 0 0
1.901430 145.444810 -72.210968 17 1
89.136589 106.577810 -17.539888 24 1
33.257572 63.265640 -25.108955 0 0
58.054218 124.873440 48.410553 25 1
46.034588 181.627520 90.463173 21 1
-4.206696 143.613370 -76.442261 16 1
-10.569925 193.936450 -46.057495 15 1
-19.877003 166.458040 64.203339 23 1
20.814640 167.845320 106.623690 22 1
-0.839622 162.836150 -74.564445 16 1
-16.890808 126.639130 -79.994675 16 1
7.626437 75.545921 0.566657 0 0
4.571681 182.880520 -49.755653 13 1
49.253761 118.230220 55.122742 25 1
-9.390849 143.687180 -76.870369 16 1
8.490131 186.024800 -57.138481 13 1
27.735695 63.474884 -46.148605 3 1
78.615814 131.759610 36.502254 20 1
-4.930059 189.362590 -43.616043 13 1
3.285386 154.119200 -8.153330 0 0
-91.156563 141.397290 -63.864925 11 1
54.135113 65.500641 -30.788055 4 1
-6.721222 17.596834 5.997291 1 1
15.085820 43.479446 -11.619406 0 0
-36.521103 183.553240 -32.455418 15 1
-23.126892 157.390880 -75.331757 16 1
94.260315 122.308570 43.655731 20 1
-83.783142 134.133030 2.339239 14 1
-72.033882 90.553276 22.645931 9 1
-0.600073 191.770130 -52.424831 13 1
-2.284093 15.476271 17.114340 1 1
22.676640 192.777330 87.398270 22 1
-2.278541 99.346283 -3.266723 0 0
-82.168556 139.806080 -2.897096 14 1
11.546617 189.505620 68.959557 23 1
-19.315588 186.180050 -31.672291 15 1
-74.223427 83.781189 -25.647419 10 1
57.859455 60.678722 -26.903385 4 1
-27.361319 124.757890 80.650589 23 1
34.569244 191.554530 34.278927 26 1
-47.987442 165.934140 -21.037636 14 1
4.893337 125.689520 6.628347 0 0
42.671402 190.016540 84.866707 21 1
50.496368 162.639280 33.510235 26 1
30.478815 164.575640 -55.956417 13 1
-12.651835 20.826088 -19.441807 12 1
-67.426781 143.179980 17.511032 14 1
25.496025 194.563610 49.421139 26 1
-48.692684 173.112370 -12.630288 14 1
22.714231 156.630920 -67.299141 13 1
17.775509 194.020170 59.862362 26 1
0.246858 -0.231211 1.541715 0 0
-66.381454 81.649139 -34.187172 10 1
55.827881 187.281270 85.977486 21 1
-29.203369 171.072310 -44.427631 17 1
39.827267 67.958038 -27.238670 0 0
-46.391945 178.307450 -32.400021 15 1
-11.366785 190.234890 -43.756126 15 1
-32.487465 151.634690 -24.036312 0 0
-4.916392 170.702970 -46.307079 17 1
55.201149 160.743190 10.040264 26 1
-0.198245 31.915344 0.313776 0 0
-82.854660 155.675740 -52.518108 11 1
59.828594 114.956870 55.537647 25 1
-49.524284 160.091770 9.463249 14 1
46.753567 167.883790 40.915180 26 1
49.433353 170.493190 23.392216 26 1
26.779491 159.419780 -54.886497 13 1
39.269115 181.032670 56.816608 26 1
-1.255582 20.622248 -3.608035 0 0
41.436783 182.776180 48.778812 26 1
-52.575199 156.206990 13.721091 14 1
-101.151420 120.678000 -72.763855 11 1
88.321999 106.521680 -32.274227 24 1
36.336815 62.386299 -50.859623 3 1
30.292448 59.527679 -50.374874 3 1
-11.415669 163.771160 -76.606400 16 1
-8.456102 106.536540 -9.712310 0 0
-13.122881 23.721148 -13.350842 12 1
85.834183 136.486110 27.474667 20 1
64.929436 137.087450 5.285058 0 0
-49.309036 65.549187 43.470829 8 1
43.859528 166.214280 106.533620 22 1
44.746529 69.333534 -41.257965 3 1
53.113808 120.779080 50.369286 25 1
75.524902 134.410980 26.934059 20 1
-102.916660 66.874977 23.713558 9 1
-20.146404 25.922737 -15.789500 12 1
-4.444046 192.572100 -55.059498 13 1
17.945356 169.524340 -63.276836 13 1
-3.697672 156.563420 -21.396791 0 0
-3.045493 146.867290 -72.054764 17 1
-6.950588 194.945880 -39.690666 15 1
57.199661 72.046844 -38.823246 2 1
56.225704 118.319850 50.991116 25 1
115.623280 100.572280 38.697376 20 1
57.875839 41.549225 -22.653816 4 1
26.217278 174.470170 93.149376 22 1
88.549164 134.748690 25.165302 20 1
1.960063 140.251660 -9.706776 0 0
-23.763416 17.813866 -5.247251 12 1
-25.017267 188.559270 -36.305859 15 1
-14.111338 142.437580 -76.929359 16 1
-5.990495 172.045240 -56.512310 17 1
-102.143830 68.098053 19.015379 9 1
-57.700661 71.998917 35.539303 8 1
56.099365 156.024320 20.858036 26 1
64.860413 129.416850 40.778160 25 1
-74.291733 144.079100 5.412989 14 1
-98.894943 124.969870 -69.444420 11 1
-14.601271 188.004940 -37.073910 15 1
46.465973 170.593000 20.890942 26 1
-0.068038 171.903080 -51.610188 17 1
-66.494652 160.666460 -14.699961 14 1
10.993542 178.913040 -50.337166 16 1
-23.276642 191.224730 -23.478920 15 1
-98.274857 130.440720 -59.965183 11 1
11.009833 178.028820 -8.435206 6 1
11.660481 188.836300 -48.684540 13 1
-2.325861 4.411849 -2.432731 0 0
-81.078110 158.312060 -48.528942 11 1
48.677906 110.628810 63.157082 25 1
-64.964462 170.895580 -62.742847 11 1
-7.804073 54.491673 -4.872875 0 0
54.911064 53.745159 -19.824190 4 1
-67.283539 165.628970 -48.328526 11 1
-22.287764 171.215380 -46.454422 17 1
55.502983 47.191700 -19.196371 4 1
-70.138512 89.596596 17.058012 9 1
-7.470050 184.481160 66.818222 23 1
-57.667236 177.115600 -46.556736 11 1
-58.900631 92.574532 17.723799 9 1
-33.240963 179.039920 -41.267666 17 1
78.435432 138.967860 25.826435 20 1
51.037498 167.536770 39.614063 26 1
-70.644409 140.528320 7.158243 14 1
52.661594 113.676160 59.515182 25 1
-12.725527 187.145920 -57.999737 16 1
-67.471588 170.736150 -40.254372 11 1
72.119003 139.125440 23.696297 24 1
4.203189 35.019909 -4.883572 0 0
3.919472 148.583210 -9.158546 0 0
-51.537865 161.259960 -16.302238 14 1
-58.084518 78.919067 33.443203 8 1
-22.307158 159.450620 -68.035851 17 1
24.071974 189.580520 55.770615 26 1
-57.391876 93.763924 -26.980494 10 1
45.349663 174.693620 53.228699 26 1
-0.667726 181.840290 58.804485 23 1
27.700968 189.740300 61.034309 26 1
-29.217129 169.218460 -60.860924 17 1
45.787621 67.618240 -24.374311 4 1
-18.299524 136.621250 77.804329 23 1
59.542900 133.772480 17.235632 0 0
3.108454 150.314210 -67.333511 17 1
-15.478623 185.429500 4.140485 7 1
60.702377 139.535830 26.489267 26 1
-14.575546 160.552150 77.715057 23 1
53.488461 131.226150 36.834961 25 1
-0.408703 9.772331 27.916899 1 1
-24.014940 165.251720 -56.396553 17 1
-62.989025 78.902382 30.170702 8 1
-0.747042 13.921261 -4.347163 0 0
-40.405415 170.811130 -30.979792 17 1
32.762058 65.470818 -48.652462 3 1
109.180290 106.338360 49.891590 20 1
114.570830 93.145187 47.838596 20 1
-86.564697 145.067150 -56.425091 11 1
60.834412 130.375730 22.349249 0 0
55.846256 132.042160 39.987030 25 1
33.542801 154.971390 -59.425690 13 1
55.384464 150.711290 26.359236 26 1
-92.317879 140.994220 -57.817589 11 1
1.238986 190.277330 -59.344803 13 1
70.186478 137.655620 -15.187405 24 1
-1.685219 124.281110 -3.803606 0 0
-23.347551 161.646960 -62.184437 17 1
-65.102722 90.397743 16.951241 9 1
-63.313988 94.262306 6.324729 10 1
-21.809856 150.903090 -74.180862 17 1
43.322163 116.167960 62.559471 25 1
-5.572181 158.755280 -77.927956 16 1
-10.364560 178.939610 -30.286861 17 1
25.173117 188.771350 70.732933 26 1
68.131989 118.145260 50.373016 25 1
48.963097 173.696430 14.210472 26 1
44.264271 156.596190 110.803000 22 1
7.990643 150.091930 22.233036 0 0
-76.088951 157.711200 -60.506138 11 1
-99.369316 69.120705 25.837568 9 1
-71.112167 136.122620 12.545843 14 1
43.322208 176.858670 22.867407 26 1
-49.060135 85.846382 29.021811 8 1
5.744113 182.709030 0.505665 5 1
-83.620071 149.306870 -66.024567 11 1
56.611031 157.142440 8.957175 26 1
-74.299469 162.829120 -37.576420 11 1
-21.547346 128.575060 -18.404745 0 0
-32.870693 186.143370 -24.551632 15 1
9.706480 186.010820 69.450005 23 1
31.840111 167.318480 -51.475639 13 1
-23.022209 161.157210 70.345856 23 1
-31.006987 133.411070 75.487778 23 1
53.956493 122.358950 18.704605 0 0
-50.279869 176.605000 -26.941271 15 1
60.496548 70.752434 -50.491714 2 1
1.612415 127.899890 7.484626 0 0
-18.332266 191.979140 -34.192379 15 1
-13.876148 168.731700 64.276672 23 1
85.145271 116.313410 -28.905073 24 1
1.551068 142.082570 -78.644386 17 1
-93.169373 137.832170 -75.217529 11 1
-11.047748 146.419280 81.768593 23 1
-1.673769 65.520767 -1.754119 0 0
-69.722229 150.954040 -1.893609 14 1
27.255274 150.947040 115.046340 22 1
-48.176155 173.899090 -40.704178 17 1
55.737358 158.131290 30.359388 26 1
-32.726177 185.503460 -29.112448 15 1
-67.833069 90.502472 -4.612730 10 1
-102.070860 121.384800 -64.887726 11 1
52.100578 49.555580 -15.704459 4 1
-54.796982 177.410400 -39.153019 11 1
22.367176 181.347400 90.069832 22 1
27.373079 192.282180 85.579109 22 1
-80.963982 142.717450 -5.805308 14 1
74.306885 136.059510 37.263004 20 1
-0.948089 147.634460 -16.760208 0 0
-57.252300 153.350600 13.646585 14 1
-17.352398 163.024980 -57.717438 17 1
-6.504829 16.546820 -0.640492 12 1
31.386644 139.339200 117.451790 22 1
-55.301689 89.162361 14.727678 8 1
-71.068291 170.124500 -63.471882 11 1
-9.515024 176.487170 -44.679543 17 1
-39.236664 182.105850 -26.034992 15 1
-19.704670 133.544430 -81.071884 16 1
-3.169212 92.312263 -4.237752 0 0
11.130145 180.036830 -61.104870 13 1
-58.432961 172.017820 -37.309422 11 1
-43.999935 82.543129 7.664772 0 0
-21.533716 172.185520 65.428818 23 1
-6.360196 1.716683 34.321926 1 1
40.440933 121.275840 59.467075 25 1
-0.928832 175.801470 63.134407 23 1
9.572654 152.104810 -65.487961 17 1
-56.074741 175.595840 -32.078800 15 1
-4.837835 181.278270 72.781769 23 1
-12.036384 52.219769 -8.062015 18 1
-37.163544 167.008530 -26.034002 0 0
-81.331116 158.945190 -44.084641 11 1
3.505958 167.377150 -9.778682 0 0
108.769410 118.772740 31.719135 20 1
1.467273 178.692170 62.224922 23 1
-70.578857 163.059300 -47.331722 11 1
-75.458923 158.634250 -50.968281 11 1
-47.075397 74.740181 39.012817 8 1
39.136745 126.838260 124.461200 22 1
28.987656 175.737700 -48.390816 13 1
103.246490 125.292780 31.811728 20 1
-31.236580 22.947313 -19.817909 12 1
33.162151 179.737870 89.476883 22 1
1.890446 193.372500 61.071007 23 1
40.146458 176.414510 98.425285 22 1
3.824235 179.276290 -60.246326 16 1
13.479854 168.850880 36.295364 0 0
-57.538624 162.688190 -20.177578 14 1
-46.441139 86.190559 6.387933 0 0
5.628916 180.852110 77.564484 23 1
-20.582893 9.480195 23.254244 1 1
2.275150 186.375670 2.438640 5 1
-81.352882 157.985760 -60.381130 11 1
0.850618 182.040420 -10.303680 0 0
6.933307 187.794140 -45.153362 13 1
4.244612 37.200027 -0.507872 0 0
-16.667604 17.849552 10.889114 1 1
-12.656190 152.347630 74.583763 23 1
49.630749 58.462807 -22.264784 4 1
34.191605 134.614690 119.922430 22 1
-5.221311 166.292050 80.659309 23 1
55.653000 121.984930 47.862579 25 1
60.386284 130.179580 34.844055 25 1
-38.080036 79.047630 37.163551 8 1
28.626245 151.137440 -66.334648 13 1
-58.995785 89.046059 15.671824 8 1
29.663277 193.170090 42.972027 26 1
46.081291 52.858131 -13.460958 4 1
21.392889 191.551900 76.484596 26 1
37.645676 189.022610 80.072632 21 1
21.400749 163.873760 -55.090099 13 1
49.037724 56.100060 -19.013573 4 1
66.787735 131.326200 18.278702 24 1
-3.437323 170.696180 80.008102 23 1
-39.461929 86.588013 29.763096 8 1
20.162325 168.588820 102.189160 22 1
-10.105631 159.756870 -57.933643 17 1
-48.863831 177.307480 -46.579815 11 1
-6.644231 16.295259 12.201052 1 1
2.586248 65.534447 -4.106617 0 0
74.102448 132.268660 41.447556 20 1
53.647377 89.376595 67.828316 25 1
22.053118 164.338300 -64.302063 13 1
27.928213 70.832306 -38.364052 3 1
0.727236 85.655388 -2.748100 0 0
99.401054 125.632140 35.671528 20 1
24.521292 187.660980 -5.666159 6 1
11.908980 170.783450 -64.524063 13 1
49.044724 185.514400 84.378365 21 1
-5.535596 150.527340 -79.711830 16 1
61.051292 185.686920 86.116638 21 1
-5.838065 163.504200 72.743507 23 1
70.024551 133.245910 6.465585 24 1
59.630096 74.065102 -29.443508 2 1
1.065417 191.290710 55.010529 23 1
40.063427 176.619450 36.219749 26 1
69.428757 112.977390 51.951092 25 1
-19.795687 155.578280 75.040009 23 1
55.817478 151.166060 31.128716 26 1
0.596175 121.580220 2.952789 0 0
-62.197105 164.362500 -15.757149 14 1
-17.231022 155.709110 68.958229 23 1
-44.793102 167.240260 0.031694 14 1
-70.305519 153.212430 -6.551510 14 1
-13.584553 162.486680 67.117088 23 1
51.465374 167.060350 18.998631 26 1
50.487820 168.311190 29.825199 26 1
30.839092 167.322160 106.627190 22 1
-10.035175 167.397460 -49.702057 17 1
3.242751 191.934460 15.451307 5 1
31.244267 152.013020 -63.817539 13 1
-25.806049 183.678890 -36.258377 15 1
-85.839828 151.932750 -59.929893 11 1
25.879604 56.109589 -21.220213 0 0
-2.037440 174.102360 -59.164581 16 1
61.115566 144.301820 18.858423 26 1
58.493893 149.985230 22.937262 26 1
-57.918316 94.339714 -13.535046 10 1
1.638400 188.791120 11.778752 5 1
-75.541260 147.812230 -9.827286 14 1
59.497772 146.622820 26.565498 26 1
20.620485 182.282380 -4.176813 6 1
-0.988422 166.834870 77.845749 23 1
-7.386400 156.578990 78.275604 23 1
116.720020 84.068779 49.480125 20 1
-7.348527 178.164860 -59.755760 16 1
3.711731 116.468310 0.745988 0 0
63.242832 106.954990 57.777287 25 1
57.550163 73.817711 -34.442551 2 1
46.619373 168.928130 44.595184 26 1
2.115322 185.099610 -63.757843 16 1
45.264324 129.673800 49.702797 25 1
73.114944 132.337270 -4.300108 24 1
0.980677 171.927720 -14.239505 0 0
-41.531052 81.655846 35.058701 8 1
21.280390 179.520940 -47.059517 13 1
87.219246 129.968150 35.417854 20 1
16.880228 179.065380 -56.384239 13 1
94.036354 124.851240 38.747536 20 1
10.923497 150.062520 -68.543846 17 1
-0.709950 171.963460 68.513519 23 1
-52.710121 154.920970 8.334307 14 1
-93.942543 137.122010 -61.418499 11 1
-7.938840 172.583470 63.746536 23 1
-3.724582 18.604216 0.767804 0 0
-90.163330 146.464170 -50.708084 11 1
-0.820840 139.630220 -12.134509 0 0
65.631577 138.371000 1.614346 24 1
-7.821293 159.779560 81.213387 23 1
-61.686539 147.901500 11.207883 14 1
-58.816292 174.942960 -34.964149 11 1
-92.503525 138.886670 -67.404305 11 1
-15.117410 173.550740 -43.579853 17 1
31.578001 184.003160 84.608116 22 1
79.127823 128.927870 -11.947429 24 1
-0.864775 53.294411 -5.281456 0 0
-103.633330 117.513100 -68.167137 11 1
65.190933 124.837070 46.470394 25 1
11.966838 193.810010 55.046780 23 1
17.932983 191.493870 93.765869 22 1
-50.747372 92.336411 17.226076 8 1
20.910074 192.844650 82.002831 22 1
-73.221893 141.285490 12.700390 14 1
46.884968 166.801880 33.502842 26 1
-1.904375 173.119080 -4.535566 0 0
-6.758378 187.173600 -53.503765 16 1
2.518474 122.070760 -2.850265 0 0
113.692470 96.276352 44.551430 20 1
76.865982 132.342700 8.410523 24 1
-2.279652 148.429860 -13.380845 0 0
-0.955553 154.027070 -76.997696 16 1
-32.721325 18.488163 -14.579101 12 1
14.118424 194.688860 60.666672 26 1
-24.827480 151.892150 68.481796 23 1
-90.915382 139.585140 -77.868378 11 1
-2.648276 168.060170 -9.839185 0 0
4.639025 177.243900 -12.493838 0 0
-69.393471 168.706450 -36.226891 11 1
50.133377 73.823013 -27.409296 2 1
-11.518477 9.780102 25.033243 1 1
-4.777481 192.165250 -47.278065 13 1
76.390366 139.867720 22.879206 24 1
-105.288710 115.341680 -78.518616 11 1
-25.618795 157.953930 66.157516 23 1
61.875011 127.920650 43.764915 25 1
30.040674 147.043580 -63.325680 13 1
-56.581547 96.541420 -2.346480 10 1
-5.646271 94.257477 -7.560062 0 0
21.781645 187.499790 86.431641 22 1
-10.630133 17.517744 1.743904 12 1
-16.614908 180.933290 2.388240 7 1
83.104965 125.857670 -2.931915 24 1
46.991226 60.996349 -21.222996 4 1
30.354603 136.319960 119.517880 22 1
-60.494175 176.053010 -53.433582 11 1
-29.100962 18.232111 -8.083699 12 1
-4.536710 100.892900 -10.745292 0 0
12.512753 182.403200 46.928032 0 0
-88.541344 143.104900 -72.779282 11 1
21.162489 65.477592 -46.065968 3 1
-23.826326 144.064090 71.303520 23 1
102.597470 117.441770 41.191490 20 1
47.210110 119.904470 57.853310 25 1
-33.121696 172.516010 -41.062843 17 1
-64.570488 172.687360 -38.963917 11 1
-13.092083 155.788850 79.189659 23 1
6.660466 188.059490 56.878414 23 1
-10.271369 180.061100 69.233208 23 1
-50.946835 78.184486 35.821331 8 1
78.096542 126.662180 -3.953356 24 1
0.487740 153.543660 -16.936901 0 0
-54.492065 158.036870 -11.026878 14 1
61.121872 141.578750 8.996495 26 1
-10.853937 170.659650 76.145851 23 1
70.468636 138.542310 -2.906473 24 1
-63.986729 153.083650 -4.411787 14 1
-53.912189 152.934540 12.170136 14 1
51.643303 158.676510 25.376793 26 1
93.464508 126.317010 42.106289 20 1
1.816953 172.854160 74.136116 23 1
-15.898106 145.893190 75.370567 23 1
36.709476 140.842220 119.336450 22 1
2.145244 164.495510 -71.163948 16 1
-72.622795 86.855034 -19.304764 10 1
28.878164 66.016380 -43.701225 3 1
-72.331673 161.264070 -57.034412 11 1
-4.428114 176.955760 -69.242691 16 1
-3.014036 10.756985 -0.796863 0 0
-58.265324 170.962840 -45.314785 11 1
30.532316 185.352370 45.385502 26 1
-8.430059 59.079166 -0.799868 0 0
-67.511200 91.193062 1.272100 10 1
-12.138474 184.215000 -63.986660 16 1
-19.985041 190.512740 -27.073187 15 1
57.342957 150.639160 10.834225 26 1
-63.024815 92.327690 -15.999510 10 1
26.590181 193.072050 78.594124 22 1
-12.501275 160.490680 -77.822472 16 1
21.385153 161.300830 107.668690 22 1
-87.891533 147.990690 -67.305077 11 1
5.032955 184.756960 58.665386 23 1
80.540100 126.104170 -23.443125 24 1
-67.376488 146.753020 3.701324 14 1
3.601323 157.561660 -72.586830 16 1
-16.552326 169.555710 -48.435436 17 1
-53.609570 86.953163 20.478394 8 1
-5.721669 167.669240 -48.927013 17 1
-65.176849 146.304730 7.859096 14 1
-7.393372 169.915240 -73.795486 16 1
106.383430 108.373500 48.452492 20 1
-4.170678 172.374650 -8.608704 0 0
41.386505 99.143982 69.593864 25 1
68.233925 61.464191 -55.646160 2 1
36.290348 63.235950 -47.306973 3 1
4.160271 195.168000 18.440866 5 1
53.926247 109.664390 57.813553 25 1
55.027817 54.486710 -23.451475 4 1
-18.564972 170.547070 69.405823 23 1
34.573833 189.211590 42.836575 26 1
-97.243263 127.227750 -71.999725 11 1
77.790024 129.922100 44.700218 20 1
-25.941959 139.079820 -18.629539 0 0
-63.809937 167.963580 -48.196186 11 1
-11.693818 190.580550 -47.715988 15 1
13.642349 190.421940 64.536911 23 1
33.312267 60.463154 -52.189766 3 1
-83.481834 155.031910 -67.128975 11 1
11.785182 171.494930 -60.720779 13 1
-54.398300 157.282520 0.279970 14 1
62.646465 122.979960 48.994202 25 1
39.087067 185.650620 54.543621 26 1
22.352005 51.860065 -16.461946 0 0
35.005409 144.449450 113.927640 22 1
3.002042 171.489400 -61.591656 16 1
81.431099 134.771000 33.772797 20 1
-15.255885 172.275330 62.576218 23 1
69.346680 70.370743 -29.153795 2 1
39.553852 143.740250 114.773710 22 1
-101.443160 125.938530 -60.672253 11 1
24.944841 95.359390 5.628844 0 0
-18.467424 165.721970 73.166122 23 1
-13.762309 118.184650 -13.094421 0 0
-1.282614 39.812122 -4.570394 0 0
52.116802 183.538560 91.441612 21 1
-94.375900 74.768738 22.884895 9 1
-17.371611 173.127430 -32.286835 17 1
-61.239105 156.497730 -9.767677 14 1
-69.972382 140.106640 19.344652 14 1
-78.351395 160.838650 -54.765022 11 1
46.876949 131.938100 46.119484 25 1
-11.746049 175.048980 -36.479939 17 1
38.318600 185.262540 85.730850 22 1
-71.567802 158.453540 -21.061890 14 1
19.417048 182.881360 95.378685 22 1
-54.347271 78.990799 34.341022 8 1
-10.324171 178.272570 -0.114288 7 1
77.869759 127.586290 4.156116 24 1
0.892047 78.687698 -1.972782 0 0
41.781372 184.681210 94.070320 22 1
1.902826 57.047489 -1.735999 0 0
42.887321 64.197510 -15.679442 4 1
-3.302416 177.794460 0.058269 0 0
-28.829348 129.769960 75.087242 23 1
-23.836811 165.644490 -70.581573 17 1
-68.578728 154.546950 -13.058836 14 1
98.316147 117.044100 50.372505 20 1
-1.976249 148.925800 -9.077137 0 0
34.216122 182.299380 42.467525 26 1
49.115589 65.687508 -25.212481 4 1
-3.022733 28.615086 -1.325791 0 0
42.743645 106.288520 68.459457 25 1
87.490738 114.355040 -10.456285 24 1
41.564190 146.928340 114.259370 22 1
59.191292 149.369630 17.326868 26 1
33.330215 187.565350 81.112762 22 1
-17.662609 122.327990 -17.506487 0 0
21.646309 170.836900 -58.731339 13 1
46.984459 59.989365 -16.168451 4 1
-8.052951 152.628110 -68.381248 17 1
14.827097 188.572270 48.269905 0 0
49.224731 134.018050 37.626278 25 1
15.614961 172.317730 -62.663826 13 1
24.387386 189.011690 63.187447 26 1
2.018718 110.414970 -2.747897 0 0
-55.266479 170.522430 -30.832045 17 1
-30.532629 176.594560 -47.201145 17 1
-52.597397 83.372147 30.980824 8 1
47.948830 173.136990 33.265160 26 1
-0.185788 20.932341 0.727553 0 0
24.475250 191.931300 74.658951 26 1
-42.064758 73.196365 40.964046 8 1
-31.248962 173.545750 -37.650875 17 1
-13.064036 177.684650 -42.557640 17 1
-61.039116 156.796800 0.824155 14 1
51.022537 107.846370 63.319275 25 1
-55.659908 159.576780 -14.427124 14 1
-17.004995 126.233760 -15.707649 0 0
41.616814 176.644760 30.466902 26 1
-1.441366 136.894000 -6.911481 0 0
115.543060 91.218391 51.967613 20 1
-25.238771 177.180370 -45.458870 17 1
-90.244980 145.276730 -54.425564 11 1
-1.300758 173.621120 -47.868618 17 1
76.188980 129.279860 -18.879568 24 1
-92.325478 138.894420 -51.122669 11 1
65.269806 70.588432 -29.241930 2 1
-24.341011 188.032040 -42.748188 15 1
-55.495716 179.087920 -51.636272 11 1
-32.270615 177.325470 -22.198610 17 1
-81.297005 152.473070 -58.472000 11 1
61.252819 112.734640 52.470806 25 1
-69.775368 169.677840 -56.846760 11 1
47.871582 172.416200 46.686771 26 1
-59.134319 75.486786 32.559036 8 1
42.069550 184.077270 24.444662 26 1
31.275608 195.153820 33.687378 26 1
-27.212854 166.735230 -54.760147 17 1
-78.193062 155.775220 -53.311367 11 1
52.792843 164.207180 38.285610 26 1
34.861225 191.575240 28.616770 26 1
72.843582 136.292130 -6.328183 24 1
-15.137722 177.220670 67.638062 23 1
-19.106089 176.594440 -46.283852 17 1
37.610416 185.583270 94.251701 22 1
70.665253 59.653156 -52.205437 2 1
51.988533 165.745330 32.013462 26 1
116.208190 96.893013 41.466354 20 1
-47.768772 166.925980 -2.610404 14 1
55.521282 136.120220 33.739609 25 1
-107.211500 112.894290 -72.663567 11 1
-64.647087 90.168709 -13.639734 10 1
8.082052 190.657470 70.249725 23 1
75.471329 133.162060 33.530155 20 1
25.557861 188.813170 52.309399 26 1
27.650784 189.145170 66.917473 26 1
57.594551 127.416800 45.931980 25 1
-93.045532 133.634600 -77.957695 11 1
7.997484 175.340010 -56.731979 16 1
-0.821440 187.125530 54.972343 23 1
40.828972 192.143860 77.156380 21 1
-2.319982 190.716640 -40.149036 13 1
74.016724 134.850650 7.211417 24 1
80.564621 126.611160 -14.936423 24 1
-16.389332 188.193280 -59.508621 16 1
-3.445729 166.386730 72.339973 23 1
-30.012638 186.834870 -31.171682 15 1
15.508808 188.497650 52.224133 0 0
44.867645 173.327320 23.531664 26 1
-17.800392 168.484160 -73.859917 16 1
-31.023804 155.539140 -22.720457 0 0
34.738194 171.776260 96.550529 22 1
41.457062 183.911320 28.298290 26 1
88.371582 125.767560 45.119434 20 1
1.054860 178.773320 -11.732856 0 0
0.705349 174.599950 66.563148 23 1
-14.043988 151.855070 -71.124214 17 1
-78.092461 162.902340 -66.596588 11 1
-4.319625 182.045060 58.616768 23 1
-18.215172 20.352751 -5.335813 12 1
12.251472 172.926620 41.650429 0 0
66.609123 68.083443 -47.373436 2 1
57.472183 135.006120 26.951210 0 0
-1.434448 13.854082 23.199446 1 1
-62.659340 93.480415 11.801960 9 1
39.125416 176.373110 48.649879 26 1
0.493324 46.812111 -4.540006 0 0
-0.808470 61.431057 -0.592528 0 0
55.650528 126.901950 42.412052 25 1
20.921713 190.477480 57.228848 26 1
-17.409302 24.597639 -20.233015 12 1
84.583130 111.941540 -31.479504 24 1
-0.727016 97.126137 -6.846184 0 0
2.360536 162.694950 -5.109540 0 0
-53.463493 82.806252 26.139055 8 1
-0.220104 186.214160 7.449261 5 1
-54.060070 65.604004 42.321949 8 1
-16.730488 146.251040 -75.118423 17 1
-57.480221 159.008620 1.367902 14 1
66.044296 131.500820 37.423420 25 1
-57.228313 90.217865 11.458920 9 1
57.101742 128.473370 21.391850 0 0
5.326799 140.172000 -78.200005 17 1
-78.239525 130.444230 13.755548 14 1
48.402412 167.903920 17.270823 26 1
70.008926 65.699593 -43.792950 2 1
30.681671 54.461559 -54.094181 3 1
85.994629 127.899170 49.404449 20 1
-14.968637 114.865010 -14.150147 0 0
-9.966876 17.687262 -6.391314 12 1
24.996082 162.989750 104.220570 22 1
-14.951845 164.583110 -54.520157 17 1
-9.284391 190.290860 -40.749870 15 1
29.187635 190.173810 39.582630 26 1
-3.298846 175.210510 -62.711536 16 1
-27.329884 173.933870 -37.206738 17 1
-16.987358 182.921160 -61.733253 16 1
35.623539 185.547610 31.824665 26 1
-30.953749 174.759750 -52.899273 17 1
-60.352982 84.405151 27.240406 8 1
-28.718086 174.937410 -29.863773 17 1
73.129929 132.664790 -11.707159 24 1
-14.136610 179.182690 -30.394794 17 1
48.080360 172.503620 40.740826 26 1
104.384640 114.833040 46.477764 20 1
31.137320 151.651750 109.406750 22 1
-95.580513 129.936370 -70.429321 11 1
-59.604939 147.901730 15.088938 14 1
-48.706387 68.527039 39.123196 8 1
-70.100189 90.612083 13.662485 9 1
-5.387977 58.191620 -4.392551 0 0
-76.735893 159.070020 -67.093636 11 1
34.474365 184.650390 36.161758 26 1
-21.722012 163.571620 65.104988 23 1
-6.794608 6.153910 29.318529 1 1
49.378242 75.729874 -37.372200 2 1
8.195812 197.515590 22.568192 5 1
1.760665 180.986530 3.488317 5 1
-83.993057 149.065550 -58.813419 11 1
-55.245144 174.789380 -51.921722 11 1
-23.444147 150.055630 74.265518 23 1
-34.208580 168.788700 -55.354492 17 1
8.865883 184.535080 66.334885 23 1
-86.235443 152.146180 -76.632782 11 1
-3.812098 192.121370 -58.661381 16 1
-13.821101 172.222580 -32.592594 17 1
4.838680 168.676380 -56.237747 17 1
80.483406 133.850780 29.303783 20 1
-43.722332 175.737380 -14.980229 14 1
10.695726 158.648740 -63.184170 17 1
52.459343 158.296450 18.542536 26 1
-15.014396 189.696900 -48.640327 15 1
61.787727 70.076836 -37.209984 2 1
-76.272148 135.293960 15.616694 14 1
65.155846 102.087520 57.808968 25 1
37.671680 144.034550 118.065180 22 1
49.302296 164.616420 37.933384 26 1
-12.493596 58.922523 1.597691 0 0
-57.521729 94.133064 3.924526 10 1
-49.072014 159.075090 -10.266848 14 1
-16.117729 170.764010 -26.206352 17 1
-83.786835 150.387860 -70.630219 11 1
-51.948051 90.082443 14.131186 8 1
-18.756001 163.804980 -75.335793 16 1
-27.148201 180.406680 -37.280853 17 1
12.767679 145.323500 -73.219650 17 1
-4.488921 19.498007 11.281769 1 1
42.681606 171.322600 103.155370 22 1
-72.402512 169.697080 -70.667564 11 1
28.084717 197.607380 39.517231 26 1
79.054153 130.218460 1.038036 24 1
24.405813 169.966920 98.316093 22 1
-1.885408 3.593472 32.114136 1 1
-29.726683 156.641160 65.939491 23 1
47.746765 173.613800 26.025236 26 1
-20.334099 167.051680 -52.298153 17 1
0.733918 158.768330 -74.461311 16 1
63.608036 70.313927 -32.915482 2 1
-25.424654 145.966370 -76.960953 16 1
46.187031 124.606930 54.555180 25 1
-0.359640 185.923340 71.152756 23 1
34.598969 181.958160 97.922813 22 1
25.289614 65.193359 -47.998684 3 1
-51.797527 173.084030 -40.225052 11 1
56.972111 107.697260 57.086624 25 1
-83.743561 154.786150 -60.875687 11 1
-76.678619 165.247960 -69.147301 11 1
-87.516647 143.105770 -63.398438 11 1
3.518927 159.936050 -57.960030 17 1
94.394257 121.990200 53.774780 20 1
-81.576866 83.985306 22.860443 9 1
-31.592983 127.599680 77.020531 23 1
-48.245422 85.584320 25.615597 8 1
-46.078857 57.164215 46.914288 8 1
-43.648659 169.120860 -26.907856 17 1
41.706951 163.022340 106.875620 22 1
-9.843770 166.008770 78.965126 23 1
-22.471498 28.214586 -18.408215 12 1
19.129904 47.006874 -53.874741 3 1
-67.463272 156.251280 -7.389663 14 1
25.793880 192.869960 62.134487 26 1
42.695927 183.597090 90.496323 21 1
-55.056915 87.685638 25.905579 8 1
52.889935 57.176025 -24.661177 4 1
-6.048532 176.000530 75.982338 23 1
11.837491 166.529080 34.009869 0 0
-1.280719 167.648210 -13.080034 0 0
-67.309410 170.576900 -44.629761 11 1
45.681946 179.815170 18.576952 26 1
-51.901142 90.781784 20.491741 8 1
-1.660781 169.689380 -29.319983 0 0
10.814833 40.218739 -9.690668 0 0
50.743603 130.886180 39.070843 25 1
21.667610 188.670900 69.430466 26 1
103.941130 110.589670 50.550285 20 1
28.102013 179.254550 88.105797 22 1
-56.509094 166.442550 -12.194334 14 1
55.114059 149.599490 21.833256 26 1
63.340069 68.196838 -52.550255 2 1
1.358831 26.376139 -2.142235 0 0
-64.383217 165.027400 -21.039812 14 1
-2.358414 140.919710 -83.419365 17 1
52.965321 118.296800 56.533195 25 1
79.119804 130.854200 11.549423 24 1
-13.080197 16.396185 15.381006 1 1
86.731956 127.888570 40.437855 20 1
-48.221542 168.352680 -26.125792 17 1
-11.302382 183.887050 -58.155418 16 1
56.534634 156.702620 33.470280 26 1
0.434416 126.452950 -7.083792 0 0
-25.371124 134.104130 75.998650 23 1
57.946678 141.753970 22.840542 26 1
-0.034082 24.489973 0.751985 0 0
61.091461 127.929490 38.413357 25 1
-59.497185 153.540630 9.704518 14 1
-13.327240 193.109660 -43.467667 15 1
47.801460 166.245760 27.727060 26 1
78.895584 129.997510 -5.204083 24 1
-22.213909 184.095550 -27.107677 15 1
46.592766 75.395416 -35.299023 2 1
-1.420325 188.848400 65.402832 23 1
-0.073773 54.444054 -0.316287 0 0
-69.799232 88.021713 -11.402468 10 1
-65.383614 173.519870 -58.643848 11 1
72.760284 133.666150 -18.140881 24 1
7.600957 184.403410 -47.375851 13 1
83.860176 129.636720 37.567425 20 1
79.546715 124.496150 -8.388464 24 1
4.469844 164.402690 -53.212719 17 1
-44.572739 76.097389 35.878208 8 1
-3.887651 170.031330 67.600258 23 1
114.553180 93.918671 54.601772 20 1
52.642056 131.420530 42.881538 25 1
58.571449 135.168610 20.335453 0 0
-28.484734 151.982990 69.832230 23 1
-66.816582 141.894290 13.199186 14 1
59.287052 48.955566 -22.871019 4 1
61.847435 140.878600 22.691479 26 1
26.629744 152.519780 110.745030 22 1
-2.216216 144.980000 -10.972357 0 0
-46.500488 82.769615 32.692799 8 1
84.336067 114.246510 -26.209263 24 1
34.153553 192.585190 77.631035 21 1
-47.173737 177.983090 -28.279593 15 1
117.350230 96.572708 35.982830 20 1
90.522011 122.260620 54.259125 20 1
23.473856 175.660720 -53.389584 13 1
0.117886 188.622730 4.966843 5 1
44.734486 160.265980 112.093210 22 1
1.340731 168.879270 -47.407864 17 1
-15.576976 166.681230 75.100975 23 1
-26.435059 167.404330 -64.525940 17 1
84.614700 121.427840 0.007720 24 1
-60.656384 73.806992 36.033154 8 1
74.953857 54.049507 -50.949738 2 1
-14.529491 138.133380 -81.382607 16 1
-12.005272 0.496098 35.918514 1 1
65.675270 124.477080 41.446716 25 1
-1.130189 146.428940 -79.808357 16 1
17.027359 180.733780 -47.290241 13 1
-47.896664 162.691560 6.133832 14 1
84.000359 124.123830 -6.105702 24 1
88.603905 115.885510 -4.476282 24 1
32.182117 145.808640 -66.035156 13 1
6.208155 181.214110 -62.481537 13 1
-22.662796 188.127080 -25.533283 15 1
-101.945300 71.843040 13.693234 9 1
8.128941 194.632520 60.033669 23 1
-77.901787 136.544860 11.253963 14 1
-10.078496 17.063364 10.497006 1 1
-8.183065 157.503970 74.987442 23 1
-60.902542 89.657166 -26.896126 10 1
55.883633 48.974812 -22.149410 4 1
34.732903 150.745960 -61.202312 13 1
-33.303230 173.706670 -34.654610 17 1
10.181377 160.072110 29.105925 0 0
10.605957 188.781510 -44.045704 13 1
31.322605 99.011459 8.983675 0 0
-9.800321 18.926971 5.108055 12 1
-44.974888 179.335970 -22.092836 15 1
-72.189346 163.328030 -40.532059 11 1
3.409422 179.351640 -55.375866 16 1
-101.339190 119.832760 -79.173706 11 1
51.838230 127.597210 43.049015 25 1
61.406738 137.932920 11.508663 0 0
48.998920 48.203125 -11.894640 4 1
-66.535614 152.390720 -7.016475 14 1
58.585110 135.608870 32.112663 25 1
18.589008 165.275830 106.023410 22 1
22.418758 150.956050 115.329610 22 1
49.312775 125.002400 52.481419 25 1
-64.289818 152.294590 4.920681 14 1
-73.874710 94.969002 4.772342 9 1
4.554538 180.461180 63.012142 23 1
-4.945628 178.240800 -8.332306 0 0
23.676771 165.661480 -51.727985 13 1
74.879868 132.747150 38.029343 20 1
85.014923 132.699280 36.454197 20 1
-9.354030 170.437620 -29.327168 17 1
74.508507 136.027570 17.753525 24 1
-59.370102 153.501480 3.450521 14 1
-1.546310 154.123790 -64.934944 17 1
38.120422 139.957570 -63.438599 13 1
-74.923195 143.402010 -1.364225 14 1
44.829498 71.190590 -30.971138 4 1
-1.263277 74.565987 -5.675086 0 0
-15.413225 172.058400 71.443092 23 1
54.841743 120.495640 53.990658 25 1
70.675598 134.122280 38.129246 20 1
80.318649 129.680250 6.611105 24 1
-16.954220 25.164783 -14.534380 12 1
-25.439095 173.389760 -40.234722 17 1
56.265884 146.197720 20.866812 26 1
-55.072208 171.516020 -17.438591 15 1
-18.986637 15.892983 12.773637 1 1
-5.495599 12.211460 22.184885 1 1
41.321659 182.780000 32.132450 26 1
53.557934 164.264300 14.822038 26 1
59.870655 103.140450 60.310139 25 1
-71.226654 144.820530 0.988285 14 1
-83.335403 152.814530 -45.023170 11 1
-67.385971 92.149727 18.957140 9 1
-67.453201 90.943817 23.549128 9 1
-10.711543 173.546550 -51.138222 17 1
7.908913 137.617830 -83.712105 17 1
9.593917 185.701200 62.858955 23 1
5.898175 130.484710 10.309900 0 0
98.088478 120.430370 49.431358 20 1
14.454229 181.696200 -56.047272 13 1
52.125561 187.896550 86.668495 21 1
-48.025608 159.508880 3.081953 14 1
29.165226 192.278050 55.468323 26 1
-35.819286 172.711640 -58.430233 17 1
57.094994 146.361650 16.330082 26 1
1.394115 133.606900 -8.222463 0 0
-79.438225 161.928440 -70.499817 11 1
48.369835 127.411060 44.765347 25 1
-3.363254 35.525848 -1.372558 0 0
87.761017 126.229390 51.925045 20 1
68.564911 138.041550 -9.909374 24 1
22.719841 68.940964 -43.835068 3 1
36.909554 149.684160 110.770160 22 1
-77.149498 144.694750 -6.378628 14 1
-16.916613 10.222384 26.661125 1 1
-8.334204 54.695866 -8.933893 18 1
-20.832577 184.286070 4.335811 7 1
59.154076 133.112460 29.572475 25 1
55.490280 115.033110 53.201637 25 1
55.338528 100.997340 63.067360 25 1
-32.872463 158.174410 -23.894644 0 0
1.102498 45.129124 -1.542449 0 0
43.223694 92.502502 71.871918 25 1
-26.265120 187.807830 -39.455338 15 1
11.941003 178.919600 38.848038 0 0
115.813210 92.562836 41.246784 20 1
-19.596144 162.112550 73.485306 23 1
39.736496 153.006040 114.617960 22 1
74.927727 130.663800 -14.519276 24 1
-86.070648 153.348220 -40.641647 11 1
-43.400745 67.779861 43.274086 8 1
36.556850 72.786491 -36.246880 3 1
22.994833 71.938210 -40.675163 3 1
59.743206 138.640560 14.742983 0 0
26.980608 157.128430 107.292900 22 1
92.342041 127.029280 36.458500 20 1
56.406246 74.365341 -28.201311 2 1
-40.437973 173.443510 -41.725960 17 1
90.021591 98.672455 -27.700632 24 1
58.697704 122.482990 46.037197 25 1
-0.551221 161.391010 -22.301100 0 0
43.293869 126.091110 49.821663 25 1
-11.551222 193.714360 -33.929230 15 1
-38.758755 84.124641 32.063641 8 1
115.787710 102.978990 36.010120 20 1
-17.924812 141.420930 79.130951 23 1
28.547991 168.926850 -50.858757 13 1
-60.629505 154.301420 -1.473133 14 1
-95.079094 134.417860 -65.946609 11 1
6.004070 189.677520 -51.642147 13 1
-62.035519 88.293785 27.119934 8 1
70.406151 138.211500 5.187149 24 1
-25.116266 178.169170 -25.614525 17 1
-42.492393 85.734421 28.442070 8 1
0.366961 169.581440 79.353943 23 1
11.995807 142.271120 -75.877472 16 1
26.289038 189.881270 45.672455 26 1
-98.446342 129.161330 -64.942017 11 1
17.738503 191.810970 66.451775 26 1
