-6.262407 183.573940 -2.127800 0 0
40.899483 207.226470 1.743116 3 1
-87.152107 146.473720 -39.767937 22 1
-7.420987 87.476494 0.903014 0 0
-81.065483 143.446960 -46.324650 22 1
75.160545 159.970500 44.992844 28 1
47.473370 196.140760 47.253853 28 1
-24.705269 169.586930 20.459927 21 1
-70.326195 226.707380 0.102395 25 1
-60.404293 212.104870 -29.646305 25 1
-2.825832 163.574830 90.949585 27 1
-69.034866 154.614360 -56.263176 22 1
-15.098953 145.857300 81.822906 27 1
-116.477960 195.822880 13.683229 12 1
-18.528881 69.146759 -0.909741 19 1
24.467550 200.531520 41.963612 2 1
-40.938164 203.740590 -5.483916 17 1
41.962326 187.269360 -2.643374 3 1
60.804668 234.523650 6.607127 1 1
34.993671 103.325610 -0.908081 14 1
19.521278 197.421620 55.791492 2 1
75.723999 129.948820 120.734050 26 1
45.619328 188.083450 69.497353 28 1
-29.142097 175.994140 24.091213 21 1
51.309723 185.675340 72.388115 28 1
44.890144 109.341160 9.684854 13 1
-89.870041 221.561720 8.036213 12 1
35.143719 109.354100 -7.171884 15 1
-26.353607 166.523450 3.212428 0 0
50.849102 185.671310 61.822056 28 1
-23.790077 80.180878 47.988075 7 1
48.971889 194.184510 58.834179 28 1
-84.614082 150.714600 -55.649502 22 1
-12.145438 106.124300 2.703745 0 0
-56.948456 222.851960 11.773267 4 1
-47.135654 202.760790 57.324684 4 1
26.171871 207.252410 37.883598 2 1
55.499428 108.142090 4.591502 11 1
-35.129829 214.763580 1.156905 17 1
-64.055779 118.896130 -83.912743 23 1
43.210587 209.481370 -4.600555 3 1
29.952806 233.355100 3.460593 3 1
-27.941444 67.358925 58.109524 7 1
18.093756 110.823200 -43.527111 10 1
67.107559 174.752810 107.625100 26 1
-61.238380 119.001080 -12.807878 24 1
61.396896 104.391690 -3.244621 11 1
-63.103191 81.228951 37.564877 6 1
80.272949 147.142870 45.365341 28 1
31.721466 128.529280 -34.646481 10 1
-15.183040 147.163940 2.670635 0 0
-20.711349 191.704640 23.049967 21 1
-42.608231 210.277210 22.944698 21 1
-61.128876 222.187030 -23.392654 25 1
-93.026680 216.801180 -2.205939 12 1
-42.965443 144.064880 -69.684715 23 1
30.241734 188.330490 -14.496876 3 1
-50.734028 92.192474 38.945698 6 1
11.530517 194.808360 0.413092 0 0
20.428320 217.293550 39.582920 2 1
-4.868653 161.941790 -3.259471 0 0
76.072342 153.534210 51.123039 28 1
38.844292 195.204850 46.242207 2 1
-101.053180 89.831047 -66.617134 22 1
-77.487045 207.181580 -28.023230 25 1
-25.117559 59.699570 52.938465 7 1
32.451046 184.704770 45.010750 2 1
74.490730 166.297350 51.177128 28 1
-39.703159 84.120453 57.323101 7 1
-54.482044 149.062290 -43.974369 24 1
-47.928905 208.672330 38.387871 4 1
-61.993034 146.931060 -65.011978 23 1
7.301033 175.962140 84.291649 27 1
-30.842520 176.135930 1.366918 0 0
27.169529 110.884690 12.966365 14 1
24.441547 180.316790 46.867294 2 1
-7.122493 55.540970 1.958267 0 0
41.872032 96.770805 -2.577114 15 1
60.711113 168.730680 111.607840 26 1
32.452053 129.137100 -22.434906 10 1
-59.081001 82.685707 48.869350 5 1
33.792934 205.542560 -10.446478 3 1
10.466849 175.437810 90.783569 27 1
-33.841965 78.966385 53.313690 7 1
-46.150417 148.558010 -64.923073 23 1
-21.441692 157.639940 2.897600 0 0
-34.839550 88.538322 42.370514 7 1
-28.699656 201.460740 0.137463 17 1
39.516579 188.376890 60.397873 28 1
13.975840 190.332790 50.535294 2 1
39.443062 239.017810 3.731058 3 1
-77.003212 187.315700 -42.699207 25 1
68.474411 169.663730 58.830540 28 1
-3.952202 114.456990 10.362221 0 0
-10.072996 142.199070 88.580299 27 1
-122.630320 187.636060 11.040652 12 1
35.225266 215.446670 -9.053626 3 1
-56.467274 219.871380 4.846931 21 1
82.050468 196.107680 12.634080 1 1
-52.276108 81.299072 64.066612 5 1
-68.200500 217.516950 -22.471912 25 1
-6.117882 201.106490 -0.500238 0 0
-0.964011 77.042587 4.063283 0 0
-71.888512 128.555310 -23.143623 24 1
31.927822 184.340040 -8.474900 3 1
-46.369228 194.779190 1.076267 0 0
-53.468063 82.086075 41.631405 6 1
30.652376 197.582410 48.756954 2 1
-113.794990 203.695070 -5.808006 12 1
-132.487200 165.908250 4.569862 12 1
-70.158363 189.423950 -46.618061 25 1
-63.595715 204.473770 25.769871 4 1
46.283970 99.792839 16.684597 13 1
72.447350 141.251890 120.362020 26 1
15.750155 182.647770 85.440964 27 1
29.175089 177.371630 -10.231647 3 1
47.923088 193.610380 65.726265 28 1
8.077893 39.474972 -4.531921 8 1
48.058094 127.570440 -21.355978 9 1
7.881220 187.010060 -0.007052 0 0
-1.588464 64.959969 0.834308 0 0
35.289944 170.348620 49.988342 2 1
28.923941 194.739670 -14.172677 3 1
34.076996 110.624040 15.661844 14 1
-88.748596 130.838120 -47.401157 22 1
-74.328537 148.565660 -56.049492 22 1
3.948107 171.093490 86.018814 27 1
-2.052701 47.711666 5.266329 0 0
38.920471 186.102660 48.598801 2 1
-88.371498 220.002370 0.706950 12 1
-1.553995 58.490356 1.178552 0 0
-51.461575 198.758320 8.346061 21 1
-2.854228 104.993370 6.104366 0 0
-62.533009 203.297520 -39.403606 25 1
43.765182 237.678130 20.796360 2 1
-51.081886 205.177640 48.197060 4 1
-77.066559 225.016250 4.022131 25 1
71.595932 172.928740 54.809772 28 1
49.261852 128.577740 -9.291660 11 1
-93.375412 228.064530 12.206951 12 1
-49.156811 225.392670 23.316896 4 1
-37.902393 196.109910 -4.512773 17 1
34.260605 236.993180 21.421677 2 1
-26.840328 62.121113 9.980267 18 1
-1.053274 44.535030 -11.812919 8 1
-7.130545 153.196380 -1.885668 0 0
-52.001907 193.003720 54.602592 4 1
-46.751789 94.777718 49.560352 5 1
56.472332 117.674160 -2.979354 11 1
57.195484 240.167010 6.353952 1 1
52.032486 105.980500 11.312999 13 1
21.604967 228.477070 28.764755 2 1
-41.961166 214.876130 15.718503 21 1
-87.476570 149.811390 -63.950829 22 1
-22.593098 206.189830 11.768172 21 1
35.411880 102.494810 11.309579 14 1
24.755173 189.606780 74.755630 27 1
38.436161 129.000730 -4.711178 11 1
-134.884140 166.814880 -5.446641 12 1
-63.978806 66.892578 38.066380 6 1
-3.382786 4.392209 -1.150777 0 0
57.468601 191.241010 42.255558 28 1
-28.188984 200.438960 27.387741 21 1
-71.076401 184.005910 -55.167156 25 1
23.028851 196.494510 72.214722 27 1
26.466547 226.737050 25.720957 2 1
35.524612 103.440200 -11.048376 15 1
55.900108 79.176514 14.889802 13 1
56.981548 96.377007 8.168110 11 1
43.112446 184.476880 103.753590 26 1
25.473282 223.487930 -12.381660 3 1
-50.862480 216.061310 27.598021 4 1
-20.165195 198.371200 23.239727 21 1
-129.670290 177.310700 -4.512068 12 1
68.386070 221.462510 11.070506 1 1
-9.097288 132.801930 3.402226 0 0
3.641709 188.019840 71.521538 27 1
-135.715300 159.674260 1.434417 12 1
33.552517 220.226330 29.458668 2 1
17.593344 42.322998 -7.164222 8 1
-38.913597 207.199370 5.816791 21 1
75.893753 166.670300 38.474552 28 1
-101.412590 96.387756 -60.099010 22 1
-53.342556 209.628910 2.565451 21 1
-66.847397 222.122740 -6.880652 25 1
55.276257 184.254390 100.646810 26 1
29.837532 191.413600 44.360722 2 1
-64.103874 124.510480 -18.816446 24 1
-61.249924 77.664131 41.925484 6 1
-136.541170 161.199200 -4.234241 12 1
-91.877823 137.956950 -50.643005 22 1
41.069637 214.118440 34.371452 2 1
-34.012547 191.730560 18.912169 21 1
-60.275234 224.283050 -3.173454 25 1
-57.185287 225.376240 -12.797128 25 1
68.538445 176.900730 66.105515 28 1
27.756393 195.248670 63.776627 28 1
-99.955254 129.900680 -66.801849 22 1
30.550903 235.284480 17.141413 2 1
78.911636 142.979810 53.963478 28 1
-55.206963 174.588130 23.879360 21 1
16.852888 103.862720 -47.957020 10 1
52.415649 115.021930 4.015189 11 1
23.363241 222.596830 5.253852 0 0
45.021034 124.459790 5.515971 11 1
56.237995 190.535030 57.404552 28 1
36.256210 222.829060 -7.667871 3 1
-38.193485 203.742170 28.350555 21 1
45.982281 188.686420 91.396217 26 1
-3.084486 169.946960 -5.109751 0 0
49.923370 127.172580 -15.132854 11 1
41.242916 194.434720 91.784500 26 1
0.679678 40.566223 -22.806671 8 1
57.659679 184.983180 50.297749 28 1
-57.678562 183.770830 18.790138 21 1
-29.374176 212.961330 9.944320 21 1
19.179714 209.647420 43.854744 2 1
30.234341 226.817310 31.766054 2 1
-60.868664 186.516200 58.070312 4 1
37.329201 96.807068 -10.934191 15 1
15.734702 226.243530 35.492420 2 1
-71.381111 149.216490 -38.220482 24 1
-48.223061 132.317690 -75.888077 23 1
-12.347355 116.241710 4.546502 0 0
-60.963024 218.040210 -31.241175 25 1
-57.105328 220.250460 21.750006 4 1
-47.361485 200.319930 23.164574 21 1
30.785322 189.542240 68.398376 27 1
27.751553 201.056810 -8.656563 3 1
67.472313 180.056660 53.769890 28 1
30.614780 121.030240 -43.177032 10 1
53.069809 122.605740 -2.971827 11 1
39.224686 195.142990 -0.781124 3 1
-97.417206 221.074910 3.469913 12 1
-60.026447 81.728127 24.459129 6 1
28.277285 193.045230 87.579674 26 1
-20.130054 70.423531 9.384409 18 1
23.561398 201.638900 12.754261 0 0
57.481033 159.880550 116.877880 26 1
41.978336 222.668290 29.164728 2 1
46.645428 109.076900 4.152964 13 1
50.664433 164.204280 114.864550 26 1
-58.084309 146.127110 -47.458534 24 1
44.477764 107.795650 15.594904 13 1
-54.845837 203.100780 18.720438 21 1
19.170773 203.389850 41.921547 2 1
61.867226 238.301420 15.225158 1 1
-46.945469 203.192150 17.356647 21 1
-48.021797 189.822920 71.617981 4 1
-43.861153 174.891690 -18.308672 17 1
75.368004 121.516460 123.292180 26 1
31.559946 233.245560 26.472782 2 1
85.194130 184.511150 19.707752 1 1
63.088020 186.561690 40.975101 28 1
-66.260880 144.088130 -68.261932 23 1
34.293892 162.842740 49.204872 2 1
-90.849953 131.384800 -57.106274 22 1
-21.924395 180.212220 23.469816 21 1
-81.582558 206.874130 -33.949585 25 1
-61.167149 67.760841 60.816967 5 1
-12.677150 164.541460 78.041283 27 1
30.259937 208.631260 41.706997 2 1
-95.945168 111.980830 -56.230221 22 1
-110.861850 208.081150 -3.273963 12 1
-69.561142 139.631120 -73.588478 23 1
35.023014 180.086590 56.410461 28 1
-6.729237 117.999110 4.856986 0 0
40.162449 115.822640 1.404513 15 1
19.595465 186.202940 81.248413 27 1
27.926687 224.205200 9.969220 0 0
-115.415030 191.508580 6.046615 12 1
26.491884 92.013657 15.787444 14 1
-61.765541 198.959400 34.423470 4 1
21.239885 123.453620 -34.986526 10 1
-77.232880 216.507080 -23.354366 25 1
-67.306252 147.422260 -47.459911 24 1
-79.749184 156.457180 -60.877865 22 1
-55.566429 209.631090 27.844696 4 1
81.484894 136.357300 49.934540 28 1
13.678955 120.769650 -40.506210 10 1
73.068298 212.121250 8.146989 1 1
10.832702 36.068489 -19.325788 8 1
63.546364 185.313450 50.349407 28 1
-92.844780 135.815700 -62.653805 22 1
59.904850 114.241370 -42.935616 9 1
42.772285 222.974380 -4.429749 3 1
34.405506 217.069320 1.162930 3 1
-47.088089 206.797320 -0.020853 21 1
-86.159729 144.163020 -56.733936 22 1
0.825627 37.598331 -8.169002 8 1
-48.173294 215.204210 13.896875 21 1
50.914913 195.861760 94.944084 26 1
32.862553 227.835190 3.522202 3 1
-63.064026 214.688870 -22.605965 25 1
-11.418726 186.057270 -2.204524 0 0
-52.316875 190.005520 22.336494 21 1
5.382535 176.160830 -0.106769 0 0
32.947853 189.267470 80.176918 27 1
-30.974701 195.659270 25.462286 21 1
55.063976 169.223570 110.357490 26 1
-63.093090 51.502445 34.118069 6 1
13.099423 191.170120 56.367733 2 1
72.684830 169.565110 62.722801 28 1
-93.201714 119.913880 -54.038216 22 1
-53.406700 196.038020 46.833557 4 1
5.603940 40.841007 -16.654446 8 1
36.357864 196.947300 60.050545 28 1
-58.974762 85.558273 33.380264 6 1
28.747295 131.518740 -26.319281 10 1
63.970043 95.348412 -35.871422 9 1
26.606895 237.153960 6.524152 0 0
-57.939678 209.192080 -36.585655 25 1
-46.809105 200.577300 1.968047 21 1
42.384594 102.695390 -6.768335 15 1
-104.237920 217.342410 8.834901 12 1
35.156910 192.179380 -9.227070 3 1
42.674667 188.952580 86.013008 26 1
-19.020905 109.096930 7.488211 16 1
-105.745060 207.696750 10.070152 12 1
7.058619 181.224490 86.340546 27 1
-24.882446 190.442000 18.159039 21 1
40.904522 189.065890 66.584122 28 1
-42.755451 189.249500 -11.517962 17 1
-21.722195 201.302870 2.950887 0 0
-68.506218 104.190180 -10.177564 24 1
-53.072433 90.619354 43.893314 6 1
47.820469 177.269320 108.984760 26 1
-53.575016 147.347870 -31.328642 24 1
21.245235 109.683780 6.405996 14 1
25.857780 221.095400 36.142620 2 1
31.908672 190.068280 95.531448 26 1
-84.942841 137.559740 -44.113224 22 1
1.964351 36.582832 2.652706 0 0
12.374889 184.710600 79.183189 27 1
-98.382057 224.120440 13.191858 12 1
-54.604507 126.529140 -14.363495 24 1
-52.300480 230.400910 15.136224 4 1
-52.912228 214.918090 4.352035 21 1
-12.657412 135.619750 86.944153 27 1
-64.914024 150.146530 -60.134670 23 1
-39.197659 197.687880 30.002758 21 1
-39.039528 185.282380 -18.875719 17 1
-111.666230 207.364090 5.500751 12 1
57.709709 120.539290 -41.188557 9 1
-54.164188 149.636340 -57.879642 23 1
-121.442840 192.404950 -7.979383 12 1
29.299097 229.035320 -9.257988 3 1
15.048587 219.148860 39.181438 2 1
34.146793 189.564060 89.688812 26 1
-38.482685 90.490112 52.841602 7 1
55.954399 125.132390 -31.857386 9 1
-52.167126 213.695310 36.913513 4 1
-66.680405 221.468550 4.491773 25 1
-54.243813 135.873120 -75.527954 23 1
-113.117460 199.630710 -9.667727 12 1
39.079533 175.699220 -4.630705 3 1
-10.183169 158.710720 84.837128 27 1
37.745922 181.301940 51.348667 28 1
22.944153 196.110260 66.422363 27 1
-25.969185 209.367840 7.419939 21 1
26.192829 178.217010 -14.843130 3 1
34.740379 209.995100 34.304466 2 1
-77.151527 218.368670 -15.016834 25 1
-57.392994 131.903440 -20.287912 24 1
63.652542 106.604650 -29.778515 9 1
-2.319381 154.761110 91.005356 27 1
-69.926666 200.311400 -44.055183 25 1
27.000494 108.447090 -45.197075 10 1
-12.762769 189.165390 4.395138 0 0
34.181023 232.993190 7.532730 0 0
22.222046 201.692210 46.885071 2 1
-6.674828 74.749893 -0.055366 0 0
16.524651 194.259800 59.415257 2 1
-7.984906 141.571610 -1.234947 0 0
-62.247154 140.825300 -71.408249 23 1
-20.635782 67.283325 52.737667 7 1
41.029625 196.855480 53.750187 28 1
-77.095329 145.632950 -39.164013 24 1
-58.583923 127.174220 -81.492081 23 1
-83.430260 227.491120 0.451993 12 1
-68.769569 220.254120 -11.744944 25 1
47.288292 114.519680 10.690361 13 1
46.169098 120.813950 -3.087040 11 1
56.708359 126.277760 -18.316496 9 1
66.531647 156.840760 114.582310 26 1
-57.224174 153.333720 -39.938969 24 1
53.293396 99.994453 3.563651 13 1
-10.565107 152.855100 86.477600 27 1
-94.919418 105.365190 -53.239998 22 1
-116.211630 188.826250 0.510984 12 1
32.976227 173.789990 45.793507 2 1
-57.543140 190.091580 13.789904 21 1
-46.611828 201.682710 7.464152 21 1
52.379421 105.975760 -4.445562 11 1
-50.688389 209.002260 44.266968 4 1
-132.298390 169.186280 -1.207208 12 1
-60.856480 221.997630 2.064105 4 1
50.769760 183.803670 104.002960 26 1
-119.424420 194.437380 -1.675228 12 1
-9.806541 147.028930 -1.781968 0 0
40.839626 237.787690 14.548088 0 0
14.797625 199.109560 70.867134 27 1
-67.784523 146.563030 -41.381348 24 1
43.245220 212.139970 1.191838 3 1
27.671492 212.323810 -6.066099 3 1
7.128264 34.918373 -25.814228 8 1
-79.562546 180.525180 -46.795071 25 1
85.386459 175.569630 20.956900 1 1
55.862854 246.309280 13.053707 1 1
65.219536 174.210280 62.613964 28 1
-3.807722 51.380074 0.411273 0 0
35.227722 197.679110 42.051003 2 1
64.342369 234.924940 18.732206 1 1
25.185928 179.794280 57.225811 2 1
-101.622630 211.900050 -7.136611 12 1
27.229246 116.983990 9.930503 14 1
21.827385 115.145230 -41.024067 10 1
56.747845 190.917250 51.988129 28 1
-105.317310 214.302140 0.585399 12 1
-87.369827 146.810910 -51.511303 22 1
0.325228 12.646279 2.427589 0 0
-62.440315 109.344840 -11.018074 24 1
41.929237 190.128170 98.173050 26 1
35.552727 196.136380 86.487312 26 1
71.946205 221.325120 20.541588 1 1
28.592875 201.965960 45.207127 2 1
-97.054779 122.943090 -56.393749 22 1
-56.208992 210.755860 34.142521 4 1
-75.490326 195.194340 -44.847538 25 1
-43.475250 94.310471 60.066002 5 1
82.888939 170.177060 19.033155 1 1
60.791115 119.301770 -23.800980 9 1
-0.869328 184.484650 74.067085 27 1
32.998775 217.242050 37.047604 2 1
-29.380262 209.453090 -8.647416 17 1
-77.417480 140.396590 -31.376263 24 1
3.333421 118.962930 4.299186 0 0
27.882441 167.453140 -9.991646 3 1
77.068314 156.465530 55.568832 28 1
-59.486328 121.500500 -82.040489 23 1
-93.672806 139.192690 -56.374138 22 1
-63.853596 214.183200 -33.708046 25 1
-34.111076 186.464630 20.873138 21 1
65.508171 231.860000 8.722261 1 1
48.226265 190.437700 50.936783 28 1
-59.404251 204.980500 36.011036 4 1
-51.398838 100.558600 -87.525841 23 1
-43.234394 213.870770 44.092003 4 1
-42.595226 206.494190 56.691166 4 1
-53.882088 75.398552 61.428734 5 1
35.718914 184.558700 60.781010 28 1
-8.469513 198.099530 -4.318013 0 0
-17.877855 159.956340 78.485313 27 1
-3.613048 118.741100 0.269386 0 0
59.666840 178.058060 104.660660 26 1
29.117880 217.084300 30.553183 2 1
24.559006 228.383820 -4.317245 3 1
-51.671371 217.526140 32.964832 4 1
16.244537 194.842510 46.824215 2 1
25.161465 188.111020 87.307236 27 1
50.510098 89.367897 15.112896 13 1
35.635113 122.110740 -40.441833 10 1
-62.573666 59.932068 31.238520 6 1
-8.885232 189.844890 0.727693 0 0
31.942993 195.472020 -6.422711 3 1
-51.713318 199.253300 54.732853 4 1
-45.269165 86.618362 69.033676 5 1
-76.360901 153.486630 -46.349464 22 1
-69.392143 140.155120 -64.589851 23 1
-53.855946 90.252266 28.971237 6 1
37.422794 133.378020 -14.141107 11 1
44.287315 189.513340 75.082619 28 1
32.315712 113.124210 -3.969025 15 1
-89.357773 140.895710 -42.509258 22 1
62.694786 178.087510 57.074867 28 1
-97.958015 113.875870 -61.024399 22 1
-74.178146 203.434250 -30.432459 25 1
-26.116034 199.415420 -4.093435 17 1
-3.371263 29.251654 1.438563 0 0
30.237978 194.948590 74.368401 27 1
-126.772710 183.974060 -4.839465 12 1
-75.366615 132.565890 -23.857370 24 1
27.480473 221.371780 -3.602745 3 1
55.582954 189.023790 97.828369 26 1
-64.601242 209.562910 23.162638 4 1
-39.126919 192.404940 -13.943501 17 1
32.450603 98.988235 -11.083623 15 1
-60.735752 87.116089 51.459217 5 1
-48.185596 104.914180 -89.052689 23 1
-33.130867 212.469700 14.348432 21 1
27.324230 185.158420 -11.063548 3 1
-27.131485 87.707581 48.894444 7 1
-41.987335 84.889404 46.985336 7 1
29.697630 202.725370 39.947048 2 1
61.619316 238.786620 9.719361 1 1
-3.039192 39.641197 0.467763 0 0
29.995571 160.385220 -4.983701 3 1
-25.488081 72.025208 56.332428 7 1
12.245773 115.502350 18.406099 0 0
-77.856155 146.065780 -49.774982 22 1
-98.521500 219.835850 -1.846640 12 1
38.775547 176.279460 47.644466 2 1
-70.435341 196.282560 -38.307796 25 1
6.797891 184.650220 76.692039 27 1
30.665525 104.326480 2.199464 14 1
-47.959366 113.705400 -86.709335 23 1
35.797165 203.494000 32.632732 2 1
-3.594043 176.782350 80.517540 27 1
2.541866 178.220830 85.073196 27 1
43.376045 116.470280 5.625647 13 1
27.806847 209.609850 -13.462255 3 1
64.345268 145.146820 120.589840 26 1
-42.724941 203.023830 11.674856 21 1
-3.170632 10.157732 -0.714164 0 0
-35.661335 188.637100 -12.434942 17 1
35.562801 166.835830 -5.348021 3 1
-51.166637 71.837669 68.954857 5 1
36.928738 191.521410 -4.101233 3 1
58.528507 116.917960 -32.437634 9 1
23.823814 171.645800 50.617424 0 0
56.145374 183.096130 72.028404 28 1
-47.301159 86.998260 55.262737 5 1
-25.042648 79.061867 54.054951 7 1
43.735809 227.878110 -2.344929 3 1
-43.104172 134.464870 -74.818726 23 1
31.964746 100.238160 14.674198 14 1
1.603848 25.675816 1.710823 0 0
60.676502 111.222950 -38.529743 9 1
-113.584750 193.926860 -4.708268 12 1
-10.241755 65.670120 0.082786 0 0
2.598670 115.101970 14.205867 0 0
77.049706 151.104400 59.085232 28 1
53.127865 128.099200 -35.604633 9 1
39.155407 107.279870 3.384080 14 1
65.830811 177.020340 43.061344 28 1
43.989521 235.419200 4.621273 3 1
-7.178298 218.677660 -13.895975 0 0
10.552322 184.870240 84.795341 27 1
77.627670 199.040070 15.267368 1 1
1.004684 34.171238 7.269627 0 0
-76.692680 179.134140 -52.013290 25 1
29.191351 195.616270 53.716434 28 1
-56.149384 84.421936 58.121098 5 1
-73.381920 205.894170 -38.354443 25 1
24.092665 163.556560 44.995316 0 0
-62.896282 195.573150 42.338230 4 1
-4.504256 58.301979 5.708399 0 0
-60.297073 77.250023 35.448875 6 1
58.349411 107.714640 -0.107226 11 1
26.739010 188.537340 80.697960 27 1
34.386581 227.941970 -7.618929 3 1
34.574715 167.625310 44.706409 2 1
22.836567 99.886902 -47.907467 10 1
-54.288727 62.258865 66.686493 5 1
-79.273186 185.927280 -47.450340 25 1
58.800377 125.860510 -9.649707 11 1
-59.094009 215.791470 18.138485 4 1
6.100493 170.425260 90.777771 27 1
31.143122 91.908676 13.111505 14 1
-79.431694 198.200290 -34.008350 25 1
-60.112034 142.358890 -27.144009 24 1
58.521729 101.951800 3.243442 11 1
-62.152649 71.040710 35.347225 6 1
-60.374996 148.599370 -34.759369 24 1
-21.935110 208.048680 16.645298 21 1
-69.180038 216.641890 -17.383480 25 1
43.039101 126.139040 -4.042830 11 1
-104.135730 203.042980 -1.163711 12 1
-64.561951 135.147580 -73.388649 23 1
-121.274380 180.855390 3.638322 12 1
68.661316 163.575740 111.009910 26 1
33.914986 240.296070 15.205015 0 0
-46.734615 141.410450 -72.164963 23 1
-59.486401 106.941890 -86.709114 23 1
-62.738163 148.100560 -45.002396 24 1
-101.831550 110.716740 -68.632088 22 1
-78.004028 154.299680 -56.285088 22 1
-58.763340 182.318800 62.994442 4 1
-47.232029 215.000870 6.769797 21 1
-43.729649 182.641720 -15.144047 17 1
-43.810875 126.982510 -81.724739 23 1
-75.318611 123.614540 -22.111626 24 1
-30.166990 185.121440 24.248058 21 1
-120.473640 192.135540 3.875660 12 1
-73.448036 210.082320 -24.638958 25 1
-58.854889 226.665250 7.537984 4 1
24.904545 231.678830 4.798921 0 0
82.426888 142.421970 43.331661 28 1
84.868027 179.503680 17.604820 1 1
41.814629 224.758450 1.713246 3 1
-61.020264 123.871060 -14.680111 24 1
2.243935 163.697400 92.896385 27 1
16.902729 184.493090 90.386688 27 1
-71.039803 118.728560 -18.835197 24 1
48.223320 183.809710 99.485672 26 1
39.446415 236.035220 23.679066 2 1
25.719891 121.561940 -37.006226 10 1
25.792057 211.241410 41.450188 2 1
38.506927 128.827330 -21.601311 11 1
-64.380241 223.064730 -19.463333 25 1
-64.113647 99.109215 -9.200171 24 1
58.332760 121.269080 -36.076500 9 1
-4.836672 101.292630 1.232335 0 0
-4.456916 164.076110 1.431680 0 0
26.013220 235.737320 26.912939 2 1
-43.521873 208.034350 3.634351 21 1
-67.304291 203.849030 -30.699654 25 1
-9.629810 207.679370 -6.202769 0 0
34.907528 85.690720 -10.306779 15 1
-58.886097 205.409590 29.180092 4 1
-4.899799 89.564476 4.904998 0 0
56.029053 175.190350 106.968940 26 1
47.678173 192.860900 81.193031 26 1
-53.993553 179.686290 22.967466 21 1
-6.762516 126.471170 4.567728 0 0
50.031406 125.828060 -25.884573 9 1
-6.572106 80.777420 3.741098 0 0
-54.329803 205.330350 43.091362 4 1
34.195251 186.220570 100.476380 26 1
40.808140 166.075000 118.294570 26 1
51.336456 131.094960 -18.190905 9 1
-88.833549 132.792860 -52.335159 22 1
31.034199 103.721130 -4.159645 15 1
-64.980850 71.341591 30.361835 6 1
37.847420 181.848180 -6.526976 3 1
36.902122 207.691740 40.763527 2 1
59.014057 113.363070 -4.113161 11 1
22.470484 221.591220 31.112682 2 1
-64.642975 187.495650 46.314816 4 1
-3.900160 111.425580 0.851751 0 0
51.213703 177.845960 105.183920 26 1
-92.481003 223.730650 4.008453 12 1
42.041679 132.256760 -19.517365 11 1
-11.218965 99.514076 -1.964339 0 0
-50.924244 208.301560 34.044670 4 1
-24.344431 64.364838 55.080376 7 1
-49.777103 198.911870 16.648817 21 1
-15.830244 68.007172 10.731413 20 1
-64.407173 151.555890 -54.426247 23 1
-15.025851 169.281190 77.622253 27 1
57.494854 240.506530 17.313738 1 1
52.582985 118.925830 0.535987 11 1
-16.832031 68.572037 3.872242 20 1
32.862366 210.557830 -10.680334 3 1
27.506495 234.489940 -7.632237 3 1
33.078175 183.828410 106.161690 26 1
-32.113804 204.150630 27.988087 21 1
-5.054380 152.950740 86.756416 27 1
-55.805439 191.219180 59.007912 4 1
46.127102 219.450380 -2.564945 3 1
-93.205833 145.594240 -61.481838 22 1
83.326607 193.775620 18.908464 1 1
29.011524 125.227630 -31.887100 10 1
-4.500482 217.009000 -3.925675 0 0
54.792068 189.374400 73.200256 28 1
11.889544 195.022980 65.692818 27 1
61.632618 242.690750 20.509434 1 1
48.883270 123.112970 0.789568 11 1
31.705900 172.587020 54.749870 28 1
-108.678250 198.309200 5.828742 12 1
-8.851790 131.175460 88.563217 27 1
-46.098103 213.593960 37.446728 4 1
80.618530 201.721440 6.636467 1 1
42.488548 202.354580 0.672955 3 1
41.718071 179.224000 105.113910 26 1
69.304115 220.202620 5.536397 1 1
34.474262 92.180130 17.725388 14 1
-0.165219 174.043470 86.030449 27 1
-64.289322 225.679470 3.018442 25 1
-71.806297 215.635850 -25.915007 25 1
-93.331177 220.445240 -5.704865 12 1
33.643448 196.031370 69.662224 28 1
0.130854 190.698140 74.233704 27 1
-50.862831 211.428470 16.224113 21 1
32.804810 108.772660 3.814307 14 1
59.336365 183.884110 103.639830 26 1
-3.130375 38.246174 -4.429572 0 0
59.123760 124.322230 -23.672855 9 1
-67.651443 201.697620 27.215704 4 1
-6.942549 92.136948 -2.237232 0 0
-100.168080 125.798540 -63.861778 22 1
45.093426 197.533430 90.406639 26 1
-2.290953 203.033400 -5.749535 0 0
64.236580 180.434460 73.337234 28 1
50.565269 103.747050 -0.295228 13 1
42.917133 134.750700 -25.970116 9 1
-52.292923 139.464510 -25.298204 24 1
-36.581062 196.423250 25.816370 21 1
37.065002 190.220980 77.427223 27 1
52.073338 243.737790 10.948551 1 1
39.699467 196.373840 65.143211 28 1
5.327497 121.451610 12.201550 0 0
16.090071 41.404972 -11.989634 8 1
71.187737 173.262010 47.773605 28 1
22.298170 104.961980 7.777791 14 1
78.394852 149.974270 40.915985 28 1
83.631393 187.563050 14.115966 1 1
-5.742389 167.114910 85.124123 27 1
-34.182354 195.180760 -8.309824 17 1
49.056442 100.559700 8.894292 13 1
-58.766273 228.061810 -8.811585 25 1
29.536104 102.689030 7.039935 14 1
-47.400990 79.263107 67.243088 5 1
64.294891 186.843120 66.580841 28 1
78.040749 146.111950 49.743015 28 1
49.168983 186.074230 66.570877 28 1
36.565552 228.290440 24.188892 2 1
17.186941 190.953550 79.839622 27 1
-72.362999 153.967220 -49.766964 22 1
40.136242 109.625630 -5.609473 15 1
42.475853 227.708040 30.475805 2 1
8.979293 192.612880 75.554314 27 1
27.911243 195.952930 -9.419249 3 1
26.823475 218.668470 -12.556002 3 1
64.830566 227.957600 5.516659 1 1
-62.182102 221.078670 12.276317 4 1
-96.601273 114.685110 -51.941223 22 1
-70.008705 221.375460 -3.007482 25 1
-3.363650 84.539917 -0.006982 0 0
-43.166653 207.502790 -3.059910 17 1
27.791979 192.118230 93.384903 26 1
-85.164627 223.032100 7.215794 12 1
-3.938452 43.200771 4.007204 0 0
-59.911819 194.031020 48.287193 4 1
56.555637 180.089600 63.427509 28 1
-50.809376 200.037450 45.346020 4 1
-65.796127 75.021530 41.850254 6 1
-82.939781 194.560330 -39.326004 25 1
37.869644 232.264160 -4.441308 3 1
82.422417 178.821730 12.783015 1 1
-11.943300 125.379600 86.444077 27 1
-119.717730 184.730620 0.145083 12 1
35.089096 176.269260 110.585230 26 1
-7.156641 172.364550 -2.756587 0 0
-74.143608 218.954800 -20.199522 25 1
-8.868178 135.644010 -0.699564 0 0
-52.506054 127.721640 -80.892662 23 1
-56.927734 68.095306 64.765427 5 1
-9.666863 103.295930 17.093208 16 1
80.969673 136.865770 45.006138 28 1
26.059784 227.014770 6.111676 0 0
58.095787 182.733020 54.812908 28 1
60.197304 183.540360 74.930779 28 1
63.084694 177.465820 67.036278 28 1
-22.550531 71.022720 49.930199 7 1
-62.313004 131.992920 -19.485292 24 1
41.648972 92.746750 -7.471271 15 1
1.250544 2.661239 0.515294 0 0
-67.865547 212.628810 -21.535635 25 1
38.971249 187.456940 102.083200 26 1
-68.114189 194.029460 -43.144093 25 1
-30.982147 177.399690 18.676689 21 1
-41.407455 198.835890 22.581623 21 1
67.755577 179.916520 61.050621 28 1
34.251968 229.600590 29.257654 2 1
-49.065422 224.000380 28.522667 4 1
-55.688583 145.003280 -67.856201 23 1
75.414246 160.571230 62.539028 28 1
-7.441955 208.175050 -0.613056 0 0
62.916313 235.616260 24.611708 1 1
-111.254720 200.092390 10.905454 12 1
46.829803 132.320370 -22.075735 9 1
62.439644 105.923570 -36.391838 9 1
-63.882908 140.111370 -65.077972 23 1
-2.060131 94.330887 4.728393 0 0
71.368591 165.110860 60.776627 28 1
36.128345 94.359535 -6.741892 15 1
-54.445812 198.423220 42.223930 4 1
-44.519447 118.223340 -81.784286 23 1
15.298512 94.464996 -50.879768 10 1
-83.582962 188.786060 -42.762466 25 1
42.154961 204.679640 -4.105328 3 1
-52.219357 119.452070 -81.240372 23 1
-38.175816 199.367430 -0.744965 17 1
-90.534897 127.502380 -51.446995 22 1
-53.412159 183.198210 70.465775 4 1
13.760551 112.907990 -44.639282 10 1
45.721203 193.688540 72.884109 28 1
-59.725712 211.008680 22.510180 4 1
-59.465408 78.470543 56.366066 5 1
78.270836 156.808580 42.599720 28 1
-78.623627 210.902540 -31.184881 25 1
-104.335690 201.630780 4.756210 12 1
-98.262955 215.520480 -6.784912 12 1
11.982270 190.612050 68.618965 27 1
0.500053 170.205800 0.912201 0 0
-71.272842 152.186580 -43.236530 24 1
24.765398 195.583980 56.243126 2 1
-59.733833 153.501020 -52.267624 23 1
18.190065 187.923770 86.285263 27 1
15.827739 206.966370 2.621974 0 0
-56.284195 217.803210 26.263838 4 1
-60.099998 85.168098 38.227856 6 1
-10.136388 115.097990 0.292119 0 0
40.623390 213.522570 -6.602395 3 1
31.659830 194.389470 80.705711 27 1
-101.102010 100.926570 -67.203514 22 1
-53.997929 89.994560 35.999809 6 1
-52.865036 88.113945 57.049107 5 1
-116.072940 198.865040 9.785177 12 1
-57.185432 79.730644 43.795643 6 1
-36.685036 94.747177 44.588509 7 1
-32.029984 81.506477 49.504093 7 1
-52.465008 188.718830 17.527706 21 1
-100.520290 221.078840 9.460026 12 1
-31.622454 201.260040 12.706012 21 1
-35.080936 210.351780 -3.844344 17 1
-29.036127 210.900510 -1.095243 17 1
-84.243820 149.248950 -60.302708 22 1
-63.139072 80.346588 47.299553 6 1
38.896774 187.438310 95.433891 26 1
-65.219040 146.853520 -52.038780 24 1
-92.752693 128.080780 -46.879719 22 1
37.217773 128.768800 -10.955868 11 1
1.078157 40.115246 -12.564474 8 1
79.933609 202.437470 19.996754 1 1
-70.544777 145.357030 -33.037930 24 1
-19.141903 151.039290 80.119026 27 1
1.156994 33.906227 -3.812002 0 0
-25.439404 174.268840 19.309929 21 1
-74.864166 185.992070 -52.482937 25 1
-42.597206 92.920189 51.310627 7 1
27.239187 182.871690 60.789722 27 1
-59.274689 87.406921 44.784184 6 1
64.705406 177.142300 49.562237 28 1
37.209797 193.012860 94.483978 26 1
73.210609 215.740770 4.428855 1 1
76.895752 208.808430 4.912589 1 1
41.765102 188.570790 52.683830 28 1
55.229164 118.593500 -7.594964 11 1
-68.926247 138.806490 -27.056114 24 1
-1.318596 118.360140 9.031282 0 0
50.482647 191.677960 46.810356 28 1
45.226479 126.316850 0.907307 11 1
19.022118 186.812740 50.798996 2 1
-0.809402 108.107800 2.895832 0 0
-64.999580 132.709350 -79.261276 23 1
71.195267 215.313920 13.219034 1 1
30.455303 232.565720 12.487712 0 0
-33.812302 74.958511 57.018188 7 1
-16.840450 135.794020 84.410660 27 1
-63.383419 219.468550 -26.981842 25 1
-56.710365 215.474660 -30.971231 25 1
-62.117470 145.944530 -60.063419 23 1
-5.509196 147.084580 88.706711 27 1
-76.428108 222.856220 -4.742143 25 1
31.190495 120.541930 -2.049997 14 1
-75.065872 110.458920 -15.851717 24 1
53.963135 87.158401 10.565313 13 1
20.194412 189.728590 72.735703 27 1
-5.426333 193.925130 -4.331138 0 0
28.081247 95.586288 12.366110 14 1
58.907288 243.518740 10.121002 1 1
-97.564362 134.400330 -62.480789 22 1
-39.316452 90.345451 42.547005 7 1
-111.798410 208.133480 -8.012373 12 1
66.557404 181.601170 48.895020 28 1
-22.209272 67.552994 6.071094 18 1
-79.000824 211.568480 -25.315428 25 1
-79.211578 197.394490 -41.489468 25 1
75.600067 213.999360 16.798199 1 1
-115.018230 200.444020 2.836455 12 1
27.139254 113.238920 -42.375633 10 1
5.434784 195.756060 69.020950 27 1
66.929749 145.981990 116.577920 26 1
-47.000462 92.681686 55.508255 5 1
-8.729999 213.105390 -8.341727 0 0
-14.732376 107.136360 15.416258 16 1
-13.123934 141.846160 3.086603 0 0
-106.616470 213.864040 5.283740 12 1
19.427401 225.381160 31.734600 2 1
-44.355530 211.927950 -0.840861 21 1
43.065800 190.564590 81.501244 26 1
-54.577538 72.808823 65.410683 5 1
-91.153099 226.198610 8.383645 12 1
-9.316826 103.561160 -0.198538 0 0
59.874161 243.935810 5.087662 1 1
-27.627148 191.605670 26.470554 21 1
68.424271 130.378140 123.539450 26 1
-98.260284 102.738860 -58.451878 22 1
45.031906 239.943190 13.687533 0 0
-57.601059 132.508640 -74.854958 23 1
6.025247 131.658160 17.503517 0 0
13.016650 179.332950 93.988159 27 1
-22.161127 184.312680 25.929325 21 1
15.451974 37.322659 -19.410168 8 1
-74.561470 152.295680 -59.093407 22 1
57.629871 81.801018 7.598996 13 1
-2.567707 62.612652 4.883267 0 0
-2.510569 208.694460 -7.472933 0 0
50.004223 113.039080 -2.869325 11 1
-42.764339 191.005510 27.959509 21 1
-45.812477 206.785310 24.026661 21 1
21.248356 216.879230 8.858084 0 0
-54.365025 148.946200 -39.197601 24 1
-85.215508 149.098190 -43.278389 22 1
-2.379384 45.825573 -17.224737 8 1
-58.294735 138.183180 -70.376511 23 1
18.174719 119.400990 -39.395069 10 1
45.945744 188.350980 100.050240 26 1
-10.985739 162.844360 82.582573 27 1
24.938448 211.453000 35.531631 2 1
-100.262410 218.183000 -11.251387 12 1
66.328728 136.782260 122.818150 26 1
-50.012360 86.590485 62.029499 5 1
-58.724133 221.295990 -28.511385 25 1
-89.596840 223.944050 -3.984577 12 1
41.190884 195.515590 74.326958 28 1
-56.889210 83.010201 29.722628 6 1
-59.128410 198.967210 43.726978 4 1
-71.216293 213.556410 -30.165983 25 1
-48.015163 194.575100 62.173435 4 1
50.375427 92.788605 11.762362 13 1
-6.693362 151.130100 2.396768 0 0
-3.089361 160.884290 87.026588 27 1
37.422989 215.294750 37.200634 2 1
-3.023654 19.788977 1.378975 0 0
39.682171 175.290130 112.580410 26 1
1.543967 119.083050 -0.286984 0 0
73.051620 150.917210 115.029850 26 1
-75.201279 220.441420 -11.043544 25 1
-79.217438 148.004700 -54.889923 22 1
-4.566042 109.421770 5.884545 0 0
-29.177921 167.755520 19.416725 21 1
-44.271004 212.037370 49.599178 4 1
-98.840179 208.808870 -0.197973 12 1
35.296745 189.624690 69.877296 27 1
-0.673903 72.305466 3.944373 0 0
31.572763 190.783420 100.584480 26 1
39.526558 101.024830 -10.167210 15 1
-55.614006 177.168470 77.720360 4 1
77.233917 208.714890 15.181511 1 1
3.691588 28.072540 -1.889531 0 0
-99.405655 106.598790 -61.540161 22 1
22.143236 205.216610 7.709706 0 0
-46.182835 205.082610 48.197590 4 1
-6.430234 71.385002 3.798826 0 0
-62.430405 56.797195 34.784920 6 1
74.296600 162.986830 40.985584 28 1
-63.408691 77.321091 29.165981 6 1
-50.841484 149.047040 -64.548790 23 1
42.590305 114.609700 9.902692 13 1
-33.441544 81.526436 58.837250 7 1
-61.740921 138.473970 -24.378357 24 1
69.987389 167.709520 54.799530 28 1
36.746231 108.591610 7.450856 14 1
52.397270 154.549730 119.211300 26 1
-12.144081 68.609810 3.293231 0 0
-37.588295 202.709030 -8.755753 17 1
44.023140 231.040710 22.375860 2 1
77.168427 156.797330 47.850403 28 1
-15.829046 155.336110 79.223160 27 1
45.889290 222.188220 31.993124 2 1
-29.717243 182.221480 17.508007 21 1
-20.124989 74.851898 48.596138 7 1
40.931408 195.160050 81.799667 26 1
60.507645 148.798780 120.372600 26 1
22.627457 226.846890 -10.418896 3 1
54.029701 96.063011 11.953721 13 1
26.176445 238.762920 20.168768 2 1
-43.305023 202.223190 -1.671335 17 1
28.319666 230.078930 22.801327 2 1
-124.065320 186.126240 6.817756 12 1
32.878345 213.087220 -0.924130 3 1
9.103966 38.332085 -14.399167 8 1
34.948708 197.844070 46.853615 2 1
-87.369194 141.851520 -38.352612 22 1
73.368637 162.581910 48.517529 28 1
-127.763860 173.520480 3.886986 12 1
19.632666 153.590940 34.514332 0 0
33.489574 187.913890 -11.120186 3 1
18.006613 196.331300 72.893288 27 1
69.744003 176.157700 51.935390 28 1
46.043400 229.613360 26.491632 2 1
49.567127 187.981000 57.932575 28 1
47.743176 173.529420 111.829380 26 1
-123.666560 189.242260 -5.232354 12 1
-23.286188 200.364070 17.377174 21 1
61.729687 95.191254 0.925041 11 1
-16.802168 149.934680 -0.760146 0 0
48.625835 109.020540 12.513882 13 1
23.181412 112.445820 11.041198 14 1
26.207602 191.510470 -12.114749 3 1
40.047924 87.366570 -5.250535 14 1
-59.950451 220.117900 -19.349108 25 1
42.039238 204.121230 40.179825 2 1
36.462246 238.479600 10.106182 0 0
-91.912399 121.744280 -48.347702 22 1
-55.574257 90.738762 52.008797 5 1
23.748734 128.708710 -31.893946 10 1
22.561804 201.716420 -16.410757 3 1
35.323177 105.730260 15.105866 14 1
-56.813522 117.105530 -11.629380 24 1
-54.003674 199.837980 50.427288 4 1
-26.870470 72.761665 51.309391 7 1
-92.993927 128.706240 -60.431965 22 1
-57.104862 206.141480 11.613008 21 1
45.290848 130.251660 -12.463487 11 1
-48.156773 129.811310 -79.884636 23 1
-100.927600 119.754140 -67.561195 22 1
-63.058071 221.043550 -12.713317 25 1
-73.255913 154.638340 -54.298347 22 1
37.935204 99.842255 -2.139400 14 1
33.301743 179.590900 -10.580514 3 1
-103.344470 205.819520 6.523973 12 1
54.418171 126.637280 -7.659895 11 1
12.966049 191.267670 77.909111 27 1
-10.462120 170.919510 77.162819 27 1
-54.939228 210.663130 11.573499 21 1
48.124355 187.246730 96.074875 26 1
22.762209 194.767170 -16.306679 3 1
32.503979 121.122890 3.313345 14 1
-95.625343 214.595140 6.247494 12 1
-42.877319 207.620330 50.308830 4 1
70.062050 222.955120 1.760504 1 1
-50.686123 140.548630 -69.042732 23 1
-51.035202 196.289980 12.257654 21 1
76.027977 204.425020 12.287435 1 1
-41.975361 193.933790 2.320819 0 0
64.953728 99.276917 -30.221161 9 1
-102.066120 93.362846 -63.639160 22 1
48.296825 121.725630 -7.110484 11 1
35.025566 173.533740 -5.276134 3 1
81.671967 184.868590 10.885054 1 1
-83.077583 153.656010 -59.264603 22 1
-52.901249 180.395650 75.782951 4 1
24.309084 231.649690 25.009443 2 1
-35.367077 84.213570 45.508186 7 1
33.015572 235.623950 -3.153933 3 1
-66.268440 199.745730 -46.843559 25 1
-45.155186 87.554214 62.289112 5 1
-95.292160 143.546800 -66.560921 22 1
-81.977570 150.546100 -51.692490 22 1
60.735241 151.928860 116.559720 26 1
82.936943 133.580090 42.073624 28 1
36.091763 197.947680 -2.710258 3 1
35.344753 233.758900 17.885096 2 1
-106.857510 213.116850 -9.420599 12 1
36.040924 199.340560 -8.727357 3 1
-79.059242 149.986160 -38.408772 22 1
-74.840164 156.617650 -42.061958 22 1
58.702530 161.974000 112.527540 26 1
13.092938 198.120410 3.222337 0 0
64.257622 171.249760 110.069610 26 1
-57.145855 150.088180 -49.798843 24 1
-46.943954 94.749969 39.603924 6 1
-66.964264 108.478550 -11.137551 24 1
4.945727 33.668472 0.622285 0 0
-107.972470 210.527770 12.937702 12 1
-61.159817 190.883730 44.129780 4 1
-53.300629 84.225311 36.750813 6 1
-49.841164 203.001190 52.829819 4 1
-2.395518 32.768345 4.506498 0 0
-52.456696 112.819400 -86.338776 23 1
31.069889 218.614820 -10.461574 3 1
64.594200 114.665430 -25.905212 9 1
19.790733 185.827940 55.278214 2 1
-56.223194 191.322710 50.502468 4 1
69.726585 227.183720 18.728889 1 1
9.880475 183.330930 1.908343 0 0
-105.334100 208.117400 -7.335274 12 1
-31.026825 199.741810 -11.486112 17 1
-6.214265 66.251640 2.914632 0 0
5.501111 184.986050 81.080826 27 1
57.332623 106.324090 -4.720650 11 1
-26.495295 196.982940 15.903292 21 1
-80.032684 152.500340 -43.784431 22 1
40.833267 130.938080 -28.136360 11 1
47.693188 130.112520 -31.163137 9 1
-24.866491 208.173860 25.102985 21 1
-10.977249 60.786190 2.977595 0 0
26.603336 122.401440 -41.437431 10 1
36.835114 224.640660 27.058538 2 1
-95.565346 127.322620 -54.165974 22 1
24.517040 199.662170 69.259735 27 1
-11.499761 69.473228 10.972940 20 1
58.667542 99.828049 -0.864919 11 1
-60.578087 189.806760 52.746094 4 1
43.322472 196.643540 1.201319 3 1
-56.771965 223.835950 -21.563206 25 1
81.776810 187.264140 18.284962 1 1
-58.373501 179.233410 69.166832 4 1
-43.696869 85.274643 42.650143 7 1
31.109024 173.724590 -12.192923 3 1
24.091173 187.460750 62.423828 27 1
46.662479 209.550630 -1.200301 3 1
-66.542999 147.295790 -64.858665 23 1
-61.643524 151.978740 -42.821133 24 1
61.760712 114.512130 -34.671680 9 1
26.181473 228.397670 10.968650 0 0
-38.068462 196.835330 -13.582582 17 1
-35.140774 194.597960 -17.506617 17 1
25.364586 206.240890 -10.844568 3 1
70.114105 167.552540 45.983784 28 1
-32.974766 209.215520 22.558132 21 1
-52.870411 194.950870 58.634781 4 1
22.183044 185.999680 47.614655 2 1
62.661968 160.493530 114.592000 26 1
-11.719520 144.124130 84.642021 27 1
4.443584 178.227400 80.209869 27 1
-63.994526 152.338610 -47.257710 24 1
-15.336999 194.908550 0.542143 0 0
28.684731 129.561970 -30.534771 10 1
41.393009 191.814060 -3.263477 3 1
35.845875 222.481780 33.623909 2 1
-69.846718 208.661180 -37.026154 25 1
-27.601891 171.788300 23.310446 21 1
19.452192 212.146700 6.772349 0 0
-58.834415 214.061100 26.829742 4 1
-60.967815 71.780510 58.707237 5 1
-20.987511 78.650444 51.220081 7 1
8.844942 196.019390 72.510269 27 1
-58.522736 144.733020 -63.074612 23 1
-86.969208 135.125950 -47.624981 22 1
25.792711 118.672660 5.849638 14 1
-55.895466 220.100650 17.226868 4 1
11.461878 180.434220 85.112053 27 1
-2.689900 96.671921 0.892065 0 0
-63.845718 71.543320 39.656509 6 1
29.649803 171.346050 50.771637 2 1
18.686275 107.908600 -47.050304 10 1
2.507886 114.862820 6.050926 0 0
0.537060 113.834260 10.299448 0 0
-65.515190 66.414734 28.559736 6 1
-45.015598 224.581250 31.265701 4 1
-118.698910 195.490400 -6.015194 12 1
35.937443 126.936050 -34.982548 10 1
-20.030224 82.347893 46.649601 7 1
2.984662 160.915310 96.793480 27 1
34.722019 130.240280 -30.939884 10 1
-70.638466 221.625610 1.960290 25 1
-93.930779 213.814070 1.057472 12 1
-68.277939 220.986360 -18.526501 25 1
-125.616180 179.648010 2.300962 12 1
59.090054 187.272110 72.649673 28 1
30.158192 236.629640 23.260178 2 1
53.612251 127.809650 -28.037172 9 1
-59.189571 196.445430 39.921909 4 1
-1.262652 211.521300 -2.702766 0 0
-63.149296 206.642490 -42.358948 25 1
52.234329 168.823170 113.842330 26 1
65.138435 99.437416 -37.663670 9 1
26.887678 192.401630 83.086235 27 1
-62.563503 217.180330 15.562167 4 1
30.951069 204.886750 -4.468641 3 1
-0.184057 154.924070 96.280632 27 1
63.495354 177.577580 106.978610 26 1
-39.593838 215.810320 8.954749 21 1
-35.107536 176.522090 2.779840 0 0
-54.688480 225.895200 14.224533 4 1
-90.230034 140.370470 -46.920734 22 1
-4.841473 148.034580 93.730713 27 1
-51.096584 205.061750 37.456470 4 1
-30.733686 86.132195 53.050480 7 1
-11.587882 154.597470 80.913620 27 1
-73.537399 186.495270 -46.171829 25 1
-52.655392 220.801990 21.481091 4 1
-70.606293 144.535160 -62.946445 23 1
-56.664505 141.021760 -24.441399 24 1
-109.941720 204.199870 12.143241 12 1
34.776112 188.077030 85.503128 26 1
24.658112 124.167330 -32.107639 10 1
43.406982 195.651780 50.141853 28 1
-40.080559 199.704220 13.122109 21 1
-73.588768 138.930920 -27.990458 24 1
69.243248 225.433270 12.968681 1 1
21.564463 188.348710 77.839638 27 1
-30.697519 90.224022 47.069035 7 1
27.927794 237.540950 -3.941923 3 1
22.857979 118.990870 -43.152321 10 1
30.579016 197.002060 89.201080 26 1
-55.381725 142.639560 -30.308266 24 1
-47.157787 205.485370 4.754396 21 1
-5.327271 50.878895 4.636633 0 0
62.274303 141.175550 120.709100 26 1
57.329853 189.779540 64.007423 28 1
26.130999 167.768540 50.621006 0 0
-34.163269 214.530610 5.594823 21 1
46.855000 105.839320 7.701719 13 1
68.743996 173.372250 69.026665 28 1
34.325882 117.110010 -3.417467 15 1
58.544754 91.589745 1.895320 11 1
-94.858536 120.153660 -59.117680 22 1
52.198555 192.932530 56.000107 28 1
28.263550 199.908220 -14.145975 3 1
-46.692276 216.337460 33.637070 4 1
37.022583 185.212830 44.648628 2 1
-56.996437 173.178710 19.948109 21 1
-56.375713 187.671450 21.730204 21 1
22.157907 109.012480 -44.200100 10 1
-0.040785 170.787600 82.969101 27 1
-36.870956 82.057823 54.424583 7 1
64.624458 92.686577 -39.399780 9 1
-57.877743 200.799530 35.644192 4 1
-15.158445 107.057790 8.558808 16 1
75.521965 125.481990 120.359280 26 1
-63.547367 115.719130 -14.821153 24 1
-118.759890 188.375400 8.947449 12 1
-43.525631 93.080322 46.895027 7 1
-26.339409 83.762314 46.978943 7 1
-86.268356 140.578980 -53.649193 22 1
69.336304 219.074890 14.872376 1 1
-92.745934 114.938230 -49.195992 22 1
-35.132504 206.433110 8.043154 21 1
35.860191 201.295520 60.875771 28 1
11.575522 33.945583 -23.169640 8 1
-113.233350 206.744520 9.623116 12 1
-40.827309 207.068160 26.344509 21 1
-101.193990 216.481170 11.966668 12 1
15.979532 200.822650 45.379395 2 1
-74.634163 221.166230 4.016511 25 1
38.911648 116.306640 6.128782 14 1
-93.838730 134.884570 -53.776329 22 1
-17.063839 141.774400 81.279434 27 1
-58.581161 228.397830 -3.788392 25 1
0.028138 46.523212 1.469873 0 0
66.912392 180.001680 69.437775 28 1
37.930080 220.916430 29.790073 2 1
75.126320 143.667310 117.768360 26 1
-16.341265 130.769200 83.370575 27 1
-66.015495 58.850712 39.651295 6 1
69.120163 150.060420 117.006090 26 1
14.656454 209.383770 44.300896 2 1
-54.426731 135.070430 -19.096380 24 1
-60.513496 215.488160 22.475571 4 1
53.199928 191.232530 67.148506 28 1
-78.295265 143.242170 -42.704159 24 1
58.175861 155.725480 118.375130 26 1
21.697756 227.032140 5.135249 0 0
23.194641 185.814870 84.062889 27 1
-68.396286 116.381160 -14.839665 24 1
-63.866596 225.574830 -5.427663 25 1
-13.375880 148.578840 84.866646 27 1
-9.183865 102.466270 -4.615741 0 0
-5.736186 140.074720 89.935875 27 1
67.026436 173.297760 49.295483 28 1
53.320122 192.965740 97.280914 26 1
-55.543015 186.983110 65.925728 4 1
54.436302 124.626390 -21.742035 9 1
18.083609 99.611420 -48.141064 10 1
-61.515366 225.392350 -13.730610 25 1
35.537991 177.531130 44.893536 2 1
2.271793 182.661730 76.598778 27 1
-110.611350 203.767090 -9.130070 12 1
0.164115 178.843980 78.080254 27 1
38.199188 196.283860 69.711464 28 1
1.438185 172.367650 89.795937 27 1
-38.881714 207.601760 -4.344787 17 1
48.328831 161.558930 119.168140 26 1
-78.713982 190.697600 -40.153637 25 1
-57.263840 130.892350 -79.216225 23 1
18.972290 204.027250 4.366748 0 0
-87.383499 133.539310 -43.522858 22 1
25.099430 210.820540 12.035785 0 0
-54.360153 193.872510 21.738382 21 1
33.363411 193.934810 43.527077 2 1
22.188627 206.951520 40.002144 2 1
-54.757137 204.226150 7.244476 21 1
-46.054157 137.861790 -74.697189 23 1
-130.415990 169.855190 2.726668 12 1
40.031422 189.836000 45.794594 2 1
22.843559 192.353290 79.221184 27 1
-5.193507 157.598830 84.974533 27 1
20.785101 222.212160 -9.792749 3 1
30.130096 234.768630 7.671637 0 0
-67.336578 133.368670 -22.301128 24 1
-95.519051 222.508560 -10.110154 12 1
-21.110912 203.210040 8.796396 21 1
72.973465 162.532760 52.903252 28 1
-52.172752 153.600200 -57.859131 23 1
-111.508380 194.985990 4.315805 12 1
32.143581 196.108150 63.527523 28 1
-16.157391 126.150610 85.188522 27 1
47.409721 104.052090 16.270281 13 1
71.258781 167.884900 41.230560 28 1
22.410791 232.342850 30.708843 2 1
-56.447678 193.250210 55.152687 4 1
7.627110 178.755750 90.240875 27 1
3.087880 191.825360 68.656502 27 1
53.093498 123.733450 -36.126087 9 1
-98.606560 130.130160 -62.476360 22 1
36.728752 208.703870 1.150777 3 1
4.693896 37.160908 -6.131121 8 1
33.678493 236.630520 1.957173 3 1
-5.560679 212.312270 -0.923505 0 0
-66.376419 205.874770 -26.914158 25 1
37.347672 219.049900 3.754335 3 1
34.508564 195.818450 55.996883 28 1
-93.761597 219.572220 8.734305 12 1
-26.733892 205.405090 10.540212 21 1
43.555878 197.581020 57.422451 28 1
-65.647659 194.177980 -46.931824 25 1
80.374954 193.464050 9.384915 1 1
-82.861160 202.704680 -34.417698 25 1
-34.790024 201.623630 1.348141 21 1
21.347237 181.586780 56.109295 2 1
-8.215796 111.166600 0.074157 0 0
42.114861 122.153840 7.844386 13 1
-1.443376 0.606045 -2.260150 0 0
-21.362143 154.485340 -0.135421 0 0
58.887287 86.029785 6.403568 13 1
-73.254395 225.148410 -2.787018 25 1
-25.597364 184.323590 18.434364 21 1
-45.561100 210.403110 41.929482 4 1
9.410238 191.003370 1.028177 0 0
27.983938 189.997120 71.756042 27 1
26.267380 106.611180 12.717782 14 1
-39.964783 188.506590 -15.765486 17 1
31.840302 191.918790 -12.565477 3 1
15.701208 180.356060 89.694084 27 1
-53.770504 82.574448 50.898315 5 1
-36.299145 89.238762 56.876614 7 1
-42.069500 193.261660 -9.951675 17 1
54.882721 193.109850 48.086357 28 1
71.755623 137.111540 121.538810 26 1
-125.055020 186.453740 -1.563660 12 1
-38.185310 214.365810 13.600996 21 1
44.270454 211.709430 36.201359 2 1
54.309990 92.752220 8.303552 13 1
-57.184696 194.073240 15.817097 21 1
-70.277031 151.097520 -58.517273 23 1
-51.571678 195.423950 50.737431 4 1
-41.219242 212.960540 19.560934 21 1
64.090385 185.423610 45.683659 28 1
67.048790 181.796540 44.339138 28 1
35.718906 201.737810 39.478992 2 1
8.901314 136.429870 20.745682 0 0
-60.552410 218.404360 4.530390 21 1
-52.683739 80.175400 59.736855 5 1
-13.536154 102.393080 0.718057 0 0
30.990129 208.225010 32.584248 2 1
