-46.084484 130.305540 -20.605507 6 1
-36.096855 98.186462 -29.054365 2 1
8.000605 19.564405 -2.937973 8 1
-14.232691 95.033340 42.033932 16 1
-15.227223 103.590410 37.022366 16 1
23.057755 108.662910 9.570331 13 1
45.660259 100.322960 17.654226 14 1
-59.567600 101.822990 -33.734390 6 1
29.828623 89.205078 12.601798 13 1
-71.761482 77.809036 -45.639496 6 1
-83.413521 53.999763 -10.941379 9 1
1.697597 90.772408 3.332721 0 0
9.131386 123.813900 -5.919615 12 1
-53.546387 100.086670 3.614549 18 1
14.967920 96.455551 35.665310 15 1
-10.296051 121.214650 2.933136 1 1
46.577324 78.376175 19.882034 14 1
-5.138662 122.175510 -6.484236 11 1
13.889222 113.106340 14.884878 13 1
-59.919044 43.916615 -0.751004 5 1
-65.950989 65.731735 -24.690069 9 1
-33.989639 106.237740 -9.732643 17 1
46.308075 96.585350 -2.948909 3 1
17.983500 90.118172 34.493500 15 1
4.130972 112.384030 -1.674010 12 1
-4.730871 18.714876 11.293672 10 1
-36.508068 79.346703 -34.036533 2 1
0.533683 54.945877 -1.105002 0 0
9.053710 105.225830 37.534698 15 1
4.355072 103.887550 44.947186 15 1
-2.511769 105.730100 -0.929039 0 0
-0.633629 104.467760 16.119566 0 0
-71.696869 80.870277 -31.027145 6 1
-64.652603 107.112730 -21.434650 6 1
-35.072243 90.084892 -6.907610 17 1
43.154831 68.514091 25.908665 14 1
-10.823208 110.009020 25.391792 16 1
23.684927 110.425020 22.736118 13 1
-62.845711 99.561783 -43.527588 6 1
-48.265263 127.123540 -34.189621 6 1
71.597595 84.641273 17.315504 4 1
-25.887520 79.184914 -41.400772 2 1
-51.881012 97.274597 -7.596858 18 1
-19.034418 102.681430 27.406858 16 1
-57.994030 112.414810 -33.242325 6 1
-30.307514 117.186730 -22.788418 2 1
17.815914 16.252909 -2.390942 8 1
18.837202 74.142014 4.252083 0 0
-12.971958 90.634384 -7.889580 0 0
25.276091 97.274467 20.237499 13 1
-5.755840 114.058140 27.365868 16 1
12.104774 103.879060 42.008190 15 1
-63.060921 48.533669 -42.107430 7 1
-0.226029 10.039031 1.762131 0 0
-19.168777 87.593201 39.595585 16 1
-56.334942 45.800171 -41.611885 7 1
40.144135 103.296650 -5.483554 3 1
38.072853 103.468400 6.953802 13 1
-80.165344 43.900097 -36.974583 9 1
39.703266 100.460010 25.396658 14 1
-81.898148 49.231384 -22.165577 9 1
-54.652283 114.608020 -24.559649 6 1
-2.511624 10.725756 25.068598 10 1
-56.749584 95.700096 -3.041829 18 1
62.759872 97.844025 8.840216 4 1
72.119553 88.767586 21.107201 4 1
15.398384 17.781595 -10.714550 8 1
-61.914295 49.636257 -5.056849 5 1
-20.273972 122.221650 -20.869423 17 1
0.258595 103.149280 39.779736 16 1
-55.559277 122.627840 -21.134083 6 1
39.010761 88.408173 27.274158 14 1
-3.750946 95.196938 32.095123 16 1
-6.459244 74.172775 0.577873 0 0
-51.539982 98.448311 8.461295 18 1
-8.232464 117.495610 -0.540842 1 1
-72.193062 75.503006 -38.017773 6 1
-8.861867 96.579468 43.660042 16 1
11.139729 110.463950 39.159103 15 1
14.537168 68.856750 1.742246 0 0
-4.792229 130.028810 -3.342179 11 1
49.121040 75.159531 25.381914 14 1
-69.855240 87.718658 -31.917559 6 1
-0.180980 113.306380 37.173340 16 1
-74.242691 55.918339 -35.460213 9 1
-85.803314 41.482029 -29.640211 9 1
-50.907372 123.877710 -27.153267 6 1
-40.924522 114.171100 4.284972 18 1
8.742507 95.802460 42.256866 15 1
-8.282581 127.892810 0.759630 1 1
68.776741 83.278313 -0.937144 4 1
-66.971786 91.887688 -37.922977 6 1
-6.195151 53.350185 0.804360 0 0
-54.515289 80.981186 0.384719 18 1
38.317131 85.025551 -21.580463 3 1
-47.445202 58.855640 -34.666016 7 1
28.581060 89.997948 28.598320 13 1
-9.069046 91.258453 40.272388 16 1
-51.373894 89.497765 4.007340 18 1
-32.389576 126.787100 -2.877678 17 1
-36.363037 119.202150 8.851091 18 1
12.326516 115.034230 34.355328 15 1
-0.592156 15.342126 19.587921 10 1
-24.095552 117.864230 -12.031665 17 1
-35.165829 115.301220 -21.437387 2 1
-56.399902 107.526070 -34.564987 6 1
-63.203838 95.783485 -34.565811 6 1
-64.533890 94.690742 -45.043510 6 1
-30.600075 123.726710 -20.178713 2 1
66.637825 93.656754 14.244407 4 1
60.716827 101.959560 17.421038 4 1
-57.358051 106.988640 -49.961502 6 1
36.501842 99.197922 -14.247302 3 1
11.361198 88.482269 42.483250 15 1
-78.002609 56.163895 -28.115227 9 1
65.449493 89.104088 5.590641 4 1
72.316605 77.723511 9.539726 4 1
31.622274 91.583130 23.107359 13 1
-1.671416 98.513733 -1.130670 0 0
-38.281445 125.374260 -9.450986 18 1
-4.885267 15.954371 16.222792 10 1
44.591782 102.071980 -2.335144 3 1
-44.952812 101.267040 16.197950 18 1
-11.316867 37.238472 -2.753882 0 0
-47.051517 110.346260 -10.659621 18 1
-4.358178 32.581913 0.317064 0 0
70.596046 78.422035 1.520846 4 1
13.003058 106.516060 28.727453 13 1
-3.297381 18.290960 4.285603 0 0
-10.707019 82.253571 -1.866625 0 0
48.402786 71.334641 19.169443 14 1
-55.269871 117.623310 -19.600210 6 1
19.754854 107.772730 35.305443 15 1
-35.758690 124.432450 6.543845 18 1
-65.075119 87.029297 -50.477413 6 1
-17.301857 121.311650 -29.416616 2 1
23.702957 112.411970 13.188603 13 1
0.487529 88.169395 -1.302293 0 0
-40.583641 120.767130 0.373020 18 1
29.161076 96.511314 2.600060 13 1
51.702118 99.154984 2.782839 3 1
-51.019386 104.826350 4.659419 18 1
-26.314875 105.595200 -30.723845 2 1
10.129148 118.738780 18.686838 13 1
-70.871933 53.457127 -8.172050 5 1
-22.825687 105.329620 -36.040428 2 1
-83.093529 47.881966 -28.982868 9 1
-43.761742 110.020380 -0.818924 18 1
67.557777 97.224556 23.952560 4 1
7.367955 101.655030 41.348991 15 1
-37.254810 127.564290 -19.000517 2 1
49.727695 97.283615 16.110500 14 1
24.186958 82.544380 33.728939 15 1
45.561962 79.434807 -21.829170 3 1
49.050369 80.838158 15.760928 14 1
-17.109890 83.223885 48.183174 16 1
4.304455 104.695030 17.586636 0 0
49.537258 95.908348 -6.906777 3 1
-67.035660 95.404503 -28.967356 6 1
-5.224821 64.571678 -2.856082 0 0
18.421217 100.007720 30.076479 15 1
37.361797 90.575653 11.972550 14 1
34.000587 106.058300 8.901303 13 1
-36.092594 115.801630 2.013310 17 1
-66.835396 59.799366 -12.403899 5 1
-3.116011 83.703751 5.767689 0 0
49.041569 98.117737 8.599617 14 1
25.568115 102.480830 1.136273 13 1
-20.730890 95.196259 32.940269 16 1
-26.434483 112.878640 -14.750906 17 1
-46.202473 118.700570 -8.220072 18 1
-62.682079 93.709587 -54.280327 6 1
19.061970 81.320244 39.364117 15 1
47.135460 91.007866 -12.385333 3 1
-20.377138 112.443370 -34.251629 2 1
-54.686821 109.625240 -42.083889 6 1
-26.660088 46.559788 -9.608954 0 0
26.553698 86.549660 37.991322 15 1
-33.311741 111.387080 -2.775809 17 1
-43.816643 123.366720 -14.724837 18 1
-49.726471 95.558220 2.819881 18 1
20.633665 81.212387 44.793022 15 1
-47.515182 110.347730 5.615630 18 1
-7.944771 103.331890 40.726257 16 1
-60.666027 58.039341 -30.242373 7 1
-6.546458 59.969601 1.660787 0 0
-53.368599 54.310837 -38.823196 7 1
-58.430012 113.787500 -18.562088 6 1
-59.128273 114.165370 -27.090538 6 1
-18.987995 41.473000 -7.147739 0 0
-11.243499 14.909981 18.058508 10 1
-60.626781 54.606663 -8.332556 5 1
-36.838215 110.915980 -27.549534 2 1
-47.410366 115.256260 -3.338778 18 1
-33.243694 98.646385 -9.131495 17 1
-44.397320 51.454670 -41.003662 7 1
48.839905 82.267609 -16.541409 3 1
-50.995945 117.830160 -28.535799 6 1
37.010490 81.848343 35.474297 14 1
15.019063 115.486220 24.964602 13 1
-51.533237 59.568264 -1.875993 5 1
18.972664 103.461200 38.605484 15 1
-35.944370 119.511630 14.204747 18 1
-1.297321 98.252991 41.070782 16 1
-23.960464 91.287407 -39.588390 2 1
-43.373562 44.372055 -46.130985 7 1
-22.800985 99.593987 -36.105186 2 1
-4.214075 125.283440 -0.604965 11 1
-29.258018 104.479920 -9.602376 17 1
-14.769223 112.851140 28.421648 16 1
-88.754158 46.431862 -16.142511 9 1
53.760403 88.140945 17.111919 14 1
15.611559 89.886826 45.018665 15 1
-4.419049 110.745670 37.546150 16 1
-87.740654 45.033504 -24.467098 9 1
-12.720975 87.431488 44.042721 16 1
-42.401134 112.892260 -24.048367 2 1
12.693783 111.052420 19.846781 13 1
33.019360 97.420799 -18.206030 3 1
-46.954529 100.508600 9.392200 18 1
-12.187135 18.848465 10.531678 10 1
-2.041063 105.383630 5.709788 0 0
-55.608055 118.998470 -26.847136 6 1
-2.763408 107.013470 19.958935 16 1
-50.778343 122.090280 -36.021381 6 1
-5.529298 120.931790 5.466403 1 1
-32.522171 111.037840 -29.918936 2 1
-3.451787 113.900600 5.197488 1 1
-83.743797 49.658806 -17.088428 9 1
-20.583735 83.623985 43.552422 16 1
-77.732468 50.788212 -30.140669 9 1
-36.616600 94.011200 -33.160984 2 1
3.772824 106.090120 -1.462992 0 0
-29.561457 98.049202 -35.244270 2 1
-58.305779 106.196370 -28.530199 6 1
31.489384 108.878110 5.766129 13 1
-31.800461 124.628040 -10.220716 17 1
-41.405411 106.126180 19.302979 18 1
31.950480 91.234161 8.674992 14 1
15.273272 106.028520 23.410263 13 1
-74.648560 59.500221 -26.560760 9 1
-66.417755 84.500992 -54.447678 6 1
-65.644035 102.258440 -24.570349 6 1
53.312042 91.704582 10.900475 14 1
-65.400322 41.878513 -3.044682 5 1
-48.513000 116.047740 -14.267543 18 1
-6.022532 101.881180 24.919558 16 1
40.106220 94.995064 33.042885 14 1
21.787891 99.880432 15.290483 13 1
-38.546913 113.826210 19.647943 18 1
-7.359169 11.751863 25.067314 10 1
-47.915489 105.688380 -9.150968 18 1
-73.237206 73.332329 -46.919529 6 1
-23.265877 89.964844 38.286762 16 1
-55.003632 104.648280 -11.265661 18 1
17.065516 15.139620 -14.537138 8 1
7.478007 112.388020 23.256546 13 1
-58.065876 67.567535 -18.635536 5 1
-26.218105 123.003080 -14.983691 17 1
-46.852940 58.383255 -16.652481 0 0
-1.961228 67.768845 -1.175648 0 0
22.252934 94.965065 40.122353 15 1
29.668379 106.553220 16.225172 13 1
-51.432880 112.245190 -13.120607 18 1
44.628307 87.357903 -17.351379 3 1
1.519825 118.941060 2.563234 12 1
42.247677 97.914139 2.807722 14 1
-42.345474 116.075210 8.506493 18 1
22.328796 86.703247 31.630152 15 1
-80.582550 54.767128 -22.734570 9 1
-23.429184 118.599550 -21.705822 2 1
-37.671803 104.457890 -25.742785 2 1
-44.653229 130.833130 -25.190737 6 1
-65.442665 62.594143 -16.153547 9 1
18.641062 116.349210 9.749952 13 1
-52.781250 109.956120 -8.606653 18 1
6.868638 91.513596 45.813099 15 1
-53.943539 89.605408 -3.822342 18 1
-46.428757 105.326930 -4.591161 18 1
-70.376083 79.904160 -52.999847 6 1
38.951126 86.827881 35.210751 14 1
15.044039 81.897682 47.084068 15 1
29.317190 105.883930 1.652536 13 1
-51.090958 91.015831 13.231672 18 1
18.551075 114.073200 29.907961 13 1
-44.198311 106.996440 10.888440 18 1
-71.482414 61.810623 -29.675798 9 1
-63.104794 112.477580 -19.225161 6 1
-22.603998 126.115150 -22.986071 2 1
-26.894121 111.309170 -6.664490 17 1
-63.503056 104.353070 -29.546822 6 1
53.669888 78.511055 16.761358 14 1
63.144669 93.451500 4.833471 4 1
4.374589 105.711030 24.225735 16 1
-50.743923 117.641460 -33.811047 6 1
-68.037361 98.012375 -17.793139 6 1
-33.135433 122.520040 -0.644925 17 1
50.902447 84.537613 22.315046 14 1
43.491428 91.015755 10.629682 14 1
-44.069073 117.263770 1.248205 18 1
39.436028 76.282990 30.063383 14 1
-68.865021 62.929081 -21.619495 9 1
72.682518 76.893661 14.233004 4 1
21.647133 75.029289 42.240486 15 1
54.140091 105.236170 12.636544 4 1
-71.315445 45.900169 -6.120769 5 1
4.113154 112.219940 16.581137 0 0
-30.201052 87.271095 -33.908207 2 1
-54.990871 52.268681 1.325248 5 1
-6.785927 112.930260 1.885469 1 1
45.965408 88.352119 16.435772 14 1
-6.612356 67.389259 1.405586 0 0
45.630108 72.297760 27.257841 14 1
-29.149847 86.138298 -38.480560 2 1
-27.893480 93.135895 -34.381340 2 1
41.272976 93.531052 -15.326712 3 1
-46.711365 125.471150 -28.775852 6 1
1.522990 19.828119 10.854545 10 1
1.308306 12.432947 22.864555 10 1
-26.367964 113.014160 -30.762257 2 1
30.515360 102.421040 28.064589 13 1
0.357396 15.970375 1.761249 0 0
53.618183 92.665596 -3.125437 3 1
38.332100 109.233630 -0.096116 3 1
-57.969227 103.470160 -40.262539 6 1
40.986378 80.444717 -21.718115 3 1
-55.491745 95.787903 1.515149 18 1
43.967117 103.837970 3.122149 3 1
-4.293782 106.355210 40.640980 16 1
-47.186203 65.999008 -28.226196 7 1
-50.915081 58.405094 -31.268164 7 1
-11.771274 91.383751 36.054581 16 1
-32.881630 104.063040 -5.550201 17 1
-38.181580 114.935650 -25.006823 2 1
21.448378 99.414276 22.583401 13 1
-70.850830 65.104195 -16.908245 9 1
37.689625 102.837320 17.290066 13 1
21.604206 70.667870 44.368446 15 1
0.443512 104.012410 26.041069 16 1
33.979752 92.926155 31.989019 13 1
-81.846313 56.210449 -14.984386 9 1
10.542356 88.249756 47.567982 15 1
-48.444084 93.895363 21.929417 18 1
-32.249229 117.390270 -18.512827 17 1
-0.700380 3.908875 1.434714 0 0
-15.990912 98.353844 39.202641 16 1
-4.418339 40.158913 0.272250 0 0
6.313127 21.787569 -9.381958 8 1
-69.553619 78.893867 -39.939987 6 1
-35.759445 84.769440 -32.510036 2 1
-6.994141 111.381750 23.137281 16 1
-1.487061 78.519356 -1.176778 0 0
-1.422248 89.264778 6.385394 0 0
-51.827927 76.595642 12.738070 18 1
44.404095 96.556282 -10.565580 3 1
-35.037846 49.966129 -10.937944 0 0
-56.224945 65.189400 -24.753176 7 1
-1.684780 74.669868 2.954236 0 0
-41.322834 52.934841 -13.351151 0 0
-90.901413 45.082069 -20.018373 9 1
-67.663765 56.855743 -8.969369 5 1
3.731748 99.215782 47.628113 15 1
24.626156 108.991740 27.036182 13 1
17.514061 78.059235 47.507267 15 1
-82.686501 43.442104 -33.013836 9 1
-42.670616 112.893060 12.445529 18 1
55.273693 82.932869 13.678846 14 1
-49.184109 98.673195 -3.328379 18 1
-54.996254 54.972401 -31.979280 7 1
-47.577095 103.578320 13.224278 18 1
7.864488 59.745926 0.919272 0 0
-50.241806 123.289610 -21.475731 6 1
-32.308510 80.887077 -35.038815 2 1
-44.182426 64.407539 -31.284046 7 1
39.546448 87.752090 18.788507 14 1
33.123440 105.077630 13.374254 13 1
-63.661625 41.568588 1.181067 5 1
2.331841 97.340210 8.762848 0 0
9.574782 20.542786 -15.393505 8 1
34.165085 99.423767 -1.270266 13 1
42.978592 83.835159 31.112112 14 1
-80.569511 49.420490 -35.161266 9 1
-11.822079 125.041280 0.894502 1 1
12.045661 95.547432 39.047142 15 1
-45.109425 114.974720 -21.028795 2 1
-49.657356 121.281650 -41.811401 6 1
-16.748131 116.812680 -28.687199 2 1
36.016121 91.629211 -20.055210 3 1
-40.293285 110.821990 -8.174962 17 1
-1.387698 112.638850 -4.983402 12 1
55.973373 104.353260 6.407374 4 1
-61.038429 98.433746 -37.530777 6 1
-41.786045 108.406970 -22.791500 2 1
-62.595352 61.858624 -12.512982 5 1
70.730034 86.494408 13.277479 4 1
46.396946 81.865593 28.046062 14 1
-53.542603 49.776634 -43.182438 7 1
-15.476585 91.055420 43.764877 16 1
5.703836 117.967600 -6.790471 12 1
33.649448 92.066666 16.917950 13 1
-47.614407 95.151817 14.577427 18 1
38.361744 103.135360 2.465252 3 1
-21.714342 95.735405 37.657898 16 1
39.903503 98.803123 -7.503828 3 1
18.288147 108.573150 14.843679 13 1
51.666447 79.870193 21.072699 14 1
29.098228 94.936577 13.963420 13 1
37.222431 88.902451 31.462276 14 1
-52.742302 60.626530 -6.283390 5 1
-53.690063 112.700900 -31.509792 6 1
15.922918 16.109573 2.186484 8 1
-0.387560 117.303600 22.696205 16 1
48.081902 86.483017 -14.624322 3 1
47.442410 66.542061 21.336946 14 1
-57.386120 47.736801 -45.516251 7 1
-86.564568 40.672588 -25.217360 9 1
-69.975494 90.059357 -22.038363 6 1
-68.539627 85.895432 -46.527992 6 1
-14.289164 90.295822 -3.577830 0 0
41.853146 104.415870 9.231783 14 1
-62.049995 100.033750 -27.926565 6 1
-44.334400 92.540855 -28.374151 2 1
-54.514744 115.993620 -36.320873 6 1
-2.404797 61.317982 -1.684885 0 0
-60.639034 50.596180 -38.707001 7 1
-66.661766 105.037700 -16.487444 6 1
-1.678805 120.144970 -4.551312 11 1
72.788208 70.939613 6.920751 4 1
27.428123 91.336418 9.506585 13 1
-49.245346 44.806339 -44.910656 7 1
36.420254 101.836240 21.486233 13 1
-69.027504 86.342026 -41.117821 6 1
-18.328283 84.970558 -40.678406 2 1
-31.698267 87.468422 -5.696970 17 1
74.501862 70.217964 14.564645 4 1
-35.180248 127.030540 -12.155737 18 1
-15.136940 101.350370 -39.984917 2 1
-22.683939 86.776253 -38.077431 2 1
4.373442 116.372300 0.235290 12 1
9.347621 112.617000 30.459919 15 1
48.902554 93.104523 21.173380 14 1
31.434660 103.728100 22.471590 13 1
-41.115829 105.910640 23.721891 18 1
43.029942 80.612221 -17.684282 3 1
-1.818557 25.096437 -1.855714 0 0
-43.160965 103.481200 -24.383656 2 1
59.802910 99.441124 11.699796 4 1
-9.863924 104.009770 25.347805 16 1
-40.436104 116.114380 -14.312384 18 1
-45.022655 100.575450 -28.155739 2 1
35.517536 88.524895 24.401789 14 1
40.075901 79.936035 32.957550 14 1
-40.949825 129.863890 -18.326859 2 1
40.749596 85.334839 -17.824217 3 1
-33.837292 111.578140 -24.010242 2 1
-48.651775 53.277897 -39.813042 7 1
-57.959766 107.944220 -44.525196 6 1
-15.688937 112.231330 -36.185699 2 1
-6.931248 91.877129 30.897778 16 1
2.387533 97.231956 -0.039062 0 0
18.128311 115.247220 14.741868 13 1
-0.624240 110.163290 3.840062 0 0
-40.880013 118.686970 -17.968468 18 1
2.990175 102.429370 2.530119 0 0
-36.864017 123.361840 1.720012 18 1
-9.500619 88.398254 48.184589 16 1
-2.227311 101.375510 32.359375 16 1
-48.680470 88.283691 20.165474 18 1
-45.053112 114.086040 5.713999 18 1
-1.516806 114.946200 28.777262 16 1
5.063941 117.180360 23.175941 13 1
69.036812 82.713547 8.966043 4 1
-13.908998 100.662210 27.093021 16 1
-45.917576 107.710100 -25.117138 2 1
43.401894 98.156639 24.972527 14 1
-61.417900 112.626280 -23.708223 6 1
-50.341461 82.374039 17.374031 18 1
-21.562746 79.646645 -41.170498 2 1
15.835854 101.463790 41.036873 15 1
-1.167562 6.048999 25.856054 10 1
-69.844917 83.776039 -33.755058 6 1
40.052887 67.885056 31.236820 14 1
-7.119969 40.280239 -3.187101 0 0
-52.308311 113.477310 -46.042114 6 1
-21.477747 94.280006 -37.644356 2 1
38.192009 72.639557 32.988575 14 1
-61.045273 101.250090 -47.103493 6 1
-68.005646 51.114456 -10.509873 5 1
-41.167137 54.415668 -40.341949 7 1
-3.280936 111.322530 19.941898 16 1
-2.674353 51.931583 -1.351288 0 0
-19.974598 91.998383 36.302670 16 1
26.221617 103.312160 32.639942 15 1
37.024834 99.655472 28.738537 13 1
-7.666596 9.561693 29.351631 10 1
2.983449 15.422004 16.616493 10 1
58.388748 100.140660 3.056333 4 1
6.877462 110.884910 39.812691 15 1
-8.063283 110.655250 34.871574 16 1
25.498568 82.532326 39.286606 15 1
-5.869216 91.684921 43.288235 16 1
-61.608654 55.589912 -35.425938 7 1
-29.983120 121.382330 -23.777866 2 1
49.171795 105.256840 10.393106 4 1
7.600856 122.080180 -9.584114 12 1
-20.171566 105.632490 -9.144839 0 0
17.156309 95.362892 42.379047 15 1
-41.353134 48.106369 -45.154358 7 1
-49.584641 127.936520 -21.959911 6 1
42.745808 103.668410 16.804104 14 1
-69.283218 79.861580 -48.585373 6 1
-34.329037 98.826324 -32.925285 2 1
33.920891 103.481840 -12.297795 3 1
-53.319069 86.847786 0.275383 18 1
0.397929 104.353610 -3.776061 0 0
8.380992 84.365891 49.126701 15 1
-84.911934 48.293266 -25.131052 9 1
8.281301 95.404991 46.893784 15 1
-52.534725 91.385239 8.600915 18 1
-31.260027 104.814580 -28.625441 2 1
-43.665401 110.568210 3.720730 18 1
-3.234606 97.884727 5.331387 0 0
28.147848 97.914085 -1.394876 13 1
34.625114 95.658974 1.284461 14 1
-52.574886 84.259880 11.277699 18 1
41.039257 84.440231 27.255480 14 1
-1.928556 2.247613 -2.294551 0 0
-61.579288 56.647331 -12.235983 5 1
-22.385757 101.397180 33.417763 16 1
-31.850901 97.204315 -5.353530 17 1
-40.122063 98.622833 -30.461494 2 1
-4.894197 98.143852 44.833900 16 1
-44.193054 97.815895 22.158432 18 1
22.523458 100.009290 38.060291 15 1
46.148693 100.323870 6.404182 14 1
-49.604233 110.880940 -0.401917 18 1
48.302948 90.077766 -7.147173 3 1
27.058702 78.633751 38.666969 15 1
-72.944878 59.119869 -22.632298 9 1
-61.466820 48.152138 -0.214245 5 1
10.760911 117.786160 28.216232 13 1
15.856027 74.224380 48.189671 15 1
23.721174 104.480030 8.963555 13 1
-12.566022 106.970900 36.470844 16 1
66.744156 85.543159 3.712384 4 1
5.843370 122.046480 -3.726643 12 1
-35.134296 123.933100 -19.373138 2 1
-22.459812 107.252550 -31.166260 2 1
5.025787 113.167290 31.419006 16 1
-60.156048 118.081480 -18.786598 6 1
-77.278793 51.698708 -37.274311 9 1
-43.391193 58.645023 -36.024036 7 1
-0.058122 84.728081 3.053132 0 0
22.689236 14.923081 -10.495770 8 1
5.743294 125.768750 -7.759528 12 1
-67.703606 98.401031 -21.974287 6 1
-51.539368 42.669548 -47.715149 7 1
-1.605105 91.466614 0.249617 0 0
-66.627533 56.150791 -14.688156 5 1
49.897842 76.484367 16.143435 14 1
-76.840858 56.953999 -32.074955 9 1
-0.973942 47.531658 1.254001 0 0
51.656384 85.405144 -11.571792 3 1
36.007584 92.910019 8.756235 14 1
12.759675 117.181590 15.559826 13 1
8.398487 110.903690 35.691734 15 1
-16.044226 85.553192 41.617859 16 1
69.669258 78.827530 6.410136 4 1
46.605759 77.687622 27.584726 14 1
42.124630 78.376915 26.073196 14 1
-54.208138 58.582432 -28.686499 7 1
48.452011 85.004074 25.716064 14 1
-46.295200 103.807320 6.019949 18 1
-42.466110 96.162010 -27.420412 2 1
-14.642589 95.018600 -6.488176 0 0
-0.175939 101.587650 5.788982 0 0
26.925568 110.843750 11.033958 13 1
-65.998451 50.307156 -3.542004 5 1
-4.937295 98.008965 26.095881 16 1
-45.765820 120.667100 -12.160940 18 1
-68.093666 94.790276 -24.954977 6 1
11.909759 102.906360 35.408806 15 1
-0.235727 104.401790 30.246481 16 1
-61.629612 97.709297 -51.894394 6 1
-53.368149 103.460590 1.051802 18 1
-39.297207 98.781151 -8.229491 17 1
43.529621 61.919117 26.552095 14 1
-40.313393 103.396580 -28.998039 2 1
-63.594696 62.447369 -23.703306 0 0
-39.807064 87.559494 -32.451813 2 1
6.571452 115.121030 27.002510 15 1
1.558108 106.499790 13.059454 0 0
-57.025429 95.832352 -7.521199 18 1
-4.164313 73.330276 -2.802883 0 0
35.549862 104.608770 -7.028397 3 1
-11.028172 109.832380 -38.610821 2 1
-14.051746 84.275101 -3.324801 0 0
-19.456135 99.496819 -4.319582 0 0
65.077103 98.227982 17.772133 4 1
-68.579460 44.703327 -3.258509 5 1
-3.563487 56.435055 1.612378 0 0
-71.761101 52.013397 -12.117107 5 1
63.103798 97.458908 -0.805668 4 1
68.069130 90.324402 12.263103 4 1
-57.928028 61.675907 -8.857402 5 1
-14.417636 115.973310 -34.374058 2 1
-55.774002 48.271938 2.542438 5 1
1.839036 53.753162 2.625018 0 0
48.061111 83.032455 -12.360569 3 1
-20.688253 99.033661 28.456827 16 1
9.731936 19.817322 -6.666428 8 1
-40.960995 111.148750 -4.074147 17 1
-41.255669 122.159750 -5.512056 18 1
49.593838 92.676628 -4.229701 3 1
-39.625042 114.288090 -20.872017 2 1
-29.566204 113.929950 -27.612844 2 1
48.911068 99.615303 -1.258695 3 1
37.194454 89.621666 16.009356 14 1
21.713827 16.138378 -0.899271 8 1
-7.551556 116.802260 24.796606 16 1
-63.262829 103.145790 -21.080727 6 1
-6.999272 119.933390 -3.618023 1 1
53.329044 88.613075 -4.866816 3 1
-56.292400 102.325320 -6.069822 18 1
51.825531 70.625557 17.055674 14 1
-2.372520 9.833668 -1.707121 0 0
-63.700130 101.128420 -35.255619 6 1
-2.988631 103.568910 22.769730 16 1
27.543282 84.884613 33.798565 15 1
13.795770 82.429909 42.998665 15 1
-2.152360 117.520000 3.634125 1 1
-8.155510 74.383553 -3.127116 0 0
44.751862 71.286430 23.376730 14 1
23.523939 106.499810 32.878880 15 1
-8.366960 20.272192 10.310879 10 1
-61.084198 105.870740 -36.707504 6 1
16.851288 87.087814 37.086441 15 1
-54.139755 77.635193 8.696816 18 1
-59.091255 60.883335 -32.682968 7 1
-44.928562 104.123420 19.090260 18 1
-18.828812 106.277020 -37.387711 2 1
17.923634 114.478210 21.410707 13 1
-57.487617 101.233060 -54.765709 6 1
-34.938904 107.689750 -29.891665 2 1
69.084175 91.413292 19.968990 4 1
-14.641605 95.198059 31.121159 16 1
-5.001163 131.044740 -7.273749 11 1
-32.749870 91.342369 -32.274616 2 1
55.875057 102.623600 10.082935 4 1
-22.226223 121.769260 -26.911959 2 1
-58.019444 108.870850 -25.166945 6 1
-63.906349 51.662968 -8.093403 5 1
37.944195 103.637060 -2.110505 3 1
-37.687462 118.662340 -23.204554 2 1
1.927171 109.950130 0.673984 0 0
1.973168 107.182440 37.156456 16 1
-26.065163 123.734190 -22.600554 2 1
-18.742876 108.421310 31.536264 16 1
-49.958778 63.256889 -26.977205 7 1
-52.746647 50.944088 -35.698906 7 1
-65.931145 92.804077 -41.768082 6 1
46.394451 74.365120 20.888817 14 1
3.491583 113.915220 35.347328 16 1
41.507687 74.496170 27.116659 14 1
2.071501 94.502220 4.949910 0 0
-53.375370 57.097958 -35.927650 7 1
-81.175438 44.317638 -29.155346 9 1
10.799518 92.456535 41.411186 15 1
42.632202 92.578484 -10.986570 3 1
50.939003 88.416374 10.789042 14 1
24.106691 94.198463 27.461447 13 1
-5.712894 36.382507 0.723510 0 0
50.042789 78.654541 -15.275466 3 1
-6.573567 126.280040 -3.753614 11 1
-53.141987 81.176651 4.144760 18 1
-29.977407 113.063030 -4.236465 17 1
-23.674088 97.672905 34.751148 16 1
-38.360577 116.440800 16.139265 18 1
-62.437134 52.506142 -41.729538 7 1
-59.116642 62.569984 -25.787563 7 1
-11.540764 103.792050 38.785728 16 1
-14.689878 109.208170 26.769495 16 1
6.879562 116.455310 19.678970 13 1
-61.019150 103.134490 -43.331718 6 1
53.867802 96.193047 1.045453 4 1
-48.954426 50.294647 -42.511612 7 1
52.055691 84.268150 11.716860 14 1
-6.705419 91.746643 47.300915 16 1
-4.487562 95.156944 36.353191 16 1
49.301193 101.917630 4.379360 3 1
-3.275781 17.290899 0.324905 0 0
-69.181404 83.114464 -38.355465 6 1
43.470150 99.961533 21.419260 14 1
14.046265 86.260742 46.552395 15 1
-25.464289 109.671000 -12.049284 17 1
-58.691353 63.733307 -19.516996 0 0
-39.544052 90.905457 -30.085785 2 1
-52.616741 120.383980 -31.285961 6 1
41.380142 100.051210 -3.539336 3 1
-29.120995 110.363140 -32.113899 2 1
22.878405 89.657639 41.508228 15 1
-76.914925 59.337109 -13.870711 9 1
-15.686030 89.112770 -41.346470 2 1
-57.300911 63.281445 -15.497987 5 1
-51.922215 91.344742 0.171699 18 1
-84.469795 52.573078 -14.491380 9 1
-48.688263 98.760094 0.718526 18 1
-2.509537 34.939697 -2.335952 0 0
-59.893055 111.282930 -29.801107 6 1
44.259480 85.369270 21.977356 14 1
4.342450 108.865010 30.848455 16 1
-60.215218 57.985523 -6.324059 5 1
-8.881994 88.598587 44.061234 16 1
40.006916 80.986755 29.139996 14 1
43.243347 96.101257 -6.693513 3 1
-50.494144 102.231930 8.038609 18 1
67.156059 88.028587 -3.607998 4 1
-50.026031 92.806366 5.906732 18 1
13.617434 111.726430 36.360317 15 1
-64.809059 89.237320 -47.199932 6 1
18.112936 75.419579 44.003475 15 1
-84.296539 45.599239 -22.318720 9 1
-70.587433 49.957672 -6.380253 5 1
-59.787075 99.724342 -41.047451 6 1
-56.422661 43.435089 -44.762955 7 1
10.425844 81.102371 48.295059 15 1
-77.749290 55.474033 -19.810017 9 1
-63.756477 66.598160 -21.463177 9 1
-3.387269 82.283836 2.025697 0 0
-66.786980 62.340443 -26.550423 9 1
50.473896 89.509811 -10.375033 3 1
20.203426 91.375748 31.217962 15 1
-10.527051 127.268480 3.946395 1 1
-73.871956 59.819916 -32.073841 9 1
50.678879 94.562737 8.878346 14 1
19.068535 16.619007 -11.466026 8 1
-0.819796 101.192620 12.432808 0 0
4.634365 21.266735 -1.845075 8 1
-8.443910 95.531456 27.157038 16 1
-57.017803 64.265213 -11.713091 5 1
-51.081310 116.849930 -43.216660 6 1
-53.374371 93.650764 -5.473116 18 1
22.256350 82.000298 37.150288 15 1
-48.762424 96.447052 6.560091 18 1
40.732460 78.296112 -25.023418 3 1
-77.821251 53.280735 -25.465227 9 1
-18.428654 120.490930 -17.646015 17 1
-16.353312 90.345436 37.069920 16 1
-76.539528 59.404438 -21.146391 9 1
32.252396 98.090637 33.816021 13 1
-52.649265 63.772652 -24.129007 7 1
33.026501 100.375180 30.229853 13 1
50.161110 72.887222 22.356323 14 1
22.651146 14.081011 -6.022001 8 1
18.712757 105.214280 17.162296 13 1
-1.071590 114.523770 19.777842 0 0
48.740021 93.236969 -9.626314 3 1
-27.100880 105.986230 -6.693539 17 1
-32.893379 102.473180 -9.744856 17 1
-56.990654 112.674380 -22.124538 6 1
-58.009300 110.781810 -36.796432 6 1
-34.978870 88.940155 -35.145992 2 1
-17.767916 106.376150 27.030674 16 1
24.152555 102.859600 5.462362 13 1
-63.943283 106.067860 -25.195776 6 1
-3.673074 20.864470 8.231588 10 1
-12.709994 97.002029 28.281231 16 1
-56.941414 119.606180 -23.227722 6 1
-44.784340 107.731330 6.475305 18 1
15.561342 103.629270 28.337969 13 1
-7.647622 15.730177 19.250319 10 1
-26.409958 83.767715 -40.194164 2 1
-35.267345 114.730000 -14.098124 17 1
-1.009082 118.431420 -1.087319 11 1
-5.395251 123.636670 2.692908 1 1
-72.509995 77.803802 -34.579163 6 1
21.238653 77.333939 45.331642 15 1
-29.420412 119.904100 -7.470639 17 1
9.694925 112.702120 26.408306 13 1
-83.528038 52.158657 -20.067600 9 1
28.684240 91.769859 36.547707 15 1
20.393015 87.963722 43.932472 15 1
16.101641 99.180367 33.175812 15 1
-20.720104 98.807968 -39.256073 2 1
46.378086 90.112335 13.021415 14 1
-84.072746 37.943916 -29.624310 9 1
-5.760036 114.701630 -1.543805 1 1
11.019579 117.890060 32.058868 15 1
-30.623297 118.204350 -4.231341 17 1
-21.916842 108.988930 -35.242523 2 1
-17.250162 83.741760 0.458142 0 0
-64.001457 98.519089 -39.985855 6 1
53.890228 91.301804 14.719860 4 1
-59.959312 102.691170 -29.751251 6 1
-53.923679 105.324750 -2.626632 18 1
18.863262 92.199997 22.145775 13 1
8.168766 114.316150 33.725960 15 1
5.375729 115.228320 -3.976881 12 1
17.955601 77.962181 4.137858 0 0
40.994858 83.475204 -24.065929 3 1
-23.697052 101.501090 28.464851 16 1
-21.763273 116.565090 -18.919540 17 1
41.951031 94.448952 4.598119 14 1
-61.896019 107.307950 -18.788515 6 1
-48.796558 56.163078 -37.028721 7 1
36.638885 85.231087 -25.008856 3 1
-74.566689 60.054092 -17.024624 9 1
-4.037598 77.256981 1.424106 0 0
-22.941542 114.217500 -32.053070 2 1
8.152300 104.004550 44.244923 15 1
-4.471520 45.007755 1.252328 0 0
64.303970 93.059654 -3.653983 4 1
51.667171 87.713020 20.358400 14 1
-27.970884 91.527565 -37.831512 2 1
10.927104 100.755970 43.835781 15 1
-53.152184 123.466830 -23.959278 6 1
-68.705681 90.907829 -29.588242 6 1
24.694742 97.116219 23.992830 13 1
-29.170818 126.560820 -17.579451 17 1
1.806449 119.084550 -5.703696 12 1
-49.680149 108.619850 3.011556 18 1
29.310482 93.134392 6.710980 13 1
-51.643353 84.892914 6.934345 18 1
-81.220856 50.095379 -31.474140 9 1
-2.947901 92.580009 5.332893 0 0
-80.950050 48.286148 -25.873486 9 1
-32.355484 111.327130 -12.940695 17 1
-18.892834 101.482210 -8.500574 0 0
-49.342976 95.462791 18.014372 18 1
-56.142090 112.464320 -40.012825 6 1
-35.558247 98.302246 -5.965543 17 1
-66.146790 88.973846 -40.209576 6 1
-60.849377 106.098840 -22.446774 6 1
-9.941013 80.204720 -4.965582 0 0
22.069283 96.213043 17.312128 13 1
-65.808884 99.579453 -27.722385 6 1
71.798538 71.970413 3.297857 4 1
65.875420 90.992210 2.271548 4 1
-15.293695 104.786160 -38.399399 2 1
-20.716076 88.608315 42.896076 16 1
11.998421 105.470720 32.620914 15 1
-4.046208 105.875250 2.522516 0 0
-15.306159 95.341408 -41.121914 2 1
-57.077618 52.544308 -2.688492 5 1
20.099211 78.537170 41.697819 15 1
46.000687 66.265343 24.812922 14 1
63.621876 94.734497 11.783773 4 1
-50.786324 53.006989 3.293790 5 1
-27.274040 106.105190 -34.334015 2 1
43.293018 88.415207 19.098392 14 1
54.357006 76.579277 13.477375 14 1
-1.602515 123.108340 -2.225092 11 1
44.939934 86.504578 -12.486405 3 1
-63.748653 96.046837 -30.684731 6 1
-14.138753 12.416372 22.912312 10 1
-69.960449 64.094841 -33.024662 9 1
-17.535505 92.324150 -42.032845 2 1
44.381310 78.836617 22.925848 14 1
-55.144630 58.820679 -3.827483 5 1
2.359335 110.752280 38.254234 16 1
-68.287056 90.059471 -34.714027 6 1
29.179459 87.276848 31.255917 14 1
30.703745 90.979218 31.530106 13 1
39.735310 107.085150 2.823336 3 1
-52.360329 114.209140 -39.284157 6 1
-59.640945 47.649296 -40.797089 7 1
-40.470505 110.340190 -25.999861 2 1
6.113582 109.016400 24.520840 0 0
-37.204971 117.607800 5.101433 18 1
-57.418602 56.330868 -29.467960 7 1
25.622835 97.606720 11.305345 13 1
11.016384 109.688100 28.716906 13 1
-36.307400 125.290820 -6.178137 18 1
-44.907742 61.128063 -33.025982 7 1
-53.096481 114.783810 -27.957172 6 1
20.528498 70.386520 47.938492 15 1
7.330294 111.792270 19.565697 0 0
12.824153 66.359947 3.933422 0 0
8.806618 65.375160 2.595921 0 0
34.837700 101.768950 1.560148 13 1
-21.890036 108.423070 29.387913 16 1
-54.511009 48.026875 -39.148197 7 1
2.697322 111.800510 -5.110042 12 1
-61.106922 47.959747 -45.304058 7 1
25.053465 87.333923 7.083790 0 0
-58.889019 53.009670 -35.610302 7 1
-8.029259 39.001999 -6.687360 0 0
43.363029 93.450432 29.612751 14 1
3.298751 18.840849 14.074890 10 1
16.982540 17.261972 -5.903816 8 1
-60.396564 60.801861 -15.750117 5 1
74.802551 76.938713 19.141926 4 1
-2.882333 115.463830 25.349291 16 1
-45.696438 106.357570 -1.090833 18 1
-42.389072 108.982540 13.463845 18 1
-57.206219 62.172531 -29.742083 7 1
-75.543129 53.489834 -31.678961 9 1
45.497601 104.769950 9.922847 14 1
38.134827 87.105865 22.175396 14 1
21.574261 112.064340 9.347794 13 1
-19.162941 113.957860 -29.635424 2 1
46.577148 82.344482 -19.502224 3 1
11.979920 16.577969 4.276383 8 1
-11.694781 109.717690 34.104610 16 1
21.794579 111.496710 27.661926 13 1
-52.636700 108.421060 -4.385952 18 1
-25.914181 87.923241 -39.505867 2 1
-29.522381 124.150290 -13.110327 17 1
-24.895432 108.483460 -28.652573 2 1
-18.019705 16.497366 13.081225 10 1
14.646978 18.110773 -1.729082 8 1
-26.755953 117.925540 -9.390411 17 1
-36.572182 98.974091 -10.735101 17 1
25.803963 75.990990 41.010796 15 1
-11.904359 14.451226 26.706388 10 1
-0.873026 31.934139 -0.755334 0 0
24.701920 69.300491 46.098076 15 1
-51.694313 76.690605 16.453012 18 1
-56.723351 92.001572 -3.002938 18 1
-70.748764 88.126892 -25.196239 6 1
-23.062170 123.203580 -18.355146 17 1
-56.901958 98.834290 -5.023093 18 1
-56.771664 53.523087 -40.095165 7 1
-53.054794 111.344730 -49.433571 6 1
-45.870464 113.920370 -12.805253 18 1
2.084191 101.025100 8.652362 0 0
39.612309 98.205673 31.247953 14 1
38.533451 91.609474 -16.972977 3 1
-60.304115 51.504990 -1.232828 5 1
23.303772 111.347690 19.186743 13 1
24.184921 80.845299 5.617309 0 0
-63.437057 56.196541 -6.270522 5 1
-22.168289 109.681380 -9.723314 0 0
-34.168850 101.623830 -28.635040 2 1
-47.782902 97.199440 10.771832 18 1
30.250828 96.658035 6.223417 13 1
9.135908 18.749689 3.238500 8 1
-24.624063 92.541016 -36.195049 2 1
-31.224403 94.715675 -35.495861 2 1
16.112326 71.938957 3.073541 0 0
15.746984 92.804001 36.000137 15 1
-1.692096 102.170560 -1.489752 0 0
-19.865023 117.684240 -15.610921 17 1
-34.122398 93.710052 -6.113671 17 1
47.292240 88.809631 26.272396 14 1
-74.636307 55.802635 -26.703386 9 1
3.816753 116.174280 29.579056 16 1
-85.193939 44.882496 -28.412785 9 1
-2.390688 7.115182 0.751808 0 0
-23.996445 81.285294 -38.975101 2 1
-55.347313 123.328030 -17.545006 6 1
-72.711456 62.060463 -36.749298 9 1
-65.581909 95.350800 -37.452984 6 1
-61.488342 96.171494 -43.580727 6 1
-59.156010 43.214085 2.749313 5 1
-8.007384 99.891060 42.384850 16 1
-58.812984 57.672222 -10.054897 5 1
73.057129 66.107323 6.272502 4 1
-46.871342 102.992690 2.478295 18 1
-57.066410 103.461570 -48.933544 6 1
-58.075607 104.915610 -32.518299 6 1
-61.670773 55.741913 -39.064339 7 1
-33.068676 118.027540 -25.006390 2 1
-26.977194 118.628150 -22.542356 2 1
-61.440052 93.873512 -50.734585 6 1
-4.293913 125.744880 -6.593039 11 1
-37.041927 107.803380 -24.464436 2 1
-30.040573 103.476010 -33.551220 2 1
-55.478569 108.684190 -38.500675 6 1
-53.888145 61.767174 -18.161976 0 0
-46.401093 109.459710 9.230288 18 1
-35.678730 113.358780 -0.638352 17 1
-16.990616 98.210960 -39.627811 2 1
-61.529217 98.952179 -32.709343 6 1
-14.784307 85.040840 46.079727 16 1
-1.433905 116.266010 -6.322370 11 1
0.650487 51.389725 0.017579 0 0
-18.059223 115.352740 -33.390480 2 1
27.759319 107.441610 19.355141 13 1
-68.411827 39.413040 -2.647866 5 1
-77.437210 55.351334 -37.054527 9 1
-57.216644 55.273628 -5.157301 5 1
-59.319221 58.889236 -35.739578 7 1
-58.266685 103.610600 -36.589916 6 1
-18.981133 95.502144 -6.800590 0 0
41.601067 87.068207 32.779232 14 1
-35.504040 126.633790 -15.860895 18 1
12.343339 107.099050 40.416058 15 1
-0.210839 19.428467 0.702491 0 0
6.902206 105.164590 40.437164 15 1
-89.396042 38.556095 -24.560369 9 1
-36.496727 109.171390 -9.290505 17 1
-1.231419 39.608833 -1.296459 0 0
-38.326569 106.958180 -28.407297 2 1
36.696613 94.300102 33.933163 14 1
48.404858 96.089806 19.242834 14 1
-42.233894 122.007120 -17.691349 2 1
-39.929222 118.477620 9.634463 18 1
-25.977201 98.856186 -34.605637 2 1
-53.091103 65.941757 -11.158808 5 1
1.077903 1.400097 -0.527947 0 0
-41.094028 124.787930 -11.600811 18 1
42.558502 100.142990 0.013420 3 1
-46.863693 128.288530 -26.427366 6 1
-44.212635 100.502650 24.694630 18 1
6.162263 97.004814 44.487652 15 1
-37.728592 101.185240 -27.199306 2 1
14.969501 110.466130 17.043612 13 1
-3.201091 97.008850 29.060884 16 1
-33.627281 107.525760 -5.057280 17 1
68.802872 86.014679 6.606040 4 1
60.351242 97.504471 6.089198 4 1
26.900116 100.422170 34.750130 15 1
-63.193024 52.494209 -3.218756 5 1
4.129765 55.123333 -0.702933 0 0
-30.709871 82.712479 -37.723774 2 1
50.803661 99.525612 11.361805 14 1
-17.866196 121.188760 -25.765127 2 1
-2.038817 11.659048 21.634874 10 1
6.166866 109.247230 17.260006 0 0
17.448788 103.908290 21.549650 13 1
-58.810123 46.649376 1.620664 5 1
38.988590 99.524071 -11.346439 3 1
-50.613689 95.559319 12.704163 18 1
21.002626 112.683970 21.550858 13 1
37.140369 93.677788 5.321774 14 1
-56.537479 108.146840 -30.924084 6 1
-52.627575 116.974390 -47.044399 6 1
61.883900 100.791310 14.242248 4 1
28.903316 104.961860 26.100372 13 1
-18.563141 110.489710 -31.558104 2 1
-32.675892 125.285340 -6.144314 17 1
-18.182596 109.711540 -36.348057 2 1
3.057486 21.910995 8.408359 10 1
48.233379 101.886470 8.811655 14 1
-49.155468 120.868770 -27.821020 6 1
68.630363 81.914955 -4.669198 4 1
-50.996487 47.231300 -43.008080 7 1
-4.720181 50.208191 1.516038 0 0
-67.458351 59.483665 -15.877192 5 1
20.600630 108.517650 12.160448 13 1
25.646681 87.932182 28.683334 13 1
27.281582 96.409386 17.253979 13 1
-43.010868 116.973670 4.864108 18 1
-14.317203 87.223351 -5.337178 0 0
-57.324955 114.945380 -30.101566 6 1
-37.586983 95.015198 -29.526709 2 1
-7.138890 112.878760 30.413916 16 1
-44.002281 103.939160 -27.793255 2 1
66.063950 90.974731 -1.392346 4 1
-58.910019 56.457905 -32.931107 7 1
44.444843 90.038551 29.210270 14 1
-46.008690 101.087820 21.260609 18 1
-25.782846 85.310684 -36.664726 2 1
-3.489631 29.686867 -1.500362 0 0
-38.895428 113.579600 -12.290962 17 1
27.733046 108.975970 14.041571 13 1
71.987274 81.361435 15.479663 4 1
68.045189 81.237823 1.841923 4 1
-78.464447 55.954350 -15.941452 9 1
-68.832214 87.565361 -28.479010 6 1
-70.919937 58.525963 -28.534927 9 1
-62.472694 90.676674 -52.119484 6 1
-13.871662 110.986600 31.333849 16 1
-12.153481 106.453360 -38.588200 2 1
-52.794582 120.492090 -20.663437 6 1
4.477082 91.184906 49.037689 15 1
23.119768 74.011772 45.293316 15 1
14.887321 93.235283 44.223572 15 1
-66.403069 95.180138 -32.865993 6 1
-33.249496 104.030440 -31.893002 2 1
2.016365 93.859207 1.494153 0 0
-20.798523 92.362350 -40.732307 2 1
-46.225983 97.774330 16.454939 18 1
-1.324337 94.894661 -0.591132 0 0
-23.248159 112.022970 -13.551797 17 1
21.084141 114.481040 12.020666 13 1
-71.634048 84.375732 -30.627396 6 1
4.352659 60.070415 3.517313 0 0
26.651682 99.039894 1.570090 13 1
-52.949673 71.959007 12.480856 18 1
-77.449226 50.246120 -33.590717 9 1
-55.355003 107.535030 -47.140251 6 1
-35.232193 125.198230 -1.472655 18 1
-18.406525 102.747910 35.499409 16 1
-52.261543 94.939369 8.564854 18 1
-56.355629 106.501870 -41.774555 6 1
-53.166859 88.234962 7.184151 18 1
12.031136 69.929924 3.925123 0 0
50.517738 77.046005 22.797386 14 1
-31.210255 114.157510 -24.508326 2 1
-62.955864 109.393790 -23.640753 6 1
-43.817814 110.938360 -9.095015 18 1
45.314774 103.010440 14.079546 14 1
42.539669 90.216644 -16.885902 3 1
-31.298925 110.160260 -25.935965 2 1
39.033207 96.399208 -14.712895 3 1
29.716240 96.830399 -4.313774 13 1
-11.639490 127.869090 -1.135098 1 1
-59.605850 99.130768 -44.740253 6 1
-62.601883 104.247110 -33.771954 6 1
10.681088 97.231644 45.148888 15 1
-32.970028 119.125980 0.416926 17 1
-53.551857 66.996269 -23.166462 7 1
-13.247710 109.693210 -35.689110 2 1
45.324898 81.758629 21.283915 14 1
13.623467 99.785767 35.541626 15 1
-55.779812 61.592049 -25.639814 7 1
29.533266 92.178642 26.041681 13 1
-1.653513 99.343048 44.462086 16 1
-9.853553 92.119484 33.080975 16 1
47.251842 98.395325 -5.757992 3 1
6.773818 20.655085 13.780547 10 1
-79.485016 53.779247 -30.323544 9 1
-72.361305 58.604042 -36.592228 9 1
11.274802 18.504150 -2.541277 8 1
41.312927 86.707436 -21.136703 3 1
-46.243347 95.497375 19.595211 18 1
-69.335716 77.482559 -43.094917 6 1
46.571945 80.495377 -14.615709 3 1
74.587624 83.265030 18.607580 4 1
-1.378602 71.024910 -0.028230 0 0
-51.338619 61.794941 -30.421085 7 1
-44.030140 118.052950 -19.804380 2 1
-42.610916 108.914310 17.578638 18 1
-47.807369 117.653370 -11.096146 18 1
-62.332363 60.911900 -31.192484 7 1
-82.444893 41.026073 -30.306320 9 1
-3.499400 98.318962 1.883318 0 0
-63.173306 38.175983 1.565528 5 1
-80.629646 41.199375 -34.852882 9 1
-51.467175 64.722008 -7.161103 5 1
5.214260 100.630950 44.213448 15 1
73.263069 69.137459 11.455576 4 1
-64.597557 100.047180 -21.778687 6 1
37.262253 88.230782 -20.886742 3 1
-49.791691 99.517815 -9.181938 18 1
24.859053 113.097130 9.426662 13 1
67.262321 89.935722 8.431081 4 1
-78.449829 46.728073 -35.483444 9 1
-47.882824 115.990740 -6.685536 18 1
-37.957058 121.797070 6.350524 18 1
-48.821297 122.733060 -24.674248 6 1
-32.897774 100.603250 -5.731256 17 1
-37.488991 111.239360 -2.957781 17 1
2.373365 106.520360 32.404167 16 1
40.866154 103.787960 13.932971 14 1
-9.996190 120.652930 -0.465178 1 1
-64.534294 47.420383 -5.109870 5 1
-62.102077 94.027412 -47.369839 6 1
50.298058 96.841042 0.675969 3 1
-7.546280 14.571883 23.017515 10 1
-62.824776 112.097010 -15.701551 6 1
-45.737217 103.698370 9.941915 18 1
-2.682620 128.867450 -5.880498 11 1
-30.653204 83.829697 -34.457253 2 1
-46.745907 44.789200 -47.444763 7 1
50.455391 87.246078 -7.333397 3 1
-28.197620 79.589584 -38.908661 2 1
-6.206681 70.804626 1.124895 0 0
17.235851 115.107050 18.119448 13 1
-1.006200 101.996250 36.508480 16 1
27.964706 95.334274 21.387186 13 1
-48.091263 123.546490 -34.488930 6 1
-16.779495 105.771550 34.812958 16 1
7.791675 120.690030 -6.282136 12 1
-49.071178 125.169110 -31.229462 6 1
49.900444 68.912498 21.201597 14 1
5.074257 107.724670 27.559755 16 1
13.705036 87.714729 40.121586 15 1
31.930578 103.696000 1.051968 13 1
-14.959836 18.190069 12.714317 10 1
-64.226768 91.302284 -44.314335 6 1
-48.821568 86.254128 23.699440 18 1
-5.383886 8.932427 25.480101 10 1
-33.655613 123.875130 3.468145 18 1
-1.958338 108.644680 -2.605525 0 0
25.496492 80.681557 36.426296 15 1
-2.396641 96.094933 8.206142 0 0
52.410675 94.538559 14.672253 14 1
-35.541130 82.674942 -35.294884 2 1
43.474014 92.826691 7.562516 14 1
-52.406136 114.519820 -34.082447 6 1
-23.378342 105.526220 -6.309391 0 0
-4.356685 108.878300 0.905822 1 1
-6.138606 63.006283 0.020918 0 0
19.701572 110.692480 33.010372 15 1
73.335892 73.541054 14.236051 4 1
-24.301558 104.001290 -33.283821 2 1
34.339031 107.757770 -6.639049 3 1
-36.786137 100.629450 -31.307665 2 1
-9.663128 117.903070 2.551260 1 1
-59.718708 105.968860 -41.980396 6 1
44.448933 75.266716 28.614498 14 1
-74.772667 56.523540 -38.847431 9 1
-0.244167 22.982353 0.272285 0 0
69.713654 75.258995 2.350768 4 1
44.289371 95.366096 26.672466 14 1
44.110844 92.224609 -14.011829 3 1
-55.722656 52.254116 -34.175465 7 1
3.773001 109.171750 -2.884875 0 0
10.092561 112.960240 21.131847 13 1
-62.812862 44.239521 -2.472981 5 1
-10.549521 78.876633 -1.894248 0 0
39.799877 90.208885 34.422806 14 1
-14.615831 14.751672 17.925900 10 1
-31.709045 90.412209 -7.626729 17 1
-37.808483 116.899680 -19.738892 2 1
30.397522 92.472466 11.888958 13 1
-79.479332 48.112926 -29.053284 9 1
29.292889 97.459328 35.619007 15 1
-57.949535 120.407550 -20.108517 6 1
14.595831 78.655701 45.921112 15 1
4.020293 105.117900 20.922016 0 0
21.242834 94.661537 29.183891 13 1
-18.405132 96.007874 39.413742 16 1
-20.202860 119.727980 -28.749554 2 1
-71.713936 62.177456 -23.341619 9 1
10.857780 116.489570 21.107403 13 1
6.632075 20.978947 -6.036084 8 1
-10.168177 22.658052 5.844281 10 1
-16.719368 118.038470 -31.859278 2 1
-52.582436 54.380062 0.280758 5 1
25.627108 108.981950 7.414956 13 1
-28.511822 100.462360 -32.762180 2 1
68.822968 94.336739 22.063557 4 1
4.269765 23.831865 -11.104052 8 1
22.921909 82.257706 42.232796 15 1
46.902508 93.504471 23.851730 14 1
-9.081176 113.133960 25.107712 16 1
59.978745 98.381432 0.548564 4 1
20.769392 84.580902 44.090298 15 1
0.446484 12.953369 0.232714 0 0
-33.437931 87.192299 -32.631489 2 1
-2.924376 11.923401 0.933295 0 0
15.155688 114.769210 32.570290 15 1
-53.350933 121.479810 -26.939043 6 1
62.609833 94.582603 8.067062 4 1
9.131748 98.759674 40.720726 15 1
-3.217865 59.883785 1.236365 0 0
65.710213 97.550217 21.070436 4 1
-21.157619 87.026199 -41.193851 2 1
-68.035835 53.687546 -12.652565 5 1
-54.808121 110.439070 -34.048843 6 1
-52.656521 118.828110 -36.303802 6 1
20.438463 14.525208 -3.546161 8 1
1.207322 98.501175 -2.938259 0 0
-35.687157 105.051370 -7.082626 17 1
-60.702744 110.359670 -18.113102 6 1
-3.062002 96.000496 42.801182 16 1
-54.584042 88.308296 3.417431 18 1
25.373129 94.851120 38.544647 15 1
45.597305 89.354523 -14.845181 3 1
34.446095 94.415894 -18.952728 3 1
71.528564 74.322548 8.934784 4 1
42.703274 68.156792 29.196144 14 1
-53.328026 98.923470 -10.110742 18 1
-8.452138 37.151398 -1.018813 0 0
16.585402 109.596260 36.122295 15 1
-64.804443 92.784912 -35.471165 6 1
-81.645477 46.095501 -34.741299 9 1
14.910238 104.560950 40.227097 15 1
-57.426102 65.953743 -21.654106 0 0
42.493465 86.144463 -15.102029 3 1
69.039810 76.420990 -0.710488 4 1
-16.131487 109.717150 -33.728046 2 1
-40.523514 114.184810 14.999823 18 1
-46.158314 100.576770 13.042093 18 1
-61.321438 115.319760 -20.224466 6 1
-50.752987 112.602040 -7.650629 18 1
-37.438347 120.924740 11.481932 18 1
-41.971409 112.325390 1.239682 18 1
-50.107853 104.333040 -11.317391 18 1
12.643982 18.670248 -8.761051 8 1
-79.939041 51.532688 -23.532602 9 1
-37.135418 97.251846 -32.121239 2 1
1.667565 99.213791 11.417295 0 0
0.925895 87.763603 2.155894 0 0
-28.446688 106.938220 -28.572235 2 1
-43.979221 120.402100 -6.448360 18 1
2.401484 103.623570 15.094279 0 0
-54.734173 60.764805 -8.925317 5 1
-55.181202 106.959660 -52.516411 6 1
14.240827 108.620410 21.475412 13 1
30.011662 109.514860 8.658852 13 1
30.391993 105.223580 19.303650 13 1
46.133121 89.529480 -9.585660 3 1
-50.014805 126.050700 -24.643707 6 1
-58.588226 105.851790 -47.057827 6 1
-68.884491 47.748291 -4.510805 5 1
7.788087 108.293590 37.973701 15 1
-47.406143 97.349327 22.778170 18 1
-70.091377 82.451759 -46.700829 6 1
46.736523 84.815353 -17.304495 3 1
67.311249 92.404144 17.223909 4 1
72.728172 85.541626 20.325344 4 1
59.266460 102.067860 9.752338 4 1
-87.770500 44.666088 -20.973198 9 1
-34.718746 121.106080 6.716985 18 1
-1.703253 104.478360 42.071976 16 1
52.933853 75.018921 16.608704 14 1
-50.283012 93.220375 15.545197 18 1
-1.254760 113.788200 33.987846 16 1
19.970438 100.315350 27.034288 13 1
-43.074703 131.486970 -21.741205 6 1
-20.064451 118.964950 -21.410740 17 1
-13.035685 93.017227 33.261436 16 1
-19.824705 82.741905 -42.622200 2 1
-58.012661 104.796160 -52.453293 6 1
52.197563 95.049553 -4.989541 3 1
-49.905098 88.004417 12.635007 18 1
-47.518433 92.893517 25.056244 18 1
-31.734356 87.918144 -36.984028 2 1
-49.953712 52.347660 -36.722408 7 1
2.484619 109.696300 15.190705 0 0
-58.669357 99.015968 -52.476097 6 1
43.933502 104.848250 6.257414 3 1
-2.696594 45.125092 -1.547624 0 0
-50.619205 83.462639 14.286361 18 1
-5.010361 54.148975 -2.186422 0 0
-53.819145 117.413550 -22.539289 6 1
-2.216036 98.094025 32.443760 16 1
-43.205387 48.710407 -42.513081 7 1
-51.970829 115.678780 -30.906868 6 1
1.483212 103.108010 18.243589 0 0
59.064407 102.242350 0.494097 4 1
-6.100987 18.305271 14.286016 10 1
12.717856 85.482979 42.477562 15 1
43.193520 65.266891 26.363979 14 1
-20.299501 98.579353 -7.351676 0 0
-80.663811 56.333626 -18.392492 9 1
12.864739 18.855211 -12.679598 8 1
-49.078503 107.088290 6.266695 18 1
32.341133 92.310501 19.908543 13 1
10.824564 113.266010 37.184109 15 1
16.023132 81.568886 40.699394 15 1
26.161552 98.243462 8.080560 13 1
-4.019147 21.416924 5.025434 10 1
-8.494340 122.437070 5.432871 1 1
-17.602573 83.842667 44.933590 16 1
-24.714588 115.292360 -16.405178 17 1
-54.755829 91.590889 3.578838 18 1
-68.758835 61.415905 -31.439125 9 1
-1.233236 18.187040 -2.142748 0 0
-53.325184 97.326820 5.567127 18 1
-52.042236 79.587585 10.937548 18 1
48.467319 74.523453 18.330112 14 1
-54.181862 107.823160 -10.646244 18 1
-87.689766 43.133007 -27.122362 9 1
-25.568741 120.696130 -12.768404 17 1
-1.479215 18.858025 11.688512 10 1
