-36.402443 102.768170 -29.762405 9 1
28.851154 73.426277 -34.322044 12 1
-57.428276 86.885361 0.077355 2 1
-21.321487 108.003940 -48.402344 10 1
69.484589 68.842850 -29.582056 13 1
-38.598942 93.110435 -11.477573 2 1
30.329163 84.365326 2.009828 11 1
4.102294 26.457207 23.190603 6 1
-3.675203 55.919250 -5.808902 0 0
-4.935771 33.553795 24.077074 6 1
11.961044 92.890083 34.730267 14 1
-29.574755 107.091850 -34.783401 9 1
-33.318119 95.175941 -24.438862 9 1
-26.062271 83.154953 16.525236 8 1
0.515445 110.406010 -41.239357 1 1
16.155293 73.111626 -8.021320 0 0
40.975372 63.135925 5.190215 11 1
34.258186 80.127968 -38.046005 12 1
-43.535873 78.699905 -18.508406 2 1
-35.413574 80.677917 -53.754520 10 1
8.132824 101.956980 6.904744 7 1
4.617508 92.002632 -1.648686 7 1
11.525457 86.376991 -43.153553 1 1
-42.183884 81.116081 30.879747 3 1
8.776651 102.985010 18.649132 14 1
-55.240700 84.552696 15.691191 3 1
-5.940626 108.415480 9.147156 8 1
-6.261627 41.741699 -17.152758 5 1
11.322009 97.463722 -39.438938 1 1
-46.514130 90.720581 -24.711176 9 1
-12.941214 38.529903 -11.870782 5 1
9.206099 111.355850 -21.868242 1 1
55.590939 87.100395 -24.997818 13 1
-72.070145 68.270866 11.522346 4 1
-1.737727 100.799090 -21.495470 1 1
-35.217453 108.177640 -19.847191 9 1
-37.679134 95.213654 -32.231819 9 1
-22.513723 109.990450 -23.551424 9 1
-50.722679 95.029060 4.496029 2 1
-72.460419 77.322144 3.188548 4 1
-14.732505 42.804615 7.210488 6 1
5.229392 103.446430 27.602253 14 1
-3.575996 41.486679 -4.112286 0 0
-45.534096 82.725266 -2.359710 2 1
28.312651 83.157471 -28.075865 12 1
-35.688667 87.717155 -45.535870 10 1
-4.945862 96.630165 26.459816 14 1
-5.650470 101.683270 -51.118481 1 1
4.964778 62.389481 -8.310416 0 0
-22.706345 96.394485 -56.946842 10 1
3.115617 108.167830 -0.996597 7 1
-63.352478 94.312325 5.594972 4 1
9.430750 85.869530 37.112568 14 1
40.477924 81.986908 -33.644478 12 1
-8.100290 111.974340 -55.473537 10 1
-30.444241 67.290329 -61.553596 10 1
-41.351864 97.278419 -4.786851 2 1
63.616970 80.251617 -26.816256 13 1
5.601956 39.746586 23.315771 6 1
-27.893476 102.599690 -23.998211 9 1
-44.087715 86.181717 -11.235598 2 1
60.548424 68.871101 -40.343121 13 1
-9.356877 96.927811 18.248392 8 1
-68.821892 89.676399 1.591108 4 1
-69.281853 74.994713 17.965611 4 1
12.433347 87.077721 2.685115 7 1
-40.530052 83.746262 -32.263645 9 1
41.982853 83.591972 -4.287178 11 1
-38.018005 89.301369 12.674453 2 1
51.328358 83.834015 -33.750839 13 1
-5.076970 98.021545 -28.347811 1 1
17.090057 98.211128 -24.955139 1 1
-19.621344 114.947150 -32.426414 9 1
-16.638172 99.277145 8.946277 8 1
6.349783 102.537000 -22.593548 1 1
-10.945087 110.989590 -42.869362 1 1
5.561720 95.206810 -34.332138 1 1
10.455249 85.450363 9.886594 7 1
-14.639758 78.132309 -68.089912 10 1
-46.048569 95.988586 -19.447771 9 1
35.491745 69.559013 -35.775894 12 1
-44.124989 91.691162 20.895548 3 1
-3.986061 86.307388 -11.095176 0 0
-4.279151 112.361660 -22.963865 1 1
0.990251 94.687012 9.803819 7 1
24.847576 82.336800 -11.539476 0 0
53.325363 76.351326 -10.149253 11 1
-60.583061 90.093834 12.355725 4 1
0.558542 113.384800 -31.953312 1 1
-19.259882 88.184990 15.138576 8 1
-4.036628 18.764759 -0.579076 0 0
-48.213276 92.549683 -1.873030 2 1
-11.935351 105.805050 -56.255543 10 1
-35.402740 105.235630 -13.141455 9 1
-50.061687 80.177864 -21.385433 9 1
-6.211337 101.042160 -65.425110 10 1
-45.621403 69.737961 29.774546 3 1
-12.667126 28.717342 -23.542135 5 1
-71.274811 69.883003 4.587485 4 1
-7.144955 104.062400 -18.129520 1 1
49.389874 76.133820 -42.955227 13 1
35.043201 90.148468 -17.285789 0 0
-15.603355 85.531624 -62.575672 10 1
-25.733482 111.968510 -30.393827 9 1
-15.009760 106.755340 -25.422520 1 1
2.317899 33.372608 22.764669 6 1
8.428573 46.488117 14.918227 6 1
-0.182316 5.701959 0.325433 0 0
10.015759 105.645520 -33.026127 1 1
-49.130253 82.861023 28.330635 3 1
30.449234 65.654243 -38.717476 12 1
-53.085484 75.551773 -11.745287 2 1
-14.602715 105.572970 -35.225533 1 1
6.067846 97.484932 -5.655634 7 1
-68.654793 83.079361 4.016180 4 1
-18.151928 30.502422 -18.511059 5 1
7.140913 96.455177 27.747263 14 1
42.752506 76.769684 -3.556205 11 1
-39.750435 85.260605 -24.534277 9 1
-0.853431 90.276955 29.896307 14 1
24.204958 78.135017 -31.813511 12 1
-11.227797 104.994490 -46.597633 1 1
-49.113800 73.265625 24.361967 3 1
-12.725441 103.319180 3.004667 7 1
-20.312811 40.047642 -12.261129 5 1
-3.203205 37.607075 3.554113 6 1
-21.964342 108.355870 -39.712135 9 1
-41.812832 90.003311 -29.835030 9 1
33.507309 88.157028 -10.031137 11 1
9.265805 98.216835 -26.992216 1 1
-31.601273 75.203590 -60.279087 10 1
-38.083469 96.009048 -17.726248 9 1
-30.325403 96.256035 -39.079525 9 1
-11.582054 106.774260 14.666055 8 1
-11.003472 90.417000 -63.650589 10 1
-50.935219 95.450218 14.123878 3 1
44.041336 88.002632 -22.036140 12 1
-28.614761 100.187580 -44.462406 10 1
-25.551363 91.919899 -52.757713 10 1
4.861602 115.590270 -24.855839 1 1
32.809322 84.734467 -32.985504 12 1
15.025383 85.083046 -37.552715 1 1
-3.525082 108.948970 2.868718 7 1
-42.938469 97.748604 18.214025 3 1
-12.466186 96.589836 -12.511611 0 0
0.847420 103.090780 19.305721 14 1
-22.249193 83.606544 -59.627037 10 1
-7.757260 61.469788 -4.004814 0 0
7.249285 99.955284 -44.319782 1 1
-17.223795 96.322678 19.440804 8 1
-11.797256 115.749910 -35.864765 1 1
-16.664957 113.124220 -24.193249 9 1
26.017437 73.075104 -40.339355 12 1
-44.753792 73.390320 35.380188 3 1
-6.124357 88.831680 -4.939521 0 0
-36.634315 87.470772 -14.473764 2 1
-6.306632 117.023510 -30.401964 1 1
-8.595138 37.645531 -21.958267 5 1
39.442989 74.246628 -31.831293 12 1
-41.537647 98.933151 -12.896369 9 1
29.707779 88.315659 -23.435425 12 1
-44.644825 94.174461 6.844948 2 1
-55.795712 80.759239 21.068335 3 1
-3.921597 98.834488 11.450745 8 1
64.718338 66.060989 -33.440853 13 1
4.562223 109.263700 -35.446175 1 1
-2.487205 39.265633 12.571591 6 1
11.295795 95.429970 -2.151554 7 1
-63.060249 83.658302 22.762938 4 1
41.184143 90.606178 -14.171588 11 1
-20.334206 112.874500 -44.198055 10 1
1.530739 93.413780 -45.166336 1 1
45.007965 86.271103 -35.438145 13 1
-38.506943 104.052620 -23.672733 9 1
-18.705231 104.627900 11.877001 8 1
4.226799 96.832741 -49.884705 1 1
47.254070 57.523201 -3.545712 11 1
36.390560 76.537178 5.336994 11 1
-68.137672 71.941498 23.466408 4 1
-66.152229 81.382812 9.858870 4 1
-26.475220 79.937431 -63.626644 10 1
-55.063396 90.372391 4.863775 2 1
-24.329668 103.420070 -29.320961 9 1
-38.466049 90.487114 27.786837 3 1
44.750324 87.463631 -8.503042 11 1
-36.859562 88.204544 -35.107349 9 1
6.362685 92.201935 -39.851257 1 1
-20.876057 75.403931 -65.410881 10 1
5.944437 87.521278 -46.254765 1 1
-54.581253 87.040421 21.504877 3 1
43.676228 92.686058 -26.223907 13 1
-9.815308 97.169876 30.453671 14 1
4.511427 42.415077 17.668974 6 1
-4.915515 113.176020 -42.694508 1 1
-25.434219 89.377357 16.345112 8 1
-16.399509 97.820869 -57.123444 10 1
-52.699902 83.031799 -1.266528 2 1
57.405945 72.891647 -36.624035 13 1
-31.249285 92.620110 -30.894747 9 1
-73.825592 77.606949 -2.896696 4 1
-26.041523 95.357689 10.427577 8 1
37.744865 88.092712 -22.520916 12 1
7.656130 44.321709 3.379726 6 1
-44.672413 91.133743 -14.966716 9 1
-28.466639 102.161540 -38.409832 9 1
-27.278112 85.742310 -54.526306 10 1
-51.954475 82.004860 -9.636953 2 1
-29.203140 106.732100 -19.283451 9 1
49.151268 85.237389 -13.198942 11 1
59.825512 83.173637 -22.734692 13 1
45.924454 94.772064 -17.925150 13 1
-44.288700 84.918938 -18.944628 9 1
-1.206515 100.934360 28.924011 14 1
11.709591 108.157620 -26.808735 1 1
-15.163239 41.484859 20.662561 6 1
4.452676 83.003304 34.973503 14 1
-21.823086 102.069340 -49.851601 10 1
2.081330 89.696106 35.242756 14 1
-39.232807 82.964027 36.107952 3 1
45.771824 72.304893 -35.223770 12 1
-52.350605 78.306435 25.598145 3 1
-10.438062 41.627083 2.964072 6 1
-11.115996 102.921310 -39.656487 1 1
-4.576837 107.995610 19.615358 14 1
-31.506832 116.514880 -15.124384 9 1
-23.217684 69.229057 -67.725426 10 1
-0.953125 96.981522 -32.743904 1 1
-1.894191 77.236572 -5.713386 0 0
22.911316 85.609207 -31.538916 12 1
-14.916258 70.664322 0.759014 0 0
-20.855566 88.508011 -63.077347 10 1
-40.715488 83.541969 -5.941617 2 1
-71.554459 62.509525 13.306054 4 1
46.554310 82.364044 -28.670013 12 1
45.983658 68.768295 -2.749577 11 1
28.588627 78.340622 -39.004543 12 1
-7.737947 96.912796 2.075590 7 1
-14.099544 89.541252 17.876314 8 1
-5.794330 98.276260 -37.943581 1 1
-9.784840 114.464880 -24.008537 1 1
11.186251 76.602470 -44.366718 1 1
38.975758 89.949448 -8.078404 11 1
10.734834 94.047295 -31.473181 1 1
59.643272 77.171829 -32.969643 13 1
65.617012 75.042290 -29.299500 13 1
-16.485659 110.783890 -39.638981 1 1
30.148380 81.733452 -14.080399 0 0
-58.498421 94.464371 15.726933 4 1
-49.793842 88.727051 24.505610 3 1
-11.310041 42.050655 11.951224 6 1
-9.899846 36.855553 -7.107836 5 1
35.532066 83.090889 -26.592939 12 1
-46.227886 63.968243 29.016251 3 1
-12.760829 103.469010 -29.801012 1 1
-6.644206 97.517975 -22.321682 1 1
44.476608 59.076347 2.806456 11 1
36.262455 82.766853 -5.162772 11 1
-48.646976 90.440033 -19.167854 9 1
-40.251190 86.772820 -42.052097 10 1
15.912321 88.850372 -33.233608 1 1
-49.925232 77.784653 -16.108704 2 1
-31.523809 83.997345 6.035792 0 0
-10.990035 102.473110 18.508951 8 1
-1.162343 91.910217 -1.728993 7 1
30.365320 86.090775 -4.458865 11 1
-9.101650 107.644880 4.240215 7 1
-12.963700 115.596340 -46.205872 10 1
-18.216179 104.031520 6.114000 8 1
7.658542 87.231194 -0.519880 7 1
-0.862261 105.275020 13.180024 7 1
-0.086743 39.176918 -8.190107 5 1
-48.586544 85.671860 -22.678585 9 1
-72.867012 65.330788 1.475242 4 1
-21.168219 100.421660 14.906424 8 1
50.406868 61.936302 -5.416230 11 1
-15.935280 36.612484 -16.539345 5 1
40.021858 69.009254 -39.351891 12 1
6.248080 93.713257 34.142014 14 1
-9.228962 96.594109 12.552643 8 1
-36.939091 90.503647 -24.037663 9 1
-39.096428 77.206352 -51.161232 10 1
-44.614193 87.681870 0.281816 2 1
-48.607689 97.401665 9.306558 2 1
-0.060830 59.783569 -7.845794 0 0
49.949501 86.678185 -25.346870 13 1
7.122769 97.956940 10.789801 7 1
-0.412466 40.976723 7.399915 6 1
-16.218260 106.993410 -51.350384 10 1
6.433792 105.079170 2.503811 7 1
-23.137892 77.770676 2.295387 0 0
-6.222484 101.501850 23.357355 14 1
-25.950462 96.461601 -35.358181 9 1
12.073206 83.339111 -1.508329 7 1
5.639109 104.460680 -4.380842 7 1
16.484346 79.137283 -35.153416 1 1
-42.509628 81.154648 -13.507180 2 1
-18.997740 94.595642 11.011736 8 1
-3.181183 96.489845 -44.613834 1 1
4.500007 105.783260 16.028059 14 1
-7.896627 36.688877 -15.409308 5 1
-2.021655 69.461441 -4.652848 0 0
-33.927223 84.676979 -49.880817 10 1
2.634103 93.246140 26.696260 14 1
-2.852848 97.752785 -6.080267 7 1
-4.894947 91.539795 -12.877644 0 0
11.863132 91.861877 -40.901863 1 1
41.383648 68.771248 5.702824 11 1
-14.467019 39.518818 -1.439754 5 1
16.192654 74.458549 -13.417147 0 0
-63.412045 85.330070 12.779255 4 1
-0.070724 99.743225 -51.940769 1 1
10.184199 90.892883 8.720122 7 1
-2.013941 105.815700 -2.043978 7 1
0.205445 107.317050 -45.832291 1 1
-29.121361 93.553009 -48.734528 10 1
12.355006 102.535320 3.368775 7 1
-53.319019 90.541664 -0.497433 2 1
-25.976074 117.702880 -20.249655 9 1
37.702709 72.549866 1.755091 11 1
14.590158 102.904340 -27.500452 1 1
-17.930096 117.319960 -27.663471 9 1
-8.153698 31.331356 -21.560179 5 1
67.068298 78.566772 -22.883371 13 1
-3.877184 108.272830 -19.296265 1 1
-36.374496 96.780403 -41.465374 10 1
29.211102 88.954178 -29.058800 12 1
-0.485690 29.191471 24.906593 6 1
-21.075710 91.020844 -56.880466 10 1
62.215996 86.633209 -17.933155 13 1
40.668819 78.659912 -28.855982 12 1
4.223883 90.429047 9.176154 7 1
-27.747557 111.937390 -23.719696 9 1
-55.236996 89.879791 16.989723 3 1
38.981781 85.644363 -29.813566 12 1
-7.733540 37.606827 21.549704 6 1
-12.576474 22.453012 -22.480947 5 1
-40.593693 105.901260 -14.646334 9 1
-51.776829 69.699493 21.297455 3 1
-32.942268 102.815620 -33.866810 9 1
35.435921 84.368546 0.132807 11 1
-32.166512 109.646640 -15.635718 9 1
-1.262144 43.448830 -16.307350 5 1
34.013428 74.066299 -33.094658 12 1
-5.393606 28.159639 -25.938330 5 1
-47.033188 78.382980 26.064590 3 1
-5.262040 34.606651 -5.760277 5 1
-28.251991 110.438440 -38.709499 10 1
35.658195 68.992607 11.649426 11 1
-7.361236 29.274239 26.140276 6 1
0.986567 89.746544 2.775744 7 1
-26.123857 104.025790 -47.454212 10 1
-41.737358 86.341545 31.632507 3 1
-11.182701 93.069901 -5.551788 0 0
-10.066612 95.624680 -63.621914 10 1
29.425444 78.008560 -30.985147 12 1
-55.468433 83.263573 -5.762230 2 1
5.518491 101.706070 22.597294 14 1
-49.207191 87.724869 19.352293 3 1
-46.673351 89.376045 -7.282911 2 1
43.313946 66.625237 1.295861 11 1
-47.433815 94.972885 18.027254 3 1
34.840351 83.170532 -12.123509 11 1
-1.789512 85.967743 -6.322217 0 0
10.291647 101.781980 -36.610092 1 1
26.649050 92.672836 -23.728994 12 1
-19.538637 115.056030 -37.678608 9 1
8.978282 83.575287 5.130754 7 1
52.877174 71.455505 -8.130515 11 1
-45.415977 78.414345 34.018608 3 1
-36.777122 100.369510 -14.560631 9 1
5.019275 91.634377 -49.759804 1 1
40.800869 76.774193 1.586350 11 1
32.294453 79.526154 2.445633 11 1
34.671661 92.584862 -6.681619 11 1
-3.619774 97.201515 31.690666 14 1
26.209669 77.247704 -11.605024 11 1
43.634628 81.456154 -8.843813 11 1
-2.457792 31.031273 0.805294 0 0
1.030590 112.558980 -23.003298 1 1
32.618382 73.106544 9.199130 11 1
13.628195 94.360970 -35.805702 1 1
-44.632839 94.306641 1.627715 2 1
-70.592873 79.649475 7.463539 4 1
-20.059935 104.919170 -35.194405 9 1
-18.860474 89.913246 20.020617 8 1
54.164944 84.893120 -29.478010 13 1
40.934666 60.915394 9.937483 11 1
-49.583923 80.716225 -5.200733 2 1
53.358322 92.504013 -17.944546 13 1
-31.914152 105.908130 -39.373486 10 1
9.881560 81.467445 -42.992481 1 1
0.348026 108.222790 21.306456 14 1
-45.732491 84.292763 24.609581 3 1
-4.974399 102.194270 -4.391262 7 1
-21.962797 114.075360 -27.560461 9 1
-41.093750 90.980461 8.879210 2 1
-69.030632 71.672386 13.945537 4 1
43.377499 77.788773 -35.435829 12 1
-34.057930 96.983307 -35.443138 9 1
-3.805784 41.866318 -12.118636 5 1
34.708126 59.812157 -40.840343 12 1
-27.586147 84.467979 -60.013428 10 1
9.826662 105.004970 29.269312 14 1
-6.373341 100.858370 29.398684 14 1
21.114338 70.788414 -39.661533 12 1
-32.086254 77.270470 -55.634926 10 1
-9.634293 100.812740 -0.620347 7 1
-25.095568 98.489563 -40.927761 9 1
42.659901 52.731113 5.482444 11 1
35.862053 75.736435 -40.066204 12 1
-4.644004 96.884613 6.672382 7 1
-4.939060 87.944252 33.477451 14 1
-31.786682 83.720825 -55.711102 10 1
49.479439 80.158813 -37.092957 13 1
4.513389 104.198750 9.672232 7 1
-0.088854 38.896870 -1.508083 0 0
25.635101 61.943775 -40.986282 12 1
-5.990284 93.345779 -1.054512 0 0
12.587544 71.623299 -11.299088 0 0
34.885784 92.070518 -23.769142 12 1
-11.631208 104.858270 -21.122572 1 1
-43.026215 81.726189 -22.632221 9 1
28.608820 69.016060 -41.976936 12 1
35.601234 95.103294 -19.421122 12 1
24.125811 77.370880 -36.910072 12 1
1.707920 95.163147 -4.490456 7 1
1.091347 91.451477 -53.168919 1 1
6.653096 107.245310 -20.527246 1 1
-42.173885 93.335304 -7.967444 2 1
18.033325 87.469170 -28.448044 1 1
-1.226286 109.480380 10.460814 7 1
-20.121788 98.848320 -53.436695 10 1
4.342248 104.941280 -43.894089 1 1
-45.709827 75.509964 -14.733153 2 1
-3.726207 43.681507 -21.084829 5 1
-38.666668 108.730800 -11.038340 9 1
6.673180 43.480465 8.385678 6 1
-9.638507 33.692329 25.825447 6 1
-45.099739 81.781372 -7.471868 2 1
28.805513 85.472145 -10.506864 0 0
53.171871 73.707932 -40.165237 13 1
41.279430 88.211945 -26.244652 12 1
-16.978416 110.393750 -46.869747 10 1
-55.398769 77.690773 17.147226 3 1
-9.784800 100.078210 -19.431608 1 1
-45.310894 101.031610 -10.480691 9 1
-41.343044 70.467361 37.450966 3 1
-32.892403 106.626470 -30.715519 9 1
-26.606342 76.117081 -60.495384 10 1
-51.615082 77.972878 20.664818 3 1
-23.897009 109.463520 -44.387691 10 1
-65.647072 78.300674 19.392454 4 1
-69.022217 78.284622 14.173378 4 1
40.461975 70.120720 -34.327538 12 1
32.818611 73.389832 4.079135 11 1
46.646477 77.569344 -6.518960 11 1
53.524281 88.477921 -20.749840 13 1
-29.166645 91.570694 -40.823654 9 1
55.277164 80.693710 -33.978695 13 1
13.168605 74.403954 -40.464832 1 1
-2.031646 104.658490 -49.283550 1 1
-62.646214 84.711517 18.002880 4 1
-31.233467 99.217331 -22.640417 9 1
-3.504922 9.252191 -0.285127 0 0
-33.158329 70.455978 -59.008995 10 1
-6.133397 93.374664 -6.724525 0 0
-26.378883 68.311531 -64.130852 10 1
12.097715 91.113342 -0.040779 7 1
-8.056809 112.726150 -46.383846 1 1
0.332620 111.729550 -36.567947 1 1
-6.709818 107.779620 13.933928 8 1
-9.516476 99.922897 -29.107906 1 1
-43.793030 99.528793 -22.153652 9 1
-50.664707 90.812180 15.519650 3 1
-50.464024 75.956749 -7.661147 2 1
-40.548801 89.048355 -9.569262 2 1
-9.252954 114.284290 -39.742352 1 1
12.600648 99.920944 -23.762787 1 1
21.226635 81.591385 -33.644264 12 1
-72.140816 72.310631 8.681973 4 1
-9.429861 93.217201 -14.403160 0 0
-2.020100 52.803154 -2.441866 0 0
-14.959230 82.695992 -66.422951 10 1
-23.617687 103.945560 -40.704811 9 1
-42.580299 92.285988 25.413040 3 1
-7.011603 106.253710 23.373394 14 1
-44.616669 86.997635 -27.364914 9 1
-35.193939 92.165558 -42.965973 10 1
-33.298035 100.184360 -42.993977 10 1
58.356606 68.494049 -44.585831 13 1
15.666058 96.300224 -29.123028 1 1
10.106871 95.893768 31.461773 14 1
38.855865 79.055580 -37.327160 12 1
-33.959381 91.174896 -48.332668 10 1
-2.809201 45.643883 -6.320266 0 0
61.377724 64.528305 -42.111149 13 1
0.452141 47.482994 -14.453488 5 1
-14.840287 32.665585 -21.172602 5 1
-1.311584 93.189713 33.629326 14 1
-5.648050 98.059624 -33.067745 1 1
-1.842132 100.111710 22.165596 14 1
52.098358 81.254951 -11.399917 11 1
-7.529149 87.973946 -65.761162 10 1
-34.995003 106.181940 -26.044613 9 1
7.369058 107.630390 26.178419 14 1
27.919170 69.821609 -37.355228 12 1
33.440331 67.564247 -41.861485 12 1
-47.719296 83.122559 -11.713941 2 1
-25.306366 111.147000 -35.067104 9 1
-39.132202 98.780792 -29.475430 9 1
-9.605897 103.467670 -59.840916 10 1
-26.040482 106.794590 -22.836067 9 1
44.889931 87.285042 -13.256408 11 1
-14.749350 102.606640 -58.283848 10 1
-3.436065 59.732151 -3.047436 0 0
-0.475571 21.795271 -1.155554 0 0
-13.205718 98.634087 20.360119 8 1
-24.605507 100.279650 -32.949184 9 1
-62.583454 90.333244 7.990580 4 1
38.424137 94.161713 -15.778641 0 0
-31.346703 110.691530 -20.912363 9 1
-14.449144 95.688377 -61.935543 10 1
-21.670120 84.587776 17.366402 8 1
-45.380375 98.741196 -15.588513 9 1
8.721904 37.795834 26.293676 6 1
10.715718 98.344131 1.724822 7 1
40.759838 63.911999 -38.282101 12 1
-34.815929 92.349586 -36.075150 9 1
-47.409573 91.398186 4.267398 2 1
58.214848 83.738113 -27.137060 13 1
-44.389416 74.448593 30.833958 3 1
-52.430672 94.710747 8.840937 2 1
9.356434 42.189373 24.662613 6 1
6.588371 66.723061 -8.988986 0 0
38.657410 66.299385 8.578658 11 1
4.889300 99.537399 30.432865 14 1
50.000317 68.733582 -5.116373 11 1
2.403780 105.784210 24.706921 14 1
-49.083675 89.705490 -14.503682 9 1
18.795557 76.496628 -9.832622 0 0
-12.263553 110.171550 -54.413490 10 1
30.595694 92.422813 -26.181847 12 1
-46.047985 95.325264 -24.248219 9 1
26.247807 83.606491 -15.781134 0 0
-45.933887 97.770004 13.103409 2 1
9.112520 89.287102 33.811295 14 1
6.008393 83.752487 -50.158180 1 1
-22.081045 79.578178 -62.188747 10 1
27.633045 85.732887 -32.077866 12 1
-41.941723 94.869843 -15.161700 9 1
-70.977531 65.925110 7.683192 4 1
-14.339916 38.260078 -7.329965 5 1
-51.876595 84.587311 25.031853 3 1
70.075752 73.462273 -29.723013 13 1
-4.912585 97.747925 -48.711502 1 1
1.994861 103.507410 -21.343887 1 1
-6.902569 40.884575 12.766591 6 1
45.445339 86.065018 -26.084391 12 1
-28.583439 90.001305 -55.678577 10 1
-18.888849 109.050810 -26.277395 1 1
1.614304 40.004955 15.020720 6 1
61.403366 68.420189 -35.864681 13 1
-4.828889 79.360657 -8.532009 0 0
-10.152940 113.962590 -51.851761 10 1
-7.120727 38.438732 -26.210443 5 1
-3.965329 66.264015 -7.290192 0 0
-23.525229 96.101738 -52.125950 10 1
-49.631626 70.089775 27.620733 3 1
-23.827291 113.919580 -21.629692 9 1
-21.301350 90.687859 11.582707 8 1
9.033124 88.419357 -39.736359 1 1
-4.378987 114.871480 -26.870323 1 1
-40.673271 85.351135 -14.397876 2 1
4.701255 30.350845 25.479544 6 1
-37.104969 108.840240 -15.337738 9 1
6.230411 97.023438 -30.214699 1 1
58.544384 87.520851 -21.562716 13 1
-4.564131 37.700432 16.802794 6 1
-38.733543 105.481560 -18.858446 9 1
-32.362820 104.883330 -16.568352 9 1
37.164299 89.670692 -12.243425 11 1
-43.058784 93.694908 -2.595384 2 1
-1.458622 98.734879 -25.730326 1 1
8.424802 92.682343 -4.307446 7 1
-3.031996 30.288710 -3.626840 0 0
-60.948368 94.085915 9.883142 4 1
-34.519295 96.783905 -20.401731 9 1
-27.197073 91.466171 12.761056 8 1
22.832481 80.214554 -14.974002 0 0
-13.925714 95.729897 -8.271648 0 0
32.026363 87.788414 -0.631729 11 1
-28.994833 71.509567 -60.934879 10 1
47.605740 90.515106 -25.601126 13 1
-4.458725 92.875526 29.196175 14 1
-11.447378 93.153694 16.984367 8 1
-66.366318 90.984985 5.477514 4 1
60.152622 78.002831 -28.586121 13 1
3.646318 96.228485 13.074935 7 1
-4.083917 61.655697 -7.139552 0 0
31.153847 89.919418 -19.500462 12 1
-26.530140 106.334470 -38.185032 9 1
-1.552357 44.785316 -1.858753 0 0
-45.385048 74.665070 -19.116035 2 1
-41.130920 94.495392 -29.160831 9 1
-1.784752 34.682850 20.878305 6 1
1.971138 86.080124 32.629906 14 1
-13.192392 40.591019 16.653913 6 1
-46.429382 80.507202 -15.585912 2 1
-69.845993 74.765205 5.738246 4 1
7.589899 88.557289 11.489445 7 1
-3.498190 103.699100 20.092190 14 1
-6.505152 99.044556 15.128227 8 1
45.572186 93.013977 -22.024677 13 1
8.806148 100.801900 27.772842 14 1
-22.799726 107.062600 -27.023342 9 1
-7.787353 87.070930 -8.914357 0 0
24.688772 72.662674 -36.114693 12 1
45.738785 73.451118 -1.825852 11 1
0.992271 109.204620 2.770721 7 1
-73.314941 73.019386 2.164926 4 1
-19.227491 95.543549 -59.767532 10 1
3.702780 113.838390 -28.855431 1 1
11.220263 83.695915 -39.398273 1 1
0.114919 24.622353 23.791491 6 1
57.174816 72.022079 -41.029537 13 1
-13.770839 107.961220 -44.516155 1 1
-41.525593 82.895287 -27.925095 9 1
36.610455 71.384735 -40.875340 12 1
-8.446151 101.485540 -47.547001 1 1
40.822144 80.497185 -1.039797 11 1
-33.092037 88.936180 -32.757469 9 1
-30.337976 98.048218 -47.918236 10 1
0.109067 91.810562 6.561628 7 1
-4.037440 14.346848 -0.614926 0 0
31.676474 85.126221 -25.999826 12 1
-62.866661 88.528732 15.827204 4 1
-10.058427 107.509060 10.394255 8 1
-37.702133 82.487236 -50.416008 10 1
-49.641033 73.661392 -13.716741 2 1
-28.656698 93.107536 -34.500340 9 1
-45.408337 84.257217 30.423258 3 1
9.646552 84.138672 -46.514133 1 1
65.536423 70.261131 -30.992119 13 1
-53.747055 86.887024 2.535917 2 1
-15.371296 115.752000 -33.149418 9 1
-13.470078 97.203636 11.145605 8 1
-13.280440 100.744380 6.555292 8 1
-9.190731 35.794811 -11.292820 5 1
41.243153 58.398880 5.672358 11 1
-30.222157 97.376022 -26.603785 9 1
-29.250164 109.258720 -31.001659 9 1
47.155445 82.638222 -34.329105 13 1
4.963711 91.000572 -43.814850 1 1
36.203091 82.479973 -34.930790 12 1
24.429901 81.934715 -29.687849 12 1
-15.381391 88.509018 22.233757 8 1
-15.148229 112.830760 -43.650841 10 1
-54.778069 86.886131 -3.456285 2 1
-9.188149 108.646170 -58.065140 10 1
32.412697 63.335983 -41.933636 12 1
4.174490 108.303630 -39.663090 1 1
-20.871914 98.156364 9.363234 8 1
-70.500252 66.401199 15.225132 4 1
-46.769474 79.129684 -23.995689 9 1
-47.409245 97.862267 5.176785 2 1
-23.362911 85.015198 -63.559963 10 1
49.085754 88.205818 -10.066302 11 1
-41.695377 76.027710 33.874100 3 1
39.395496 82.143089 -8.055401 11 1
42.815693 83.617188 -30.402069 12 1
-0.811766 95.497353 25.437250 14 1
39.316204 86.947578 -4.809931 11 1
31.172935 82.610260 -36.349491 12 1
-44.327095 88.165497 23.351242 3 1
-11.696712 38.946655 20.510761 6 1
-0.146980 16.928728 -0.441704 0 0
9.267872 97.805565 7.067903 7 1
-18.102081 78.686234 -65.388451 10 1
-35.958771 99.532898 -32.554497 9 1
-15.096107 27.793621 -20.123600 5 1
26.757652 86.769737 -26.143997 12 1
-5.175021 33.753899 -1.084309 0 0
-4.926782 100.106320 -18.484200 1 1
-33.924500 92.049004 -27.296633 9 1
-11.251279 96.806480 -16.691856 0 0
5.502481 87.329391 36.255463 14 1
-23.475407 81.225128 19.331564 8 1
-48.812767 84.271492 0.015461 2 1
-7.879105 112.889100 -20.498762 1 1
4.937440 111.121690 -21.909657 1 1
-6.378553 40.578171 3.785829 6 1
-41.480515 95.032158 21.198084 3 1
-52.821785 82.328400 18.451908 3 1
-71.751259 80.065865 0.003236 4 1
5.854099 105.802870 20.064159 14 1
-2.203823 110.679850 -44.823460 1 1
-14.657244 109.873540 -22.276625 1 1
-15.569852 106.480420 -30.858809 1 1
-25.539406 93.148529 -56.826977 10 1
-7.453018 105.453270 -49.089031 1 1
-15.689225 105.632780 14.813053 8 1
7.517969 92.810715 30.130671 14 1
8.774151 100.953060 -40.492931 1 1
2.152044 37.541405 22.021261 6 1
-15.296023 89.845261 -63.222317 10 1
-45.018162 69.346764 33.946545 3 1
-43.383289 102.485060 -14.273886 9 1
15.309256 93.164360 -32.111679 1 1
7.878596 112.663550 -25.863060 1 1
-21.837055 65.075272 -68.412071 10 1
-70.842186 85.958878 1.833930 4 1
10.655474 107.391050 -21.990482 1 1
43.772816 89.089218 -32.328094 13 1
-19.575174 104.205780 -39.515594 9 1
-37.607376 93.148186 -20.818987 9 1
7.532583 42.504623 20.612087 6 1
8.170474 101.128740 -5.343387 7 1
5.108982 35.924389 25.030149 6 1
-20.393063 105.489990 -51.862652 10 1
9.441194 89.636101 -44.952084 1 1
-18.395079 75.831596 -68.989128 10 1
-30.719217 103.644360 -42.719929 10 1
-1.669113 104.657970 -19.620047 1 1
-20.323172 87.447548 -58.961300 10 1
-3.765479 114.385480 -32.460884 1 1
-3.295423 73.523964 -4.354685 0 0
34.535633 65.838676 -37.819035 12 1
55.717834 76.543777 -34.325897 13 1
-0.677551 34.601292 2.076993 6 1
-1.426010 106.101800 17.244884 14 1
-42.387337 85.766190 -2.700256 2 1
-68.363441 87.242859 4.964175 4 1
-54.521442 78.682571 -9.376973 2 1
-38.989655 85.190933 -45.976627 10 1
39.666126 91.482666 -24.032799 12 1
44.724255 80.457825 -3.994943 11 1
-40.284019 101.097030 -26.023964 9 1
-37.061882 89.793907 8.641640 2 1
13.719299 88.902618 -38.618694 1 1
-36.514969 76.736404 -54.565586 10 1
-23.919798 97.990417 12.925457 8 1
-12.240098 86.477592 -64.849991 10 1
3.300270 42.883835 5.907908 6 1
2.843431 100.658650 -24.261166 1 1
-48.049557 91.964790 22.318298 3 1
-24.195749 88.596733 -55.470455 10 1
2.497053 108.983980 17.776798 14 1
3.445217 94.537552 -37.846832 1 1
-3.603426 37.409821 -3.153799 0 0
31.688957 76.150238 -40.816944 12 1
39.490322 72.580185 5.503051 11 1
-47.395885 94.078781 -16.021488 9 1
50.721325 76.952370 -6.980243 11 1
16.927568 102.235890 -23.976017 1 1
-10.338036 99.954933 3.389502 7 1
-18.866041 82.578522 -62.436741 10 1
-42.326763 84.937080 27.748793 3 1
47.897034 65.277153 -4.272425 11 1
-38.719875 102.999060 -11.526737 9 1
-4.300346 38.474075 -14.431701 5 1
-26.553911 93.371971 -38.045139 9 1
-16.942392 37.678288 -12.521369 5 1
-1.355707 101.079550 13.771482 7 1
-9.288625 108.564780 -45.893757 1 1
-5.232676 39.808121 -20.646168 5 1
9.940542 95.287468 -42.656807 1 1
32.039421 81.248550 -28.573395 12 1
-56.795296 83.011528 -1.868644 2 1
20.335112 77.580498 -33.340694 12 1
-38.820232 90.908073 -32.517292 9 1
45.679043 83.513557 -11.766900 11 1
-8.302501 115.425050 -33.718563 1 1
-21.575834 112.436030 -40.108341 10 1
-8.644851 27.474575 -22.897667 5 1
-39.922859 89.765755 -13.571203 2 1
-30.093410 102.756030 -20.531492 9 1
33.746891 87.576279 -23.320852 12 1
-51.233261 91.268166 6.058922 2 1
-18.216351 34.533318 -19.602699 5 1
-42.211967 89.928276 12.685060 2 1
-21.837706 91.230568 17.523449 8 1
-47.739662 80.159050 31.126923 3 1
43.440613 73.261147 -31.991070 12 1
-8.314138 65.160118 -2.309303 0 0
6.867486 43.582748 12.490112 6 1
-12.126743 35.358963 -14.329338 5 1
42.533993 90.393799 -10.306135 11 1
-46.028160 87.225769 -16.046270 9 1
-43.671513 97.489098 -1.198104 2 1
-41.967701 79.936859 35.853981 3 1
63.920570 82.398148 -23.235901 13 1
34.956551 75.844513 1.574169 11 1
-5.781412 103.899040 26.632612 14 1
-22.997528 87.553459 13.597480 8 1
-53.575535 93.612213 16.635439 3 1
-41.573380 81.686264 -9.522657 2 1
-46.365879 81.667458 -20.269350 9 1
-44.670212 81.449837 27.345280 3 1
-36.936935 85.571312 -31.651175 9 1
50.108509 84.345909 -28.896820 13 1
-28.298304 94.971924 -52.462219 10 1
-0.143741 1.621822 0.178025 0 0
-48.426155 85.912445 -8.739510 2 1
-1.491466 109.771450 6.292459 7 1
12.590878 87.390495 -1.615285 7 1
-46.527966 73.518585 27.508936 3 1
10.791268 47.525337 18.053305 6 1
32.339279 89.174477 -6.278359 11 1
11.402843 90.473854 4.837805 7 1
-8.804500 114.928390 -27.914703 1 1
-20.939650 92.037643 -60.867237 10 1
-50.471703 80.370049 -13.036152 2 1
22.529682 78.428474 -10.422987 0 0
-23.865705 100.337940 -53.152874 10 1
-2.848980 112.445520 -39.283295 1 1
-67.733658 75.555153 21.712534 4 1
-2.418052 50.958637 -6.008944 0 0
63.000820 66.027824 -38.738426 13 1
-68.749107 71.286301 19.446512 4 1
-17.591352 91.241646 13.047429 8 1
-39.379932 85.134254 -9.388545 2 1
-3.024310 83.056931 -8.812760 0 0
-34.988308 82.075394 -7.807789 2 1
-68.306572 84.190186 7.943127 4 1
27.843075 80.487038 -9.595462 11 1
-16.307444 42.621895 10.941548 6 1
14.586207 82.595070 -34.381554 1 1
-29.777683 78.846992 -60.633648 10 1
-21.306440 104.211340 8.673627 8 1
-10.719657 42.276752 6.990456 6 1
10.846104 48.012310 12.089323 6 1
-52.976112 74.530548 24.134802 3 1
-15.705460 116.214450 -37.147564 9 1
9.003035 94.637123 9.506356 7 1
-23.208603 78.600227 -66.018784 10 1
-8.352029 34.909512 -19.047258 5 1
29.690866 80.691444 5.252079 11 1
12.755640 83.200729 3.670122 7 1
31.693748 70.805527 -35.924767 12 1
-0.252970 57.545326 -4.532875 0 0
-47.194370 90.938057 18.084894 3 1
48.311867 86.308662 -32.883461 13 1
12.416958 103.345590 -30.811401 1 1
7.868766 82.172318 36.840405 14 1
42.335373 93.859512 -16.450842 12 1
-25.674997 110.289070 -20.759398 9 1
43.266624 70.002724 -37.293785 12 1
-2.220607 89.781181 -10.354214 0 0
-56.883911 84.197472 19.421228 3 1
44.305336 63.035076 2.849830 11 1
38.345673 66.658791 -36.637966 12 1
4.032353 111.513070 -32.163059 1 1
-8.766314 99.477455 -62.855125 10 1
27.999544 65.029343 -41.748318 12 1
-3.481028 3.647636 -0.386390 0 0
44.433823 80.456535 -32.487305 12 1
-22.944334 105.762410 -45.593376 10 1
-20.561989 113.997510 -23.830517 9 1
9.230686 83.913567 1.154774 7 1
7.651386 106.793520 -36.313950 1 1
1.787166 105.375110 -3.424706 7 1
1.218671 91.839935 -48.773472 1 1
-44.157387 92.673706 -27.178274 9 1
-23.630062 73.153137 -67.081078 10 1
-19.565844 26.896032 -19.163382 5 1
12.767287 98.187744 -35.636948 1 1
-48.483170 94.973106 1.258809 2 1
-3.816648 38.253319 -6.976276 5 1
15.923569 94.525963 -25.638741 1 1
40.633907 89.733788 -20.405157 12 1
-31.528076 99.504715 -37.255402 9 1
49.239586 79.602402 -40.960144 13 1
-7.795871 107.862150 -18.804419 1 1
4.448069 88.593269 1.369605 7 1
38.734936 84.010254 -1.932783 11 1
-2.280989 89.613419 -5.008369 0 0
31.720747 85.239326 -13.399220 11 1
-52.677280 87.019058 17.679491 3 1
-50.738075 75.164886 27.355473 3 1
-21.959311 113.254310 -35.045338 9 1
45.857628 84.081810 -6.916325 11 1
-50.595520 89.800156 -3.264032 2 1
1.581919 95.228882 -52.266491 1 1
-25.217970 111.379640 -40.990597 10 1
66.852585 78.099510 -27.036621 13 1
41.230438 74.061188 -1.168454 11 1
-30.567163 85.206818 -52.330727 10 1
45.268028 59.728985 -1.006567 11 1
-27.531170 100.366920 -27.159941 9 1
-73.324600 69.206993 1.314006 4 1
-3.583044 97.947983 -52.355049 1 1
59.899593 80.501450 -25.551868 13 1
0.340409 97.916901 11.936778 7 1
-11.460632 95.241837 21.080019 8 1
-44.308929 78.182823 29.409040 3 1
-47.933384 94.442558 11.886751 2 1
8.433797 93.058800 -35.901016 1 1
-1.534990 115.823120 -29.637877 1 1
-12.123898 37.784912 -4.076612 5 1
-12.515174 104.403970 -42.993889 1 1
-15.659216 106.192670 -55.271786 10 1
-7.774264 99.248665 26.150557 14 1
-64.212479 89.055733 11.536059 4 1
-33.161251 108.441600 -23.471714 9 1
7.257239 86.768677 8.084223 7 1
12.801496 86.828728 -34.828762 1 1
-59.824825 90.910431 16.575619 4 1
49.620216 93.429794 -18.132086 13 1
2.843077 97.104172 -32.051434 1 1
11.553226 86.786163 6.442633 7 1
5.504427 98.764297 25.143787 14 1
-18.614819 99.396729 17.598351 8 1
12.930104 97.005615 -26.245367 1 1
-18.997826 85.605042 -64.800903 10 1
33.272488 83.886444 -3.027556 11 1
2.603322 93.636551 -41.486256 1 1
-40.991703 86.321480 -20.861832 9 1
4.278043 100.972110 -5.856943 7 1
-23.923990 75.207375 -63.089401 10 1
-24.754574 80.454926 -59.581112 10 1
-50.486286 83.600212 -19.674381 9 1
-45.761715 92.261063 -4.903126 2 1
9.702869 108.260030 -30.174356 1 1
-19.874889 68.244041 -69.317162 10 1
52.947823 81.589394 -31.075962 13 1
-65.107445 82.182617 19.892349 4 1
-26.064732 100.040080 -47.385456 10 1
10.198675 102.791530 -22.632956 1 1
-1.716942 89.367920 35.037067 14 1
-28.955597 116.547160 -17.964563 9 1
-47.909519 86.387573 26.982128 3 1
5.145417 99.674149 -47.489681 1 1
22.081856 86.753525 -27.911915 12 1
-38.274685 85.573532 -28.084326 9 1
-31.561878 113.219600 -17.208391 9 1
-48.542126 94.037766 7.520644 2 1
-44.651428 66.391541 31.496490 3 1
-17.034920 39.962795 -9.424821 5 1
-19.567272 115.503970 -41.559906 10 1
-3.640281 39.599686 8.964037 6 1
-11.617119 30.059576 -20.145929 5 1
-50.213989 74.144783 -17.438030 2 1
5.900786 85.767921 32.800484 14 1
1.432925 102.860310 26.999519 14 1
-19.230457 38.201057 -15.505592 5 1
42.620300 55.805725 3.257610 11 1
26.562792 79.863487 -14.320027 0 0
-8.615181 38.944656 -18.363270 5 1
-7.824690 98.495483 -25.794178 1 1
-16.398254 92.983063 21.061249 8 1
-44.484562 95.667694 10.314278 2 1
-9.625933 94.688408 -10.898495 0 0
2.286885 61.873837 -5.697129 0 0
-41.268070 88.674309 26.020626 3 1
-0.538785 28.569574 -1.373039 0 0
13.110764 79.468529 -42.845608 1 1
-46.871380 67.337616 27.149832 3 1
62.335598 74.884270 -31.148308 13 1
4.937068 105.366140 6.010194 7 1
43.750980 91.538536 -19.053391 12 1
38.154064 85.067123 -24.757809 12 1
7.606576 104.192440 24.676672 14 1
32.361969 88.777992 -15.003500 0 0
35.964340 79.637978 3.238937 11 1
-38.592182 87.344513 29.838289 3 1
-25.340944 112.602810 -26.521360 9 1
-42.240677 83.358505 33.888351 3 1
-14.932989 105.640970 5.143256 8 1
-18.481421 86.499138 18.513334 8 1
-47.716141 72.543221 31.115555 3 1
-4.110125 29.719803 24.111795 6 1
-6.787223 103.282550 -62.479649 10 1
-22.050951 104.713230 -31.996761 9 1
-10.285599 105.716770 1.236863 7 1
-37.477451 89.237999 -42.517475 10 1
67.985191 66.063179 -31.626318 13 1
-7.426764 97.559631 -66.353683 10 1
-8.138680 34.442116 -23.826773 5 1
-49.458073 76.898499 23.560530 3 1
65.363579 62.839172 -35.294731 13 1
-3.600814 96.974525 -40.667473 1 1
-24.624132 84.919876 -57.017315 10 1
-31.713717 80.385490 -57.651089 10 1
-53.200256 92.876793 2.726624 2 1
-1.212192 110.306100 -20.927710 1 1
12.349043 90.823204 -32.544949 1 1
-71.712029 80.984726 3.637559 4 1
-17.946915 71.531776 -1.217841 0 0
-11.856906 103.181300 -36.019650 1 1
35.365772 86.199997 -30.480900 12 1
-19.378723 100.140440 -56.836758 10 1
-1.942209 80.940826 -5.954796 0 0
-52.023083 71.029068 24.900696 3 1
1.708449 106.439300 10.602573 7 1
-26.575392 103.467760 -43.817303 10 1
-14.107151 105.042360 -39.038410 1 1
-2.509778 97.155373 -36.186527 1 1
24.327414 69.268509 -38.434788 12 1
-66.711105 83.582260 12.788344 4 1
9.612136 97.844574 -4.424919 7 1
-49.988182 79.100426 28.384060 3 1
44.287952 79.418571 -28.747469 12 1
-38.523678 84.735191 32.939110 3 1
-70.631805 75.081123 13.220591 4 1
37.411331 80.289871 -28.233969 12 1
-12.040630 80.478294 -66.908752 10 1
6.201379 99.841927 -25.718790 1 1
-28.097153 88.910606 -52.175186 10 1
-21.851887 87.838020 19.217951 8 1
-70.993759 69.846390 16.605564 4 1
2.376272 93.172592 33.823956 14 1
-32.766254 96.560844 -42.521252 10 1
-47.353390 92.827904 -21.797361 9 1
7.537769 108.728550 -33.174351 1 1
-8.583821 100.682220 -38.152813 1 1
-28.143682 65.107140 -63.657681 10 1
-26.532791 86.309486 14.620830 8 1
-25.316441 104.652080 -25.747000 9 1
-12.766011 114.388730 -41.241341 1 1
51.909969 89.455582 -23.927952 13 1
-12.853622 103.573330 -26.044426 1 1
-14.535275 25.563900 -23.000774 5 1
14.911047 76.762955 -37.556171 1 1
-53.518806 81.464249 23.998034 3 1
-1.355050 32.726948 24.105001 6 1
-13.071468 113.157190 -22.717726 1 1
25.790142 75.271309 -33.475212 12 1
-22.631313 93.933006 10.499617 8 1
51.020935 76.652153 -39.704262 13 1
-22.393795 93.536705 -54.489616 10 1
-8.747492 96.435890 -19.512184 0 0
-20.050741 109.288630 -45.203014 10 1
-72.626648 63.478107 9.851961 4 1
53.006374 84.709862 -26.011997 13 1
-42.110981 86.377266 -30.272253 9 1
-5.137208 76.072662 -6.934006 0 0
3.007195 90.667534 29.257664 14 1
15.312205 81.108955 -38.002975 1 1
-9.030212 104.988590 16.732004 8 1
-9.941336 117.159450 -30.666843 1 1
-38.727936 94.124878 27.834303 3 1
-58.166016 93.625641 12.197540 4 1
-0.907815 97.891541 -29.224333 1 1
-8.874278 90.465233 -6.661489 0 0
-6.689277 107.878070 1.455896 7 1
6.617386 96.850128 32.359802 14 1
-17.509211 106.351680 8.863201 8 1
-31.682789 92.911057 -38.585327 9 1
-19.450975 94.821747 -56.223137 10 1
37.398388 71.985626 -33.808540 12 1
-17.558388 107.141080 -33.813713 9 1
-3.957540 22.722948 -0.821609 0 0
51.331184 73.041092 -43.207352 13 1
-69.342018 79.917053 10.846704 4 1
0.637449 40.157398 10.885273 6 1
35.002804 82.221939 -8.585951 11 1
7.829051 45.261307 18.263069 6 1
-72.351456 75.681084 -0.219161 4 1
-47.182301 92.468323 -12.699386 9 1
0.919744 115.816370 -24.557541 1 1
1.504855 107.609050 14.590193 7 1
28.866924 84.188744 -7.133443 11 1
-19.704191 101.103320 7.605009 8 1
38.414745 91.225273 -17.985527 0 0
-32.637939 73.725388 -57.158810 10 1
59.563766 73.636711 -33.668598 13 1
-47.120159 86.045052 21.783838 3 1
-7.905309 94.121017 30.325153 14 1
-0.611412 54.052464 -5.514698 0 0
-55.966946 81.273911 16.983313 3 1
40.382938 70.133400 2.526751 11 1
37.847744 89.335358 -26.526447 12 1
-11.272115 112.983740 -47.999725 10 1
-0.065227 41.971245 -3.525776 0 0
-17.203791 88.100754 -60.617649 10 1
35.596264 92.343918 -14.500346 0 0
-19.229439 93.499908 18.488268 8 1
-70.126755 69.344414 8.648776 4 1
-41.211197 102.235370 -22.180691 9 1
7.263912 96.954514 -46.511703 1 1
1.081639 96.341003 -35.622566 1 1
7.993617 86.038277 -43.648003 1 1
-44.213486 91.207237 -0.206979 2 1
-13.718358 106.472260 11.807471 8 1
0.150877 38.592556 4.331773 6 1
35.904278 73.602898 7.760487 11 1
-7.666120 37.084595 -4.324532 5 1
-1.706401 94.975426 7.388890 7 1
-11.143455 25.237885 -24.200474 5 1
11.561060 81.618034 6.640970 7 1
-8.105479 92.440567 -3.788438 0 0
2.937332 39.283894 18.821873 6 1
-4.366182 37.257683 20.337898 6 1
-0.687214 95.057327 -42.501980 1 1
43.913258 90.590401 -29.098358 13 1
-40.214764 93.006310 -17.812752 9 1
-47.868164 81.158287 23.981968 3 1
-41.674984 74.002670 37.052681 3 1
20.814089 83.021736 -30.291969 12 1
-24.912218 86.163528 18.032604 8 1
7.188586 104.558260 -1.181766 7 1
-31.796829 80.582924 -54.046459 10 1
0.897981 98.473595 -5.566112 7 1
45.214870 83.189468 -37.251286 13 1
-28.331093 87.130989 -57.751099 10 1
41.150230 80.151237 -4.556803 11 1
-1.446442 87.330093 32.145050 14 1
-7.853909 100.950550 17.866947 8 1
-6.394049 85.443726 -6.090914 0 0
-43.020950 88.691254 -17.292862 9 1
-48.413265 82.285408 -23.706400 9 1
39.592449 92.158562 -11.416578 11 1
-27.599133 95.590546 -41.287323 9 1
27.306314 91.716820 -27.280262 12 1
12.848802 94.250145 -28.502563 1 1
-49.639465 87.026169 -19.413113 9 1
-22.600407 113.532810 -31.144093 9 1
-3.650117 45.513714 -17.946951 5 1
-18.434029 107.967190 -41.240295 9 1
-64.656876 84.750671 9.521589 4 1
13.871077 107.529020 -23.959324 1 1
26.990467 66.748451 -38.831547 12 1
-37.288010 90.688416 31.127934 3 1
-49.251408 75.905518 -11.022532 2 1
-72.894447 66.758118 4.816309 4 1
-43.813751 90.314941 -9.166171 2 1
31.960617 87.080254 -30.271273 12 1
-20.798273 32.823601 -17.928722 5 1
-0.864858 37.222576 -5.354814 0 0
16.104607 71.613289 -11.307669 0 0
60.497139 71.430450 -37.445618 13 1
-5.967706 108.735380 5.404081 7 1
1.876190 85.187408 36.029518 14 1
-43.973103 96.411781 -12.647086 9 1
-21.753340 102.508940 12.140591 8 1
25.518908 87.743530 -29.800879 12 1
-14.297297 68.798683 -2.150588 0 0
33.269909 78.122047 5.607389 11 1
2.314404 107.927880 -43.093529 1 1
-28.174158 110.830890 -28.055773 9 1
-40.864819 86.952400 -6.738088 2 1
44.614136 91.109116 -14.755890 11 1
-52.292473 89.664406 22.204401 3 1
-17.102886 73.172607 1.848977 0 0
-66.057289 80.165527 13.185096 4 1
-47.991516 93.040565 15.147795 3 1
-3.400712 107.568820 12.448095 7 1
63.039555 84.759903 -20.810425 13 1
41.650059 85.912796 -23.637491 12 1
-13.808558 114.408320 -25.972473 1 1
4.064876 92.838120 11.710728 7 1
14.468503 90.970009 -35.737942 1 1
-35.738880 98.585495 -17.483847 9 1
-19.035109 103.282820 15.171385 8 1
-44.050312 94.394730 18.666037 3 1
32.440113 90.381386 -2.932910 11 1
36.566250 86.203232 -12.040306 11 1
-13.209343 104.786550 17.129810 8 1
-56.075504 89.903870 1.558400 2 1
-1.421562 94.777084 -47.091564 1 1
5.402803 94.467049 -4.040683 7 1
5.531406 101.146810 11.067395 7 1
37.003418 67.921814 -40.882362 12 1
51.874371 80.205399 -34.545498 13 1
8.928662 89.524292 -2.927674 7 1
-8.438009 91.311272 -66.163261 10 1
16.448030 85.526382 -34.117710 1 1
-3.519253 48.102036 -3.951769 0 0
37.910049 76.998451 -30.352787 12 1
-54.862354 77.511238 21.892382 3 1
-7.349938 30.847805 -24.917439 5 1
3.495906 106.819790 3.153056 7 1
-7.237421 98.740379 10.426597 8 1
-0.036842 9.138790 -0.301870 0 0
35.051178 91.261200 -9.887265 11 1
-17.263309 105.891400 -37.429352 9 1
-9.901280 102.323510 -44.118183 1 1
-25.269764 101.991020 -50.235378 10 1
24.253632 80.778122 -35.456558 12 1
-4.026614 118.617580 -28.276442 1 1
-17.023973 110.223020 -50.353016 10 1
29.604713 62.437534 -40.100647 12 1
-10.991480 108.513820 7.212317 8 1
-29.513697 76.706467 -57.885059 10 1
-0.583210 40.770164 -11.477153 5 1
-23.390785 105.150510 -49.254158 10 1
-8.681165 113.747400 -43.111622 1 1
2.636709 89.483894 6.157266 7 1
50.331264 87.785408 -28.609049 13 1
-1.835732 44.725628 -13.147223 5 1
34.955589 89.589676 -20.786997 12 1
-6.490611 88.663521 -11.692339 0 0
63.609627 77.856384 -29.303022 13 1
-32.747032 87.816780 -49.069649 10 1
10.141392 100.113450 4.655947 7 1
-46.813942 77.455490 -17.674742 2 1
-31.551674 101.725550 -39.895943 10 1
-39.740501 87.484489 -32.521122 9 1
-35.950188 106.413510 -22.738491 9 1
47.633301 60.963776 -3.612065 11 1
-6.720804 92.593231 -10.132349 0 0
5.806529 88.189941 -49.721035 1 1
55.952793 75.302101 -38.710396 13 1
-1.213109 92.920288 27.715826 14 1
11.883569 69.763527 -8.486314 0 0
-56.406742 80.359161 -4.101470 2 1
-15.748828 113.526890 -47.588184 10 1
29.230124 73.320282 -41.546333 12 1
10.847599 79.734352 -45.885933 1 1
-3.038652 41.246365 -18.260227 5 1
-54.020336 93.414238 6.066549 2 1
2.386786 100.618790 21.381216 14 1
-16.278412 100.892050 -55.569901 10 1
9.386796 103.282010 1.792397 7 1
45.794426 75.633759 -34.308304 12 1
-9.240366 96.971092 -13.759171 0 0
-48.562981 78.976456 -7.970924 2 1
11.409003 94.334152 1.092717 7 1
41.577309 87.880325 -7.254432 11 1
48.676010 84.868225 -9.379210 11 1
50.232986 78.903091 -9.749139 11 1
-36.872284 85.918968 -48.659962 10 1
-1.592533 109.476970 18.575010 14 1
-44.147591 99.446930 -18.699099 9 1
6.316467 90.539192 35.407761 14 1
46.152943 76.733994 -3.220054 11 1
41.546474 87.439034 -12.584154 11 1
39.050930 69.655006 8.095865 11 1
43.844902 69.904800 -33.750973 12 1
-25.200167 94.242157 13.539803 8 1
-7.853957 100.374330 -3.611339 7 1
-24.549288 96.093040 -38.563267 9 1
-4.864167 69.614929 -6.530509 0 0
-20.215908 72.670509 -67.336296 10 1
45.349297 86.251549 -31.200659 13 1
-64.012177 80.247345 22.473255 4 1
39.875626 77.199623 -1.784095 11 1
-28.254072 98.909058 -39.729134 9 1
-46.834538 75.208443 33.252907 3 1
42.054409 75.948341 -30.430801 12 1
-19.301628 102.086370 -52.133774 10 1
11.601995 110.128740 -23.945757 1 1
-29.418468 109.786240 -17.808422 9 1
-13.905441 109.585590 -41.496838 1 1
-44.463398 96.027878 15.620407 2 1
45.119896 56.314613 -1.058689 11 1
-12.228245 92.797249 -8.866135 0 0
-1.169388 107.900770 0.500721 7 1
33.353542 92.491798 -19.066833 12 1
-29.179419 74.671478 -62.595814 10 1
-10.537344 93.690895 13.759796 8 1
-30.265533 103.993650 -35.977306 9 1
-34.083977 88.889114 -37.142426 9 1
7.109773 113.912390 -22.810911 1 1
48.787369 82.171326 -11.750919 11 1
-15.485029 98.586380 -60.290714 10 1
59.336288 81.206543 -29.300465 13 1
8.365236 99.575752 31.064253 14 1
47.123592 91.325729 -19.474344 13 1
7.899981 45.998413 10.275803 6 1
15.577234 99.637466 -28.604296 1 1
-13.317679 92.266556 -61.942863 10 1
-24.602654 109.156090 -37.761520 9 1
-51.630054 73.072647 21.316700 3 1
-29.688335 91.953697 -53.059994 10 1
43.525398 74.400665 -36.774632 12 1
-31.065580 81.805771 3.492151 0 0
-28.941641 94.970901 -31.623896 9 1
64.373863 69.271385 -34.419258 13 1
-44.013153 92.277832 10.218343 2 1
-41.756336 88.848930 29.350817 3 1
-8.814917 103.473250 24.223656 14 1
14.202256 96.340302 -33.139576 1 1
56.745613 83.995773 -24.115961 13 1
-66.940079 76.952835 16.540873 4 1
-47.266552 83.757675 -17.788431 9 1
-25.772390 95.694000 -54.635849 10 1
-12.450382 91.711411 19.856245 8 1
50.403172 73.764763 -8.010369 11 1
-67.701813 81.128021 6.590233 4 1
1.527764 99.374245 30.099020 14 1
-31.515482 94.505959 -28.126846 9 1
-34.121143 102.336730 -15.146742 9 1
3.900387 90.087692 -46.963207 1 1
-71.354538 76.417137 8.270698 4 1
34.528797 62.797901 -39.321220 12 1
-46.048420 95.131966 -1.403322 2 1
-4.705936 78.935150 -5.042940 0 0
37.285580 92.985069 -21.526434 12 1
-33.944748 84.032265 -53.169807 10 1
-26.618679 95.654076 -49.647224 10 1
6.599792 102.762830 -42.618225 1 1
-69.435562 72.145882 10.644508 4 1
-39.078308 97.797966 -15.080494 9 1
-0.247307 60.865387 -3.750668 0 0
-46.666431 90.112686 24.736546 3 1
-1.713039 39.524071 15.814291 6 1
-7.206072 38.446136 -12.636129 5 1
-3.252178 40.201508 5.658990 6 1
-30.430443 87.219505 -55.158802 10 1
57.901581 79.878059 -32.086735 13 1
-15.548738 97.109047 -5.704480 0 0
-15.232119 33.629414 -17.848936 5 1
42.367882 93.359093 -23.235046 12 1
-45.088753 81.640953 32.491810 3 1
-3.858027 28.452515 -0.975277 0 0
12.861013 82.710327 -42.132069 1 1
-38.846058 87.971077 -22.797136 9 1
-26.297705 77.839577 3.374378 0 0
-54.587402 94.269485 11.331563 2 1
-1.703160 113.775710 -24.559748 1 1
30.754953 86.917229 -8.129808 11 1
-4.633259 62.674007 -4.018654 0 0
-50.750008 92.504486 0.267672 2 1
32.864811 82.326408 0.757111 11 1
-2.484067 35.770386 -0.493776 0 0
-47.925373 89.028694 -22.083279 9 1
37.886803 83.918327 -32.426044 12 1
32.274029 81.191277 -11.422441 11 1
4.664320 80.250656 37.045074 14 1
-52.672806 84.357010 -7.388782 2 1
46.188488 66.483078 -0.339596 11 1
11.147463 86.601608 -37.815865 1 1
42.655201 65.962135 4.503215 11 1
-37.975872 103.334240 -26.857988 9 1
-23.942881 81.899239 -64.507172 10 1
-28.646053 104.971490 -40.330231 10 1
-23.838627 99.001427 -50.024269 10 1
43.776600 69.442749 -0.368689 11 1
27.434689 80.398003 -29.867924 12 1
-7.475365 40.832764 -22.965384 5 1
-4.299042 91.197968 -2.908720 0 0
23.689573 83.770821 -34.177887 12 1
6.506845 85.521553 2.393436 7 1
29.352451 91.319321 -22.109097 12 1
-4.357624 90.171677 31.116446 14 1
-25.095139 108.124560 -41.503380 10 1
2.609561 100.002820 -50.038956 1 1
-41.726879 101.562150 -10.916650 9 1
7.199743 90.669899 -47.484097 1 1
-32.796635 113.491900 -14.169619 9 1
-4.545948 98.096313 -24.789482 1 1
-52.820984 80.501587 -3.425591 2 1
41.027020 64.027763 8.388252 11 1
-10.862508 33.173843 -20.880117 5 1
48.500114 83.299255 -37.257084 13 1
-31.658512 92.311508 -50.414703 10 1
11.796154 92.356110 -3.200044 7 1
-46.279228 89.209122 20.725225 3 1
-10.081870 99.697594 20.015253 8 1
-26.722139 76.731979 -64.303444 10 1
1.749349 91.114983 -0.108499 7 1
31.053532 75.389351 -32.584602 12 1
11.751903 101.720390 -33.677460 1 1
-72.526054 72.908218 5.342207 4 1
-33.921783 98.418724 -40.045326 10 1
-62.502419 86.318497 20.849768 4 1
-22.402613 102.471650 -34.354259 9 1
