-32.728050 113.000440 35.199036 14 1
54.566433 97.872177 -12.358982 11 1
-54.331432 103.077780 -1.858700 4 1
52.862068 113.416770 18.500856 9 1
-33.933964 123.389080 2.133781 6 1
-26.068687 104.297400 16.999922 6 1
28.553015 110.982420 -26.319296 12 1
49.805042 114.873770 12.653654 9 1
24.570887 140.130450 22.063868 8 1
47.153809 103.822740 -15.170697 11 1
-1.586670 35.773022 22.879578 1 1
-26.672781 102.360370 24.861235 6 1
-6.924180 42.326389 -12.593684 7 1
-32.331711 128.412110 -6.171738 5 1
-29.275787 125.098550 1.728892 6 1
-26.831976 129.425350 3.864680 6 1
0.537610 40.773800 13.613526 1 1
48.638496 99.770004 -8.206375 11 1
19.061136 106.725600 34.935001 8 1
47.250626 103.109760 -7.786901 11 1
-14.502241 38.290977 -9.435922 7 1
21.721956 98.270767 42.731209 8 1
-33.540665 121.026510 -0.706875 6 1
-21.528009 112.536900 16.338970 6 1
17.951700 125.797000 29.535873 8 1
21.295561 127.385310 9.173881 0 0
61.041828 88.670769 -43.741768 10 1
-48.310719 117.443730 17.555979 3 1
30.083206 101.145680 41.212929 8 1
21.011681 130.719250 -14.083612 12 1
60.618721 95.526291 22.155037 9 1
7.068722 43.404400 14.499809 1 1
33.084057 126.773490 31.967508 8 1
21.869564 136.942950 15.039437 8 1
32.010761 128.801420 23.747099 8 1
12.010835 66.723404 -6.572370 0 0
29.170391 117.190810 30.359207 8 1
-27.017427 94.046227 34.123409 14 1
-2.827854 13.576645 0.926660 0 0
20.956736 91.596001 -35.647083 13 1
-6.779315 108.171460 -23.296234 2 1
33.175476 85.396393 -43.096523 13 1
-11.274724 36.252327 3.928951 7 1
-11.818316 43.600899 -19.457664 7 1
-39.593819 115.692220 -20.383224 5 1
54.498508 98.450363 14.986482 9 1
37.207619 100.438730 -28.707567 13 1
-0.356598 71.584160 -0.849025 0 0
-24.566824 109.183390 7.543073 6 1
14.513425 101.971950 40.123207 8 1
-25.445375 116.106860 -20.039850 2 1
-34.289032 114.131500 16.453165 6 1
35.957069 113.723980 35.860924 8 1
31.573799 136.411580 9.344370 12 1
-60.480537 93.652817 27.084322 3 1
-16.748434 123.834100 12.933657 6 1
18.197975 133.508060 23.853798 8 1
60.217808 118.940670 15.234541 9 1
-7.058291 109.379500 0.868379 0 0
-40.117302 107.163190 31.821024 14 1
20.417347 87.552567 45.972588 8 1
-19.012165 37.571232 4.007212 7 1
-36.244804 115.477120 23.737087 14 1
-51.081287 111.475620 26.333620 3 1
5.748287 46.449993 10.844874 1 1
-18.571054 120.729180 -11.395006 2 1
24.798044 121.287290 -16.933971 12 1
-7.084970 35.341480 24.209366 1 1
-51.172413 97.401855 -8.390348 4 1
30.440809 136.725070 17.209620 8 1
-17.615509 98.069283 7.327417 0 0
-29.622009 126.470450 18.630020 14 1
-17.255260 128.622020 -3.856233 6 1
-12.154864 112.729580 -3.358742 0 0
56.694195 103.690990 13.903928 9 1
11.549740 70.091393 -6.434965 0 0
-10.689630 41.135963 16.084232 1 1
3.499144 58.099426 -0.946889 0 0
26.554428 134.971270 -5.246484 12 1
66.135864 89.559647 26.742325 9 1
-52.628395 106.135930 -8.759046 4 1
59.653793 106.310360 15.234190 9 1
-28.436832 124.884400 11.199865 6 1
-3.756418 117.687260 2.132007 0 0
-35.190159 125.979710 1.257766 4 1
20.907917 131.776820 19.156805 8 1
4.372735 61.944790 -4.481434 0 0
-40.707958 116.732370 -2.962965 4 1
28.040665 132.110350 20.464403 8 1
29.793360 92.920288 41.095890 8 1
-61.978771 98.051376 18.673950 3 1
0.465587 91.076614 -0.355491 0 0
-47.633343 120.710290 11.694095 3 1
-22.889477 118.114680 9.467558 6 1
56.138428 85.816620 -0.215821 11 1
-1.273246 1.405765 -2.316850 2 1
-38.123547 117.960400 1.697078 4 1
23.614752 120.472410 35.042534 8 1
-49.866337 101.199560 -18.380198 4 1
-32.850166 98.046242 28.989344 6 1
-5.791523 103.848630 -1.916272 0 0
-0.237640 39.008049 -3.723467 2 1
-39.888786 110.619820 -18.995747 5 1
63.640030 95.998543 -28.629004 10 1
58.070915 95.965431 19.793873 9 1
38.207340 133.141460 -3.059153 12 1
-34.601391 121.506980 -16.565535 5 1
-30.003096 94.625748 31.894295 14 1
-10.095285 109.818370 -4.611001 0 0
62.389057 100.533620 -30.668167 10 1
46.030834 134.639110 16.289141 9 1
57.028336 122.605710 12.059133 9 1
65.006874 88.856606 -42.328514 10 1
23.361494 78.923180 -13.982701 0 0
54.886726 92.054695 -20.261635 11 1
60.231121 100.914690 22.265661 9 1
-3.108442 37.159271 2.318660 0 0
-23.032810 109.621410 12.476285 6 1
-20.627995 31.904127 -15.852121 7 1
-25.908609 127.147410 -8.701865 5 1
5.696745 33.504959 25.327400 1 1
-20.899637 123.589730 14.255518 6 1
-1.320322 45.377800 -7.836248 7 1
-18.668020 103.245720 7.712826 0 0
35.254654 93.540390 -20.414194 0 0
27.587061 116.235860 -19.963543 12 1
-55.241566 106.295500 0.542269 4 1
51.619205 95.152267 -2.421093 11 1
6.156541 97.492119 3.143640 0 0
48.451969 138.766800 12.824225 9 1
-16.505690 105.110280 -24.874260 2 1
-26.821800 112.152530 28.197094 14 1
14.057392 112.316540 5.081479 0 0
-55.821018 111.728440 2.209102 4 1
-59.883083 103.139120 21.467978 3 1
-55.976864 111.575200 22.763422 3 1
-7.739758 115.123690 1.939752 0 0
-33.995354 112.474030 19.069780 6 1
61.396648 123.320400 18.244627 9 1
35.013298 133.344380 8.030166 12 1
-23.134943 35.341351 -3.448398 7 1
29.086319 138.147510 3.887597 12 1
60.641663 94.135452 -37.409515 10 1
16.447191 119.627300 36.556179 8 1
-20.934635 92.604584 39.947956 14 1
40.605774 140.736080 7.251853 9 1
-2.537578 40.145275 9.017071 1 1
-10.209529 91.998871 -28.712664 2 1
15.294177 117.575780 6.801618 0 0
34.001644 124.555280 -12.599468 12 1
34.994881 116.344630 -15.258491 12 1
-54.473598 114.157630 16.259319 3 1
-6.642355 123.654450 6.082629 0 0
-36.779263 116.540430 -14.678146 5 1
-40.526154 103.046030 -13.090723 4 1
60.342670 95.194374 -49.722923 10 1
19.457279 132.519040 -10.686115 12 1
13.386297 106.006660 4.956692 0 0
41.243031 102.623540 -20.973549 13 1
31.486094 123.628650 26.178656 8 1
-33.801968 106.586520 6.979617 4 1
-9.748200 112.085960 9.987448 0 0
56.153996 98.229675 -37.977436 10 1
24.536018 87.157043 -38.670979 13 1
-12.398292 101.187110 -25.861208 2 1
-43.276772 115.722780 -0.676158 4 1
56.477077 99.726372 -43.483570 10 1
29.919441 98.101273 39.220547 8 1
23.598068 98.675674 -34.162262 13 1
-45.773094 109.176320 -18.936798 5 1
-9.037898 124.637500 -12.573600 2 1
27.924778 136.044450 25.181627 8 1
-32.116924 114.332080 9.120639 6 1
-52.991974 116.335320 20.245035 3 1
-1.926555 38.719246 14.416988 1 1
-23.108921 34.519150 -9.432399 7 1
-13.539186 120.505040 10.868250 6 1
56.387810 121.133710 20.690552 9 1
50.897572 102.979960 -18.451477 11 1
27.791367 138.705860 13.439367 0 0
-0.038545 50.482792 -0.022006 0 0
25.987679 124.516820 25.031061 8 1
49.068806 99.464966 -15.051902 11 1
-64.055344 88.997833 21.552578 3 1
42.250607 142.053960 17.360584 9 1
23.904917 110.743910 -29.840788 12 1
2.212265 96.604706 -0.487939 0 0
-34.805580 128.633530 -3.765818 5 1
31.016571 95.167389 -38.314972 13 1
53.229515 106.268450 -42.982185 10 1
-46.473888 100.742160 -20.396769 5 1
33.117493 93.317429 -34.536736 13 1
-41.056946 121.309630 -15.223796 5 1
23.411554 140.088270 13.670680 8 1
20.548187 102.282230 33.934586 8 1
-52.615059 118.771750 11.148314 3 1
-0.334858 28.502747 0.235349 0 0
-49.988495 108.675330 -1.800236 4 1
-12.993411 88.912933 -29.179300 2 1
-34.398190 122.126720 15.211607 6 1
-20.762794 112.025020 36.540485 14 1
20.985838 119.026420 -24.654177 12 1
54.856510 88.736763 -3.226286 11 1
59.479359 79.723053 -12.081472 11 1
19.193907 127.338800 -18.340879 12 1
22.895897 94.055862 38.130566 8 1
-41.051487 123.824210 10.569558 4 1
-51.015892 118.467110 19.536476 3 1
-20.519249 33.532169 -20.706804 7 1
-27.542124 98.774712 30.492548 14 1
-8.690931 84.502357 2.814139 0 0
18.607483 130.026030 -15.595203 12 1
-56.225819 108.493910 19.915087 3 1
44.505749 101.765900 -26.620554 13 1
-14.690617 114.904570 -15.785528 2 1
21.920929 134.247880 -5.880566 12 1
-20.562372 101.676550 37.935387 14 1
-32.058208 107.509700 21.240538 6 1
-6.219714 43.753967 -16.540270 7 1
47.449799 107.864080 -27.730705 10 1
2.755221 32.466526 24.257341 1 1
9.433532 63.229721 -4.079324 0 0
-31.013935 98.961517 40.005531 14 1
65.152985 101.215680 26.372488 9 1
29.997814 105.580100 -28.283123 13 1
-40.634445 107.821620 -19.624319 5 1
25.908495 124.444750 -17.067499 12 1
24.143589 123.308720 33.766857 8 1
-4.078053 45.678463 -12.243828 7 1
48.167332 119.572430 10.097218 9 1
29.908211 135.267330 5.891788 12 1
-34.422234 118.952420 2.137596 4 1
22.344055 127.012870 24.371090 8 1
53.159199 107.272460 16.672243 9 1
-30.983742 104.767910 22.899710 6 1
56.167156 102.775830 18.828770 9 1
-0.585753 75.544373 2.657394 0 0
19.498516 79.807991 -13.539165 0 0
39.454422 119.031170 -14.234441 12 1
-58.684029 95.714363 21.361782 3 1
20.557388 122.945610 10.353825 0 0
28.232838 130.591610 -3.016988 12 1
-34.057312 101.194930 36.823536 14 1
-53.344906 98.838791 -5.652422 4 1
-7.585312 37.791546 1.845414 7 1
27.881187 139.884670 16.806719 8 1
11.460204 126.410130 33.552021 8 1
43.301117 99.460487 -35.348312 13 1
27.739231 86.186005 -15.127324 0 0
57.324951 104.063900 -30.320427 10 1
-22.590929 116.123630 35.678299 14 1
-38.782215 120.903390 15.926118 3 1
58.802811 85.218338 -5.015026 11 1
-13.362331 110.577190 -18.610371 2 1
14.973294 107.467230 40.547192 8 1
62.416073 92.623924 -45.358189 10 1
-15.143929 83.074005 -29.532291 2 1
6.040588 29.500587 27.920620 1 1
-28.150454 104.099720 40.674812 14 1
-47.100773 120.773490 24.435379 3 1
27.694538 95.143097 -26.646397 13 1
-5.397798 112.286980 -4.607526 0 0
-49.021252 100.218370 -22.288696 5 1
-14.702859 104.597410 -22.309113 2 1
-28.697998 90.324310 35.689808 14 1
60.941982 80.115051 -14.881121 11 1
38.133461 98.218353 -32.642818 13 1
-3.885214 117.035130 -3.462736 0 0
-22.117567 110.539760 -24.047733 2 1
-33.486698 113.495820 13.692129 4 1
19.048500 100.977850 36.191769 8 1
-3.429586 119.818760 -2.351906 0 0
53.119915 92.395271 -4.507018 11 1
61.848343 126.400950 20.297256 9 1
-59.130093 108.247710 19.936674 3 1
-26.111629 128.136540 -1.890529 6 1
-13.110354 37.023560 0.379708 7 1
-11.091049 127.316540 -10.310112 2 1
-48.622955 115.270160 -7.096755 4 1
-12.121295 40.573490 18.537249 1 1
-37.773018 104.475820 33.667641 14 1
-37.783516 125.462680 7.579025 4 1
20.808964 139.779530 16.424803 8 1
-33.952477 126.756730 -17.610733 5 1
57.457909 98.701332 -19.722956 11 1
65.533897 78.998672 -45.802498 10 1
-2.509923 17.210136 1.319067 0 0
-35.825893 118.616200 20.566210 14 1
-10.045697 114.614940 0.297012 0 0
-0.297371 43.536572 0.256690 0 0
15.552882 126.351400 31.022272 8 1
50.078854 103.609780 -28.347630 10 1
-11.766054 92.365089 3.811605 0 0
49.594681 110.726820 6.111092 9 1
36.406685 125.881460 -4.295397 12 1
-7.189548 120.859240 -6.171348 0 0
-4.178575 36.494019 21.782396 1 1
53.635773 104.178310 11.190019 9 1
-48.232426 115.412990 25.610212 3 1
49.570320 130.347520 0.779070 9 1
2.213514 95.666092 2.661599 0 0
55.595036 90.083801 -13.347366 11 1
56.211670 113.164590 10.309270 9 1
52.402847 106.806790 -31.871929 10 1
27.149733 113.304740 -24.645727 12 1
-35.115528 116.363430 30.936304 14 1
-17.058084 90.773598 -27.480562 2 1
25.540310 129.761030 11.734500 0 0
-11.781547 109.786350 -23.342146 2 1
58.676437 116.907260 12.420783 9 1
21.611967 112.388990 38.236561 8 1
-32.266590 115.422830 33.402958 14 1
47.186588 122.011700 15.203797 9 1
-6.560808 105.909880 4.986747 0 0
56.838909 94.760963 16.607540 9 1
37.067616 89.325706 -40.999729 13 1
27.537073 128.182970 31.025425 8 1
-23.620729 101.379800 33.388573 14 1
2.916426 85.311913 2.438564 0 0
-34.743111 119.125790 14.163478 4 1
-28.111242 111.036560 23.499125 6 1
54.265163 95.574249 -22.856548 11 1
-2.708642 105.710110 1.810694 0 0
-32.592472 124.698870 -13.399092 5 1
-54.877243 104.868390 -5.854874 4 1
27.323450 130.314090 -10.250406 12 1
15.934172 94.708214 41.989136 8 1
-44.255825 94.293404 -19.660316 4 1
-6.814414 40.903652 17.177032 1 1
-53.746552 115.721570 1.238657 4 1
-43.978783 96.261787 -22.273209 5 1
50.511765 106.187390 -24.063833 10 1
59.853863 85.630745 -15.832695 11 1
-39.973015 110.577170 -14.768284 5 1
31.929943 124.111130 -7.432502 12 1
31.435343 110.909530 -26.164158 12 1
62.187637 84.673615 -50.116837 10 1
-29.567003 97.406693 26.117226 6 1
-8.784633 43.092197 -10.564836 7 1
-1.919571 114.920080 0.505171 0 0
-34.234913 91.552521 34.180115 14 1
-12.214978 89.049347 2.533186 0 0
-21.435926 112.989770 -19.899134 2 1
-29.633818 120.924070 15.861352 6 1
-53.042850 89.788445 -16.376204 4 1
-11.341232 99.024689 -23.887386 2 1
62.363148 77.952774 -16.070747 11 1
49.006149 126.257960 17.117510 9 1
54.884926 138.109620 18.849232 9 1
50.574055 99.439430 -5.317744 11 1
34.677383 112.156260 -19.602392 12 1
-27.972137 124.124790 19.335325 14 1
60.594490 74.400375 -8.312351 11 1
56.386063 102.914190 -46.110012 10 1
-42.952957 117.700580 6.879662 4 1
21.215040 118.180460 36.279999 8 1
56.028431 99.506485 -32.339642 10 1
-13.286406 116.645550 -20.650251 2 1
-12.273379 117.751010 -0.027427 0 0
22.129566 136.308430 -3.098167 12 1
-52.619301 115.035830 4.044678 4 1
-0.667286 35.337852 2.339152 0 0
13.580608 119.148830 37.128624 8 1
28.243393 118.965640 -20.646387 12 1
21.378023 91.077850 40.021961 8 1
-0.108783 99.923828 2.390309 0 0
-27.440666 104.378470 19.626486 6 1
-28.135635 115.948620 26.489035 14 1
-42.959251 101.132940 -22.525734 5 1
14.258459 96.445114 44.154034 8 1
57.211449 101.156210 15.270796 9 1
16.439316 103.190050 38.456539 8 1
-17.309454 129.220640 -6.714542 2 1
-23.665951 116.998560 -22.755821 2 1
-3.076775 79.513458 2.898213 0 0
52.625729 119.978280 5.657469 9 1
58.941811 94.064049 -44.512161 10 1
-48.521320 115.887170 20.250301 3 1
-23.725971 30.648720 -13.496453 7 1
35.623825 108.246140 36.968208 8 1
-20.595549 117.902930 31.740009 14 1
51.206665 138.276700 14.589197 9 1
-31.032501 126.351350 -11.412235 5 1
55.174725 105.930590 -21.298670 10 1
-40.284428 111.111690 30.758377 14 1
-2.280264 18.431538 -1.660344 2 1
60.430679 67.336281 -9.980882 11 1
60.031185 80.753532 -9.308518 11 1
-15.593464 122.180790 14.890018 6 1
-31.896378 118.983200 28.961842 14 1
67.347557 82.073830 -41.249062 10 1
37.493862 135.708860 11.788258 9 1
-55.298512 116.406560 11.866894 3 1
54.206326 102.285890 -22.721634 10 1
-38.541576 105.891660 29.552574 14 1
-6.925330 40.924732 9.658897 1 1
-46.312462 98.085190 -15.814157 4 1
-58.725819 114.062130 12.765950 3 1
-27.680170 114.281380 36.546455 14 1
-15.738704 36.417534 -13.201066 7 1
-8.864186 37.778748 24.347710 1 1
41.796986 99.664497 -22.874723 13 1
49.431320 109.592450 -37.914791 10 1
-62.099377 88.999588 23.689415 3 1
28.701700 100.259440 -36.612965 13 1
58.536209 98.760376 -29.793627 10 1
-2.199961 9.038459 1.065068 0 0
43.836411 133.031810 15.123912 9 1
51.787579 109.395930 15.372833 9 1
54.289997 101.512970 -27.787508 10 1
34.625763 128.184400 25.366850 8 1
-57.273861 101.505910 29.062696 3 1
2.433973 68.917618 0.908623 0 0
-49.358185 111.844410 -10.403296 4 1
-53.776112 110.634350 31.094597 3 1
-26.990391 108.566030 12.806164 6 1
21.220049 83.930763 44.517216 8 1
-52.226048 108.857030 -7.253855 4 1
-1.507224 4.750603 -2.057022 2 1
3.510792 41.580845 8.912620 1 1
19.646141 102.821980 41.474285 8 1
-46.570007 121.661060 19.911543 3 1
12.604195 100.047460 41.875660 8 1
-7.725873 107.955400 6.899657 0 0
33.504234 129.169420 30.493431 8 1
-1.093282 55.941841 -1.708259 0 0
23.298315 133.060870 18.511683 8 1
53.665161 90.462608 -9.008560 11 1
16.266235 111.559670 35.913933 8 1
21.010227 76.728333 -12.535588 0 0
34.689945 116.460730 31.444984 8 1
-52.857754 94.148567 -17.699503 4 1
-22.359463 111.532760 33.028687 14 1
-21.669413 83.705833 39.528046 14 1
28.974253 78.371696 -41.234291 13 1
31.864168 99.685417 -36.758995 13 1
36.804062 129.926120 -1.084840 12 1
25.380114 106.437770 -32.780365 12 1
51.777763 140.284710 18.085081 9 1
24.465803 108.798580 33.990883 8 1
59.875084 86.135254 18.255693 9 1
57.268990 90.368286 19.232502 9 1
2.390673 66.052826 -1.924172 0 0
44.250931 141.369340 15.128098 9 1
-4.302199 45.087337 -9.393264 7 1
-56.092476 104.749400 26.118464 3 1
2.511476 63.720501 0.334378 0 0
-50.206703 122.046490 9.928827 4 1
-10.490517 96.149223 -25.810577 2 1
28.227987 90.431328 -38.693321 13 1
31.703539 118.749580 29.892670 8 1
7.405291 95.497269 0.857270 0 0
-47.688454 105.884000 -8.817419 4 1
37.115685 138.594100 5.045474 12 1
-44.884903 94.161232 -15.798114 4 1
-0.435390 101.496350 -1.154921 0 0
35.129597 141.838990 13.277257 9 1
-39.732609 119.216960 17.912157 3 1
-2.171157 13.331454 -1.783339 2 1
49.589508 104.938500 -34.213543 10 1
35.386791 115.276510 -19.809023 12 1
68.252274 88.830894 -33.499016 10 1
-3.771076 102.677150 6.458214 0 0
47.276890 103.702360 -11.871228 11 1
-25.369629 113.029230 7.148943 6 1
63.999706 92.258095 -39.765602 10 1
-33.332081 102.673150 3.342887 4 1
-10.203652 39.695198 -11.185589 7 1
-22.941551 125.848690 -13.504473 2 1
59.447674 93.074402 21.085909 9 1
65.187042 107.682070 22.637022 9 1
26.829395 91.455460 40.696373 8 1
32.699661 112.581860 -23.914875 12 1
68.555679 85.746735 -37.921288 10 1
2.306596 43.232830 11.977136 1 1
0.870632 47.958843 -1.884419 0 0
11.714847 100.933640 3.176213 0 0
-31.817528 122.695460 16.016676 6 1
25.728750 138.806000 18.280191 8 1
-25.972044 85.566177 38.353615 14 1
-41.071278 122.890880 5.099494 4 1
-20.956612 123.319050 -17.104239 2 1
-8.210021 39.621628 20.973972 1 1
-9.019603 38.743374 -7.664088 7 1
30.006462 98.175262 -29.182051 13 1
39.995567 123.896070 -6.814042 12 1
63.437973 94.771217 21.338333 9 1
-18.117153 87.518311 -28.824175 2 1
-4.198980 38.232277 -1.956354 7 1
-0.949040 20.474634 1.133079 0 0
-16.926586 126.798320 5.403916 6 1
-25.253981 118.804010 31.869127 14 1
-32.668907 125.919820 -7.443179 5 1
-15.675341 108.526660 -20.861662 2 1
37.166943 117.110980 -17.129242 12 1
-30.478527 121.278940 23.959639 14 1
17.881523 128.822780 32.345848 8 1
-16.382166 98.887787 -24.542740 2 1
-41.061020 123.441020 -0.867185 4 1
-3.895809 32.369480 25.306999 1 1
0.045426 39.218323 10.628048 1 1
57.206997 132.739140 14.941177 9 1
-13.068313 102.344840 -22.717665 2 1
-12.880188 41.718021 -17.767900 7 1
39.761444 139.549220 15.122395 9 1
-22.682007 111.454350 22.384941 6 1
17.204508 72.274994 -9.708558 0 0
-46.421776 101.172420 -11.207128 4 1
-10.468276 118.405510 -18.530708 2 1
-13.956164 121.842540 -10.916522 2 1
-35.897675 98.991119 31.021982 14 1
-0.332392 35.052406 -1.656011 0 0
-54.585617 93.973694 -8.201361 4 1
-35.722321 118.282000 -19.438978 5 1
-27.595610 114.977220 8.384358 6 1
10.043898 45.952087 14.865448 1 1
-40.874771 112.857640 -20.293467 5 1
-18.146053 36.943069 -9.022345 7 1
24.119968 82.516472 -13.172997 0 0
-36.481987 99.344139 34.682022 14 1
-24.422779 114.093280 12.031860 6 1
59.080837 126.905430 15.344783 9 1
-5.714474 127.633030 -0.122232 0 0
10.487596 34.329025 26.742760 1 1
41.122269 100.781610 -36.424278 13 1
47.811543 141.605620 17.249231 9 1
-5.400922 111.372230 1.960575 0 0
58.754292 129.664810 21.129883 9 1
-40.768311 116.707280 21.990568 3 1
65.999191 92.038826 -31.653507 10 1
65.300148 112.401060 23.429399 9 1
-45.813931 109.521260 -4.703191 4 1
32.184200 139.741380 13.132098 12 1
35.863033 124.618080 28.212614 8 1
-25.024929 118.597980 -18.207085 2 1
21.561453 123.113330 -19.899698 12 1
44.996597 106.679910 -27.697699 10 1
28.927691 121.785300 -11.134979 12 1
-6.086088 80.338074 1.478673 0 0
20.707607 106.893630 40.072227 8 1
-45.129093 120.191060 -1.193990 4 1
-9.398624 109.745630 -0.920008 0 0
-27.900517 116.393320 34.581436 14 1
2.908679 29.153845 27.509798 1 1
51.986324 97.152245 -19.273899 11 1
10.221736 37.060863 25.402779 1 1
-6.243070 102.435540 5.352797 0 0
46.720280 120.595180 4.745600 9 1
60.129971 103.361660 -28.932568 10 1
55.712448 104.991790 -42.362583 10 1
-11.033088 43.326694 -14.383924 7 1
21.392406 109.567680 33.980865 8 1
17.628786 87.046234 44.315723 8 1
-17.892910 119.876240 16.753950 6 1
25.948454 134.588790 11.298248 0 0
57.809155 91.661362 -21.150497 11 1
-15.620588 96.255096 -24.843475 2 1
-21.631102 104.983050 8.246996 6 1
49.478947 114.392930 9.016891 9 1
65.405502 84.138657 -45.778309 10 1
52.778271 107.218960 -21.096258 10 1
61.288654 115.162830 23.487465 9 1
-48.899929 97.141602 -22.428778 5 1
-7.293287 109.466220 -20.572309 2 1
-11.213208 115.925380 14.810763 6 1
-0.501585 66.843796 -1.258921 0 0
-16.330502 37.810459 3.647675 7 1
8.139920 66.096191 -3.936802 0 0
-0.510495 15.460042 -1.214916 2 1
-23.550739 104.162690 28.171095 6 1
25.391758 138.210360 4.430107 12 1
-16.061996 126.873670 0.234996 6 1
-16.538065 124.435860 -1.486644 0 0
64.183289 88.127724 -39.769669 10 1
-0.458635 74.383499 -1.514850 0 0
63.566502 81.606995 -49.421288 10 1
28.848223 96.397926 41.808140 8 1
41.250858 128.987960 7.738167 9 1
-2.915544 41.502777 -1.382020 0 0
-33.247131 123.772620 5.486130 6 1
59.309444 94.667992 17.780252 9 1
-52.776264 119.771420 13.845477 3 1
45.847767 122.805450 12.348842 9 1
-23.513796 123.041340 24.741558 14 1
-33.990757 121.729450 -11.019445 5 1
46.750565 129.482770 1.726651 9 1
26.433144 88.562386 42.506866 8 1
32.143406 107.124500 -29.306250 12 1
3.117170 38.446388 17.781925 1 1
-38.927361 115.343930 23.914440 3 1
-12.854121 127.227070 -4.085953 6 1
18.510284 93.442711 39.631969 8 1
19.606737 120.919550 7.347780 0 0
55.272549 105.338230 -34.716637 10 1
51.400539 106.233090 -40.186859 10 1
-49.984295 120.043960 7.260076 4 1
47.639591 104.402290 -29.411274 10 1
-34.560200 126.209810 -2.344485 5 1
63.885818 94.150116 -35.706921 10 1
28.797333 138.977110 6.622337 12 1
33.602932 111.006770 -21.870213 12 1
21.063547 133.464020 28.753407 8 1
50.775650 117.650160 17.380890 9 1
31.670116 80.721535 -43.676052 13 1
53.246635 96.718437 -6.993363 11 1
28.352306 135.096570 18.114521 8 1
41.078777 96.598030 -38.754025 13 1
46.004356 139.027620 7.150185 9 1
61.482738 97.718536 -39.161022 10 1
-23.488533 123.392250 2.044222 6 1
-16.431278 120.730870 -18.995474 2 1
60.588306 75.788078 -13.191458 11 1
-6.635845 116.481380 -17.086035 2 1
26.355253 98.160362 -36.548031 13 1
-7.466299 124.920560 -3.965896 0 0
-41.310390 123.858480 -3.498758 4 1
58.961788 88.646980 -9.584728 11 1
42.099327 129.094130 11.982089 9 1
-34.257809 118.272740 -14.196026 5 1
-34.059814 123.637610 -3.505285 5 1
40.934418 136.174320 14.421304 9 1
61.422668 92.461922 -16.881456 11 1
-31.851290 101.450200 39.039284 14 1
59.296890 71.318321 -9.664886 11 1
-40.606491 106.292300 -15.302453 5 1
25.041193 94.103455 -36.276108 13 1
62.113575 85.894554 -18.495592 11 1
-39.250977 125.849910 -9.868436 5 1
30.505257 84.393593 -42.193642 13 1
33.658546 139.894910 8.951053 12 1
17.089550 136.645170 18.633001 8 1
-31.090025 120.767250 20.995634 14 1
-8.614465 44.339855 -13.054806 7 1
24.606594 138.591080 -1.883307 12 1
3.815872 74.152168 0.409499 0 0
-21.262058 33.431477 -11.082495 7 1
41.229538 132.267240 4.307735 9 1
6.871381 62.597469 -2.734427 0 0
-15.231741 41.531948 -20.576437 7 1
-50.163540 93.870674 -15.625043 4 1
54.900558 116.634130 8.629654 9 1
14.329988 129.120150 30.179127 8 1
16.077162 125.058090 34.619221 8 1
17.905184 108.692310 39.860470 8 1
29.667133 127.875460 -11.585171 12 1
-52.310207 111.884120 22.990450 3 1
21.068117 81.756645 -40.298958 13 1
-42.098545 117.125530 -18.285225 5 1
-29.851818 118.490460 30.589622 14 1
10.604543 29.906454 28.250818 1 1
59.750546 102.219250 -34.136456 10 1
64.527000 105.704630 25.743868 9 1
-1.260386 104.008100 -1.408100 0 0
20.360172 130.855010 30.590843 8 1
-13.020129 125.264390 -13.663766 2 1
-61.080265 103.541030 17.092312 3 1
62.900257 71.340553 -13.613381 11 1
57.513222 99.492104 -45.945110 10 1
56.746204 84.214264 -2.979770 11 1
30.886589 106.934530 39.829464 8 1
-7.570952 113.941120 -5.765214 0 0
-10.671925 88.195457 -28.125494 2 1
-47.226669 116.325060 -11.238274 4 1
33.752388 136.885930 2.066833 12 1
-6.839283 129.224010 4.022061 0 0
33.770050 118.909030 35.810860 8 1
28.919380 124.022740 -8.602418 12 1
-19.350615 95.179680 -29.821810 2 1
-13.321878 40.836094 -12.592796 7 1
-12.631900 122.952100 15.297035 6 1
-60.480305 108.095080 17.666574 3 1
-4.463321 119.950740 3.549560 0 0
24.572342 86.201866 43.735207 8 1
-5.814197 44.391659 -13.974242 7 1
58.768559 131.682430 17.189335 9 1
24.100544 133.534390 28.038109 8 1
59.937386 99.732452 -42.893726 10 1
51.239410 103.003000 -33.428814 10 1
62.694019 95.531403 -31.493418 10 1
-27.003307 113.964970 20.850416 6 1
-36.122116 127.644360 -11.381488 5 1
-19.180088 120.389550 8.960286 6 1
56.998074 110.476440 11.667715 9 1
19.788433 96.215332 43.546516 8 1
-63.529011 105.436390 13.259314 3 1
-10.011821 41.870964 13.223558 1 1
48.349350 100.021950 -11.411641 11 1
40.176971 93.389931 -40.269844 13 1
55.348907 104.636410 -28.670855 10 1
26.092583 100.802450 41.498386 8 1
-3.973099 40.768337 13.886008 1 1
-20.133167 34.465641 -15.218407 7 1
-54.134663 94.929588 -15.094969 4 1
66.547394 84.303421 -40.027077 10 1
-1.761375 51.202904 -1.878355 0 0
27.286556 104.358370 -29.001781 13 1
-14.193788 37.312599 -2.785150 7 1
-56.872494 106.194450 29.508396 3 1
-15.221468 98.126694 6.240788 0 0
57.230877 90.856384 -7.137300 11 1
-24.151569 128.876480 -0.189562 6 1
-14.316488 95.186569 3.131087 0 0
50.708649 96.900314 -9.900026 11 1
21.550320 96.460938 -35.508450 13 1
-0.604858 80.570610 2.121825 0 0
-19.966753 128.692780 -2.824529 6 1
-52.045822 114.523320 -2.406985 4 1
-18.170597 116.308230 -21.705147 2 1
-62.563778 94.095024 22.126642 3 1
24.293549 73.073418 -41.580021 13 1
60.964493 70.064629 -6.900593 11 1
53.546841 93.524765 -17.132534 11 1
-58.346981 105.838900 24.949314 3 1
14.919338 107.989970 37.976269 8 1
59.615604 106.948100 22.798029 9 1
-25.546644 122.980480 -15.260496 2 1
-45.964520 91.632790 -17.803160 4 1
45.358326 134.207670 1.106185 9 1
-34.783306 120.439870 -7.148880 5 1
-17.619743 36.540787 -1.043695 7 1
51.082180 97.255020 -14.674858 11 1
-49.688202 116.591730 -2.489247 4 1
-40.876225 118.160430 29.996664 14 1
-17.177467 114.889900 -16.890368 2 1
-1.946715 103.420680 3.432591 0 0
-3.027925 22.404827 1.099437 0 0
-10.253983 131.080490 3.583407 0 0
-9.423911 37.430969 -0.381864 7 1
-22.125189 115.298820 31.788851 14 1
-54.811794 100.844660 -9.096130 4 1
-11.791525 36.243126 26.020569 1 1
-29.577295 100.162730 25.486177 6 1
-39.047005 117.903400 10.011032 4 1
14.729211 115.326670 35.840549 8 1
53.184467 96.239059 15.481771 9 1
-52.962994 91.366837 -18.527178 4 1
60.192062 94.693619 -21.589901 11 1
57.437389 101.900700 -23.454201 10 1
-54.804569 112.206690 25.287849 3 1
22.996916 79.583199 45.517593 8 1
-34.080231 105.721530 36.823212 14 1
-30.069338 117.827770 5.785879 6 1
21.544762 92.843491 44.396732 8 1
31.795040 103.577420 -32.796753 12 1
51.615952 105.813360 8.567271 9 1
37.682781 126.401420 -9.074398 12 1
33.564732 90.188881 -16.405312 0 0
57.400890 85.289314 -11.087216 11 1
-13.560458 123.453820 -5.935020 6 1
-0.917175 11.022278 -1.676444 2 1
25.405647 137.772860 14.694633 8 1
36.777515 122.014820 33.014984 8 1
20.938196 137.541640 23.321911 8 1
7.513216 42.691910 18.670815 1 1
-3.513239 27.639526 -0.321763 0 0
43.893394 100.946900 -23.729712 13 1
33.546463 138.511950 6.044310 12 1
36.847893 103.434190 -31.144918 13 1
-42.451012 123.153350 8.037996 4 1
-21.069572 116.482990 -17.248745 2 1
-44.181332 119.733280 14.766326 3 1
-18.242392 122.536660 6.410511 6 1
5.563721 44.793781 12.840500 1 1
61.201317 98.303040 -26.490313 10 1
53.331154 93.120171 -13.606623 11 1
-51.325066 116.825040 16.083826 3 1
53.733814 123.536930 19.388828 9 1
17.566458 114.659410 7.105820 0 0
61.362362 72.924599 -10.354415 11 1
8.300559 62.471203 -6.395096 0 0
-22.984365 119.399160 27.869799 14 1
36.999809 86.801872 -44.585209 13 1
51.115032 96.026848 -5.015645 11 1
-51.239639 104.010100 -12.935407 4 1
-30.455217 116.765110 18.116173 6 1
-33.000618 125.048200 15.447173 14 1
38.070526 140.421600 7.783395 9 1
39.334446 110.356740 -20.163742 12 1
-42.972336 104.664890 -22.590300 5 1
-10.468544 42.412563 -17.122072 7 1
41.211052 97.782471 -36.075455 13 1
-30.412357 120.002870 3.366783 6 1
-55.139950 108.898720 23.113716 3 1
53.543694 103.708030 -41.570698 10 1
-21.982450 123.553090 -8.538545 6 1
34.197704 113.214360 37.874481 8 1
45.942715 104.640210 -17.744980 11 1
-55.673195 106.753770 -3.384921 4 1
-19.688496 105.179430 12.775783 6 1
32.366173 137.618560 14.732898 12 1
29.530279 137.342560 23.623920 8 1
-4.832712 122.137970 -4.435350 0 0
-51.633888 118.282140 5.252150 4 1
-9.647204 115.951000 12.667245 6 1
-37.889275 127.625660 -2.195571 4 1
63.551197 92.911736 25.542896 9 1
22.717323 79.786102 -39.787395 13 1
4.827715 41.428638 11.159075 1 1
-6.424030 105.842410 -0.348409 0 0
21.468365 112.812640 33.186115 8 1
-18.979374 36.275646 -17.164162 7 1
44.999134 104.712940 -23.668457 11 1
-9.626722 101.152720 -26.048784 2 1
-47.989361 120.118030 2.469316 4 1
28.305161 85.524025 -38.548992 13 1
-27.464745 109.544920 39.126289 14 1
-8.766210 87.885094 4.709882 0 0
37.250706 102.062340 -33.724522 13 1
-30.346710 111.390180 13.797077 6 1
30.569771 87.670761 -41.105412 13 1
20.176258 88.680222 -36.681545 13 1
20.191097 137.363010 20.267336 8 1
-40.076099 120.293290 -17.376242 5 1
-60.810848 109.614880 12.486078 3 1
-63.788136 96.231888 17.835415 3 1
-22.614233 94.740211 37.767780 14 1
22.110527 99.478592 -31.639879 13 1
-17.866560 102.046480 -26.257315 2 1
-11.168605 37.849983 -5.263488 7 1
-15.901530 125.515670 2.932509 6 1
-57.887020 101.856490 25.527246 3 1
58.401875 91.647903 17.311344 9 1
-49.797684 108.056050 -12.857272 4 1
64.005150 93.655281 -33.152370 10 1
-10.629560 40.466106 20.767046 1 1
-6.397810 125.854760 4.777041 0 0
-28.901371 103.463910 22.145443 6 1
-33.233887 115.427720 24.361834 14 1
27.799694 105.961840 35.385700 8 1
-42.305946 121.011250 13.535444 3 1
-38.569328 124.318660 9.739777 4 1
-2.057359 1.138220 1.192783 2 1
49.742321 103.761150 -25.808056 10 1
26.087748 131.803650 -3.860322 12 1
-44.239746 112.714840 -18.455151 5 1
18.015829 128.867550 26.565128 8 1
-6.864950 118.144990 -5.875163 0 0
-12.500841 40.287323 -10.212193 7 1
22.430792 98.128723 35.619968 8 1
25.563589 131.472920 20.289900 8 1
31.765486 102.153110 -28.174004 13 1
14.077807 41.963272 23.597301 1 1
62.096355 84.124840 -14.201119 11 1
65.529953 86.620430 -43.630848 10 1
54.461964 91.194977 -0.194327 11 1
-12.681436 92.704956 -28.532114 2 1
23.369701 128.287170 22.246899 8 1
-41.164547 107.644300 -11.233356 4 1
11.492699 43.732246 20.985382 1 1
57.735157 111.868800 21.621584 9 1
43.362495 102.548380 -19.164289 11 1
44.397396 125.937830 9.814076 9 1
-52.772007 114.072900 18.168324 3 1
-13.797511 99.142380 -26.495907 2 1
37.144604 132.245700 7.141660 12 1
28.930710 135.829270 -2.085277 12 1
-10.976478 122.475520 4.059386 0 0
-44.489292 117.491060 -15.766335 5 1
-32.716259 102.653830 0.701367 4 1
18.708826 75.995667 -9.936875 0 0
32.457523 104.038830 37.191723 8 1
55.067165 105.713680 -37.817665 10 1
16.924698 83.624138 46.823589 8 1
39.333256 90.482262 -41.896698 13 1
57.659489 119.050540 21.441769 9 1
-55.663769 92.158234 -11.010946 4 1
23.828846 127.108920 11.156085 0 0
-22.362427 106.887480 24.635212 6 1
-54.578922 107.919030 25.914103 3 1
-23.916864 110.308100 24.393595 6 1
21.138279 117.469490 31.496765 8 1
-32.038986 103.687990 25.001534 6 1
48.503460 103.260720 -17.619419 11 1
-32.168781 106.961750 38.967854 14 1
-59.551804 95.634590 24.934971 3 1
37.499805 114.854360 -15.714604 12 1
63.480301 86.348145 -48.695045 10 1
-25.119949 113.767400 -21.185259 2 1
-36.474461 95.855759 32.655197 14 1
24.093122 138.518310 2.187425 12 1
62.962448 87.351608 -42.553089 10 1
31.815992 133.543300 4.750385 12 1
-15.469896 39.053940 -17.002026 7 1
23.008049 126.620540 32.438419 8 1
43.532288 128.337890 6.097920 9 1
-17.035603 40.073994 -19.456070 7 1
-30.268290 116.914900 32.889057 14 1
61.954334 125.545510 22.772820 9 1
65.701065 102.577580 24.293379 9 1
32.726963 133.752040 27.148970 8 1
26.014145 95.821251 -30.246367 13 1
36.885147 99.722588 -37.316517 13 1
-2.985746 101.884600 1.690248 0 0
-36.622990 123.627810 18.795017 14 1
36.590553 141.365130 11.023672 9 1
49.475594 118.931420 2.498345 9 1
-29.696928 112.959900 9.712343 6 1
61.698788 113.784840 16.232336 9 1
-55.199547 116.757020 14.930214 3 1
-34.775787 106.132720 25.816605 14 1
-19.920729 128.566730 1.375297 6 1
28.674309 113.851600 -22.528685 12 1
52.301250 105.453630 -25.939903 10 1
41.699661 99.821861 -28.214876 13 1
30.305344 130.672470 29.431372 8 1
26.792007 137.750790 -0.423459 12 1
-49.716473 98.705612 -13.566355 4 1
35.648495 91.759277 -37.917747 13 1
-21.070221 124.775890 -1.483650 6 1
-28.283947 93.545616 39.809975 14 1
18.798098 122.137250 30.678404 8 1
-54.168175 108.617710 0.386067 4 1
23.164587 82.187073 44.787979 8 1
26.019859 102.433170 -33.427982 13 1
-0.305089 25.670805 0.069965 0 0
4.423739 94.597641 3.320539 0 0
38.823032 106.576070 -23.516371 12 1
-36.339603 116.769910 6.759658 4 1
-1.325102 11.415148 1.165058 0 0
-53.587234 109.870040 -4.359568 4 1
-23.090635 31.354568 -16.032553 7 1
-22.550215 129.015200 -5.245011 6 1
-30.665569 124.660710 10.025935 6 1
31.125010 139.636250 20.013916 8 1
-33.214287 105.149480 3.841505 4 1
-24.080431 111.766560 38.470493 14 1
-31.909927 91.538750 38.332695 14 1
-10.089560 106.875690 -21.070690 2 1
19.141100 118.471950 7.771252 0 0
-0.736085 7.288283 -1.789250 2 1
-4.167521 41.076351 -6.448147 7 1
-45.817719 118.967450 -7.742968 4 1
6.420071 35.673302 24.141203 1 1
-9.195737 41.222523 -13.054120 7 1
13.611434 111.703090 39.391418 8 1
-9.838327 118.423800 11.724571 6 1
32.084915 115.209570 -22.087130 12 1
30.032059 131.316590 -7.615615 12 1
16.049553 112.846890 38.819889 8 1
44.992538 139.410170 10.305346 9 1
56.908329 114.829550 21.126223 9 1
-30.522676 125.179720 14.998224 6 1
-39.559410 113.926470 30.223135 14 1
-7.195529 34.394806 26.555689 1 1
4.095749 76.689537 0.681200 0 0
-12.999109 38.704487 22.394365 1 1
-23.307121 105.348360 40.543919 14 1
22.697197 119.749300 29.871918 8 1
11.028864 106.525890 5.752557 0 0
-53.148823 92.858475 -11.075630 4 1
-3.782539 38.071655 18.322046 1 1
-3.412150 32.023697 0.281693 0 0
-33.618282 129.114440 -14.602293 5 1
-8.486897 37.904938 -4.041147 7 1
37.817539 104.327480 -24.069973 13 1
3.252182 40.651730 13.649143 1 1
25.085775 134.166660 -7.322152 12 1
22.529249 94.182114 -36.179585 13 1
23.835024 84.369812 -39.755432 13 1
29.504929 128.636030 -3.955846 12 1
-39.780354 126.129420 -4.560851 4 1
-48.178913 113.349630 -12.107341 4 1
-52.938961 101.256720 -5.097749 4 1
-22.434364 118.739460 -21.214308 2 1
-48.543671 92.724457 -19.284990 4 1
32.943970 120.807150 29.157417 8 1
33.092434 91.974899 -41.138515 13 1
26.415255 80.553116 -41.732471 13 1
40.412056 101.964890 -34.226482 13 1
-3.330375 76.336937 0.628869 0 0
-11.295140 124.369800 -8.832251 2 1
28.200735 117.116940 -17.693462 12 1
56.938786 98.427971 -22.776110 11 1
-28.027454 121.849070 23.902725 14 1
-6.923715 118.019600 -14.972056 2 1
25.918350 123.508040 -13.013040 12 1
-49.664268 112.966500 -8.177415 4 1
50.590137 128.411040 2.007525 9 1
-52.494961 109.855030 27.700754 3 1
-46.534050 123.334370 9.823086 4 1
29.154865 73.828453 -42.072433 13 1
36.920105 113.150270 -20.115381 12 1
-34.929913 121.471590 17.634722 14 1
-32.331238 105.991760 0.145362 4 1
33.458378 137.786900 11.979826 12 1
-48.914658 115.970090 29.386316 3 1
10.415194 103.146590 2.888731 0 0
-2.458851 45.790329 -1.988249 0 0
50.225983 106.078770 10.793756 9 1
-51.245964 104.143630 -6.441863 4 1
-42.734955 119.983150 11.130092 4 1
30.385597 125.282680 24.497686 8 1
-8.547433 107.882290 -4.255303 0 0
-44.057674 108.842050 -7.845224 4 1
60.548527 88.882881 22.008902 9 1
-24.799009 89.341759 36.401054 14 1
48.480923 107.833760 -35.761543 10 1
63.948647 97.920303 25.035927 9 1
-4.164190 39.417278 10.938462 1 1
46.728672 126.528660 2.108873 9 1
50.717888 134.552140 5.674845 9 1
26.470808 136.258290 3.299659 12 1
-27.552807 119.196080 29.904886 14 1
46.794205 121.509340 9.273025 9 1
-25.301666 125.173580 21.321871 14 1
-1.503076 41.397156 0.753752 0 0
-26.596035 121.167320 4.032646 6 1
33.886562 83.207199 -44.130028 13 1
-44.036217 97.831863 -16.820709 4 1
-55.165546 90.120476 -14.878829 4 1
63.457527 98.160568 -24.207169 10 1
-47.078342 117.873170 7.461824 4 1
-18.322758 38.415207 -20.855074 7 1
56.641788 135.906110 18.884129 9 1
19.574551 94.963020 37.620346 8 1
-9.033491 110.972760 14.284069 0 0
52.674751 99.468323 -12.029499 11 1
26.458254 126.189920 -15.090147 12 1
60.419987 83.637611 -11.097588 11 1
-27.458771 89.701263 38.388245 14 1
-33.633400 129.565660 -9.647165 5 1
-5.285958 108.260600 -2.138593 0 0
-27.002382 120.335160 27.405306 14 1
-21.286400 108.009130 -23.298637 2 1
64.659851 85.051414 -18.816519 11 1
30.782215 116.097490 36.544991 8 1
-62.185478 92.136139 20.631725 3 1
34.012478 131.775250 2.276923 12 1
-51.252224 94.434349 -19.660528 4 1
28.730112 126.173060 32.029308 8 1
-1.729212 107.959550 1.386645 0 0
30.222473 106.453590 -30.739677 12 1
59.788437 92.798782 -46.530743 10 1
48.091213 119.697940 15.057272 9 1
-20.582575 108.932300 37.221531 14 1
62.409817 92.490875 21.054453 9 1
-30.785364 96.310692 40.096905 14 1
-29.185976 130.433260 -11.412116 5 1
37.439014 121.185000 -13.684888 12 1
51.389679 108.434630 -33.493484 10 1
-59.086395 110.179370 17.547323 3 1
-35.234333 94.481415 35.657764 14 1
-42.036972 109.144220 -21.200737 5 1
-21.502041 35.859089 0.124370 7 1
-25.177973 124.964760 -2.728534 6 1
-13.688624 118.872660 -13.334561 2 1
-11.624992 128.002880 4.891961 0 0
-61.526951 92.209045 24.868540 3 1
-6.440726 46.735447 -13.178063 7 1
-32.187962 112.380690 20.917513 6 1
-35.641617 119.772670 -2.710025 4 1
32.487968 115.988600 -16.511745 12 1
39.980019 113.717120 -17.447952 12 1
52.784779 99.955666 14.018881 9 1
48.251556 134.180820 1.425976 9 1
-4.893154 30.019030 26.478296 1 1
46.604000 140.351210 15.063822 9 1
36.515808 132.807720 27.529562 8 1
34.465939 107.158810 -25.028084 12 1
-13.535257 37.374863 -6.267846 7 1
38.546597 97.622757 -40.395397 13 1
-51.909279 92.199356 -15.088863 4 1
-23.101723 120.876960 6.259483 6 1
30.810492 75.879234 -43.155018 13 1
-42.760479 99.236000 -20.668100 5 1
19.016150 88.401512 42.474026 8 1
-36.111118 117.399640 -10.180058 5 1
59.925831 78.132042 -7.510973 11 1
36.663845 129.904400 25.499416 8 1
-33.946014 122.897750 20.131479 14 1
61.464890 100.881660 -32.964432 10 1
15.428923 88.093666 44.715103 8 1
57.692379 105.943020 13.751697 9 1
-35.808125 116.465650 11.735262 4 1
21.759232 104.477720 34.071651 8 1
54.790440 115.145360 19.900063 9 1
-14.770503 41.034058 -15.576334 7 1
19.360138 79.242119 47.111282 8 1
63.298046 83.680412 21.387613 9 1
2.137086 34.780922 23.498793 1 1
21.037355 130.323490 -11.615629 12 1
13.417542 124.166510 35.240685 8 1
-25.269524 113.751820 37.401920 14 1
-58.815292 98.177948 28.123112 3 1
60.161057 74.334602 -5.320708 11 1
-10.204742 39.597675 -2.665738 7 1
-18.400938 108.470850 -21.871067 2 1
1.048199 89.092682 0.978648 0 0
-21.691872 99.450035 41.273987 14 1
-26.830412 100.734870 29.092836 6 1
-0.089546 37.713509 2.608984 0 0
33.216103 134.269530 -2.559571 12 1
12.614765 110.112930 5.275754 0 0
-17.896242 107.101360 -24.488564 2 1
-22.405628 129.406770 6.182012 6 1
57.918377 80.060753 -3.513207 11 1
-44.295586 98.697990 -13.230720 4 1
-11.610143 119.621730 16.465490 6 1
12.413886 38.263332 24.972139 1 1
33.116734 105.892850 40.234196 8 1
-30.811211 88.310387 36.510242 14 1
48.965897 102.615120 -13.483653 11 1
-20.241468 118.596530 -15.301437 2 1
40.255016 118.112010 -12.103213 12 1
62.978172 76.145042 -14.148433 11 1
-27.128613 128.069990 6.022642 6 1
-1.777852 111.594750 -1.925212 0 0
-28.138165 110.504170 26.733994 14 1
-24.776543 34.560822 -6.182507 7 1
42.955498 104.392680 -28.253201 13 1
21.329941 125.080690 8.337257 0 0
-12.478712 90.372009 5.049165 0 0
28.736465 94.828072 -31.695644 13 1
61.691853 88.179474 -19.793169 11 1
-38.592442 115.033580 -13.943319 5 1
-47.205723 116.943520 -8.713478 4 1
24.752954 94.856522 43.222389 8 1
25.249933 135.705110 25.878969 8 1
30.458843 121.299250 -17.581165 12 1
10.526917 117.206860 37.954174 8 1
62.176811 73.085434 -15.365901 11 1
13.866799 70.835884 -9.382376 0 0
58.786209 75.850281 -9.207382 11 1
-6.309240 129.653750 1.674893 0 0
-22.066496 114.234450 14.373222 6 1
29.761663 121.843060 26.366606 8 1
45.603607 125.894890 4.723216 9 1
-23.045845 119.621520 30.694048 14 1
-18.409023 97.336327 -27.182787 2 1
-29.093552 96.850052 30.685242 14 1
-47.617256 99.030197 -11.199620 4 1
60.235981 67.803307 -7.459803 11 1
-15.435046 128.235410 -10.495548 2 1
33.459339 98.244713 -30.534990 13 1
64.868820 85.047043 -41.632599 10 1
-24.164289 114.219630 21.111580 6 1
-42.939182 122.613020 -8.475143 4 1
25.585245 115.399730 36.730087 8 1
14.013742 103.855830 41.661545 8 1
-55.648247 111.058340 -0.678815 4 1
-2.432700 9.062824 -1.794901 2 1
31.206720 107.632540 -26.995514 12 1
35.705826 118.432820 -12.935862 12 1
-36.007904 108.747860 34.644703 14 1
-44.808552 120.521530 -9.658442 4 1
55.648506 121.918640 10.037782 9 1
-50.402306 111.861420 0.233086 4 1
12.433074 113.921710 38.735348 8 1
38.215523 144.355330 16.989449 9 1
-45.509167 106.051990 -9.885221 4 1
60.368099 109.357240 14.770610 9 1
-9.140508 124.390670 6.677947 0 0
54.445084 102.156440 15.588799 9 1
-28.024817 111.260930 0.552399 6 1
29.505358 136.855990 14.219622 0 0
55.018612 92.952599 17.540485 9 1
32.629978 113.454900 -19.434858 12 1
-12.924780 83.270447 -28.323267 2 1
62.334324 118.135160 18.755648 9 1
-39.897415 108.151630 -13.721934 5 1
2.824812 72.770538 -1.484267 0 0
-12.607049 38.125408 2.942658 7 1
30.889729 111.799680 38.132713 8 1
-56.707298 110.173310 16.582413 3 1
32.252937 129.945560 -8.138720 12 1
51.265144 100.451830 -22.519476 11 1
37.113880 139.393680 14.164294 9 1
51.928394 130.100250 4.803699 9 1
3.198294 36.432602 22.076336 1 1
-24.443108 127.514430 8.379306 6 1
32.611614 89.804535 -18.741747 0 0
-42.068848 101.621560 -14.454082 4 1
-53.571327 111.292320 1.270115 4 1
-11.796486 114.595770 -21.484579 2 1
32.902287 106.390500 35.806091 8 1
-13.537292 121.074920 -18.066448 2 1
-41.587162 114.349820 26.891777 3 1
-21.146355 116.409190 33.703468 14 1
-47.590271 98.578468 -20.896585 5 1
62.961525 114.772930 19.440617 9 1
62.713154 105.037750 24.287920 9 1
-48.379440 100.834690 -15.659316 4 1
25.294638 130.165270 -6.486465 12 1
51.906326 119.564120 18.336044 9 1
47.554478 118.144300 5.436044 9 1
4.950594 90.130203 -0.446508 0 0
61.994675 88.652969 -14.941892 11 1
45.292530 100.725500 -18.505335 11 1
15.750509 132.852100 30.276651 8 1
-48.616924 107.790420 -6.017928 4 1
-18.097427 91.098526 -29.639597 2 1
56.756153 98.793053 15.906402 9 1
-30.741640 107.615880 19.173628 6 1
-11.011231 110.164710 -18.239695 2 1
-38.035133 101.825880 33.407986 14 1
19.218399 138.201980 15.344308 8 1
34.255070 105.976100 -29.091335 12 1
-10.818185 114.002430 -15.499154 2 1
-25.931292 117.632210 33.866024 14 1
40.049957 140.834920 12.329399 9 1
23.516787 123.412400 -16.762590 12 1
55.744949 98.517868 -14.773616 11 1
-59.238068 99.246628 22.110685 3 1
64.946297 80.193016 -17.895592 11 1
25.357172 112.757610 32.469067 8 1
46.644337 101.034710 -15.709542 11 1
30.647413 117.601460 -20.730366 12 1
-2.472902 39.683914 -3.133589 2 1
51.395420 108.588250 -36.368248 10 1
17.823328 111.087290 39.137962 8 1
52.591824 115.049260 6.660117 9 1
-28.984406 131.749100 -6.281233 5 1
-14.306296 43.360073 -18.894831 7 1
-22.100416 37.386612 -4.182747 7 1
60.567249 100.085660 -37.678509 10 1
41.040363 130.269500 -2.630287 12 1
0.327189 75.178146 -3.796247 0 0
41.430893 104.442890 -26.392548 13 1
3.556985 84.035751 -1.526519 0 0
-24.167814 120.436910 26.050789 14 1
57.685661 104.276060 -25.087713 10 1
18.495657 129.304720 23.791397 8 1
-23.559271 97.079994 36.122620 14 1
-17.892725 115.875800 16.321171 6 1
39.263809 99.817192 -27.550060 13 1
11.029072 121.635090 36.132885 8 1
0.143499 94.273163 1.095533 0 0
-25.738733 113.649480 9.757376 6 1
26.376617 139.276760 20.543100 8 1
-33.439407 109.064030 7.757318 4 1
-23.206463 108.021220 17.891514 6 1
-52.446693 104.241290 -10.642149 4 1
32.953434 128.821210 -2.832478 12 1
64.085526 103.842380 21.419250 9 1
60.947887 96.705254 -46.059811 10 1
-0.018319 61.000027 1.145152 0 0
-55.024708 93.044830 -13.845971 4 1
-43.557945 116.583710 25.374456 3 1
-53.647789 112.294290 29.113022 3 1
56.766705 95.419388 -24.000246 11 1
-39.073368 111.973010 -21.715582 5 1
-21.018597 95.301628 39.468235 14 1
-28.979015 120.631620 25.951027 14 1
63.140228 98.796219 -29.048046 10 1
-24.374649 125.289180 -5.485696 6 1
-56.544609 107.439630 -1.109848 4 1
-44.972694 113.785300 -2.026869 4 1
30.633770 132.834140 20.906820 8 1
-19.636850 128.891620 -10.818766 2 1
-9.585695 44.691895 -16.000797 7 1
-55.758923 97.624672 -7.171235 4 1
53.782177 93.948402 -2.554614 11 1
53.392826 135.555530 20.499292 9 1
-40.805248 117.421460 2.368500 4 1
22.349581 123.456650 27.873032 8 1
9.696843 67.161743 -7.174279 0 0
-18.934635 37.828220 -4.187467 7 1
46.617947 108.265360 -31.774067 10 1
51.733898 127.001550 18.488102 9 1
64.452774 87.062576 23.680725 9 1
45.463226 103.551780 -13.419189 11 1
-29.745525 125.288090 5.717787 6 1
-8.334381 41.982357 -8.471015 7 1
57.807468 100.191950 20.700415 9 1
58.993385 101.907490 -39.256062 10 1
59.297092 100.252640 -24.601524 10 1
-0.112884 69.024498 -2.149320 0 0
-26.234079 117.915100 18.548416 6 1
24.726288 89.196083 -36.361748 13 1
-45.421276 106.944350 -19.705456 5 1
35.807777 89.147041 -43.028389 13 1
30.979216 80.931183 -41.308418 13 1
4.160544 87.505836 -0.951168 0 0
-5.485634 36.948357 2.599920 0 0
63.584812 82.226051 23.467205 9 1
1.604821 59.106121 -3.859193 0 0
-5.270449 124.326680 -3.253226 0 0
-24.933739 113.407230 -23.953812 2 1
-41.182369 106.517730 -17.676754 5 1
-4.481605 35.622398 -1.884979 7 1
-17.383608 37.730701 -15.871305 7 1
36.957611 119.903800 31.255501 8 1
21.249338 121.605790 29.516653 8 1
-1.713612 28.240704 26.762503 1 1
-1.157463 15.258276 1.146174 0 0
-45.779793 119.937780 10.412209 4 1
-15.992432 36.427330 -8.151202 7 1
5.513825 42.797764 16.223818 1 1
14.600789 110.299620 37.504414 8 1
66.269264 94.434654 -28.836691 10 1
65.882889 109.668440 24.129332 9 1
-7.679169 42.245316 12.605966 1 1
-38.533627 118.302700 19.841152 3 1
18.308538 115.641490 33.415089 8 1
-39.313957 115.137610 -10.375012 5 1
-37.678753 118.905940 -20.798727 5 1
18.512131 135.809220 24.479294 8 1
-10.911390 120.966700 9.693292 6 1
35.667801 106.637330 -27.117041 12 1
51.765282 104.931710 12.466866 9 1
54.718910 132.435640 19.216475 9 1
25.648445 85.400497 -15.934843 0 0
-8.459490 116.982120 -18.824587 2 1
-15.210920 38.338890 -11.909197 7 1
58.824368 101.598330 -41.939228 10 1
34.664993 100.184640 -29.414402 13 1
32.408180 101.628810 40.783936 8 1
-24.311619 111.353780 8.466546 6 1
-24.089716 129.919270 4.330749 6 1
-0.680861 98.334389 -1.082047 0 0
-34.710659 103.510120 36.246159 14 1
-3.326805 47.957764 -12.236913 7 1
-24.650375 80.259804 39.538639 14 1
-0.771644 30.745321 0.867879 0 0
13.223587 107.999370 6.229588 0 0
41.754852 133.966660 14.161944 9 1
51.526039 108.493330 -39.213173 10 1
-25.947336 97.450485 40.796257 14 1
55.473087 108.276370 11.350652 9 1
-24.184475 92.625999 39.736198 14 1
63.881432 118.462700 22.489561 9 1
-20.757656 35.321869 -6.884572 7 1
-40.418926 111.725820 -10.683663 4 1
18.305365 120.931540 35.780952 8 1
-56.107281 96.692284 -11.726648 4 1
34.622395 125.953060 26.703836 8 1
-58.729710 106.205550 18.734205 3 1
24.356413 104.463000 40.507771 8 1
20.408117 77.626945 -10.289700 0 0
17.723318 121.536970 8.636786 0 0
48.426285 130.810390 17.062262 9 1
48.539700 109.840510 -30.244352 10 1
-32.386761 102.759230 6.604356 4 1
-24.590843 117.152740 28.181438 14 1
-17.970695 119.591820 10.906291 6 1
26.146608 77.197884 -42.184780 13 1
62.877468 81.977112 -17.588774 11 1
-40.688591 115.074770 -7.402914 4 1
1.261959 81.240219 -1.071506 0 0
36.554764 132.465480 3.454936 12 1
-9.474127 88.739594 1.295873 0 0
62.283401 84.822182 -47.273746 10 1
-15.465497 94.111671 4.891426 0 0
-42.826851 121.172990 -13.660169 5 1
-6.815610 40.245975 14.839004 1 1
-23.968874 107.267960 8.934866 6 1
-51.467457 112.963110 -4.896941 4 1
36.396935 137.674000 12.493331 9 1
-49.569836 118.907730 23.234449 3 1
-47.155090 109.941590 -2.660897 4 1
20.921837 125.332590 27.241585 8 1
-25.671577 96.076210 34.420372 14 1
48.931164 137.642900 8.079081 9 1
