1.359549 295.720860 -110.654440 54 1
-80.649704 148.394840 85.878510 5 1
15.981139 334.665070 -11.678691 31 1
43.698502 200.169890 61.169300 7 1
-57.890217 215.172500 -67.193863 63 1
-54.847767 325.570680 -27.978756 29 1
-30.517059 344.937680 -51.682156 30 1
19.393637 62.092186 37.842922 14 1
-85.810776 268.978240 -54.223309 55 1
-54.075108 230.397690 33.433338 36 1
-3.259286 68.573502 -31.215996 0 0
-7.290727 371.138180 25.946545 34 1
-2.762196 160.337920 -121.493060 46 1
32.916080 168.042760 47.478252 40 1
27.967772 72.305344 58.626293 14 1
-93.668381 220.110750 -17.683119 51 1
-48.283821 113.041870 67.428329 8 1
11.801591 207.844860 0.032890 26 1
-40.695381 279.590480 -89.685715 59 1
-55.675972 222.526630 -28.616297 51 1
41.976891 205.605240 108.890950 2 1
-57.141296 347.320190 -99.828941 56 1
30.182695 270.338230 -49.076385 57 1
18.412481 234.943800 38.401802 25 1
4.555627 163.977540 -89.308121 0 0
-82.005066 156.732480 -33.127350 68 1
-22.836077 99.113945 -45.095356 0 0
-22.556717 21.414726 -6.859842 0 0
-20.475061 347.896120 -13.636123 0 0
57.165302 202.973140 2.947734 24 1
86.805992 266.909000 -14.593137 1 1
68.259201 235.137830 19.657446 33 1
-28.863077 379.302830 -36.697659 22 1
-14.649492 321.063930 -17.592525 0 0
54.343842 150.385970 -22.231607 47 1
-26.759518 352.330110 9.950949 19 1
57.815609 235.611250 -67.429901 35 1
20.686951 271.414400 -81.366592 58 1
2.523367 329.348330 -80.604515 28 1
-60.921532 311.493100 -63.091770 29 1
14.267940 56.048927 -1.018401 75 1
-63.688751 173.086400 -50.582119 71 1
-20.378534 292.812040 56.854099 45 1
-55.838356 372.068600 -26.092022 18 1
21.066576 293.522800 -98.465141 54 1
111.429740 264.683200 -15.451513 1 1
25.629042 156.450530 -19.318718 49 1
-14.602037 227.930040 -118.860880 61 1
41.271172 255.388500 12.478001 33 1
-49.819275 284.199040 -62.093983 60 1
48.438408 193.009890 126.239510 2 1
-12.538776 217.515000 -55.560638 0 0
47.201782 260.323610 -36.644424 35 1
-7.433145 281.757290 31.025846 32 1
-29.914412 248.310470 -39.082344 53 1
23.158230 256.716160 -111.346310 58 1
-48.966309 215.938800 -2.309985 73 1
-7.594535 275.973510 -115.136430 58 1
-22.454094 213.356310 39.012329 72 1
-80.744385 314.921840 -72.437035 27 1
-34.106747 269.072270 22.410753 36 1
8.194043 125.975980 10.924405 0 0
-37.634308 130.716340 11.915199 0 0
12.075987 87.113434 61.455086 11 1
-26.699650 198.968220 -5.768543 79 1
14.439358 287.717220 -55.428429 57 1
-53.457779 123.936220 -10.998376 0 0
-10.948095 52.026680 1.888475 0 0
-34.584183 194.636260 -53.248550 79 1
59.978256 179.056690 17.451880 39 1
6.031668 345.257390 53.383461 34 1
-55.578697 247.931270 20.160269 36 1
-54.125328 258.443300 -26.806612 60 1
-89.637848 103.133060 47.510201 80 1
-71.428062 201.030750 -58.006107 63 1
-23.875713 217.257570 84.648148 6 1
-1.836202 302.391720 -130.779400 21 1
1.828086 288.182980 9.084746 32 1
-6.832364 277.168030 -22.545933 0 0
-92.447319 182.829970 -115.281750 50 1
-66.628296 183.633990 -118.082700 52 1
-62.846596 369.266910 -57.722042 67 1
-44.694057 197.129330 101.606690 6 1
-48.697010 258.873170 -120.300220 59 1
-60.008083 168.106990 16.934231 43 1
-10.208261 151.998200 -57.066883 0 0
15.340542 372.054140 -21.316299 15 1
-29.297285 97.741898 -9.939772 0 0
-22.713346 353.355100 -70.616211 22 1
79.413643 164.818950 121.123450 2 1
-24.555571 297.045530 -155.058590 21 1
-16.660921 215.377460 -139.233550 61 1
35.227295 75.035118 31.681999 37 1
-24.526762 197.034760 -31.563768 79 1
-40.671436 373.098360 -10.548915 18 1
3.856478 75.798210 32.865864 0 0
-39.938492 160.791320 -0.633551 77 1
-11.082769 283.321780 -42.420837 57 1
-91.692986 256.549740 -74.495850 55 1
-30.711845 118.021220 56.713650 8 1
-11.073883 110.613550 -3.368142 0 0
-7.148397 354.244480 2.939594 0 0
2.879051 277.357150 -72.878304 58 1
22.809301 318.596310 -91.148750 28 1
64.725716 178.650790 66.644478 4 1
-52.782055 328.322810 -116.330990 56 1
-65.530449 274.263640 -76.703018 59 1
-63.653557 203.689880 -29.924829 71 1
-20.941244 226.704090 -32.284725 79 1
-63.876949 234.655910 -144.206450 23 1
-31.001616 154.012760 -63.611198 0 0
-45.631962 210.690570 -82.559746 63 1
-51.301075 202.197300 31.096506 73 1
-34.935993 288.971650 -118.690730 59 1
-47.209236 245.496350 -138.217070 23 1
-87.962593 208.923520 -48.176857 51 1
-67.363762 106.420720 24.720291 80 1
-45.952694 161.510940 -31.052492 70 1
-1.701501 141.128780 -26.270437 0 0
-68.599709 159.186920 74.376312 41 1
22.509880 360.537510 -4.618746 17 1
-35.862400 277.654270 3.820907 36 1
-57.705460 323.985990 -47.536968 29 1
-70.589027 241.478390 -102.435160 62 1
-84.556488 345.493590 -54.974731 67 1
30.610092 271.594910 21.776333 32 1
-51.948166 342.901120 -66.102394 27 1
-30.234838 244.285740 -59.077728 0 0
-68.913437 133.310460 -18.553900 66 1
22.388601 352.008450 22.436377 17 1
71.529915 256.895540 -7.521410 33 1
-29.838419 217.724370 1.128042 79 1
-25.424452 149.389180 -111.378830 46 1
49.703411 240.598600 22.035007 33 1
-1.004514 29.017138 -8.947642 0 0
-24.589764 323.074650 -56.256203 29 1
54.357162 206.408160 88.724365 7 1
47.086163 86.080200 82.230423 10 1
35.568851 78.986275 -3.423019 38 1
80.827087 263.426640 -38.059967 35 1
-9.040262 353.064730 32.891418 17 1
-4.678478 168.725690 -19.569876 0 0
-7.635853 257.483150 -33.392582 0 0
18.999662 140.256990 -10.814827 48 1
-40.334164 347.867030 23.551126 19 1
-77.510811 220.630750 -28.093407 51 1
-91.642143 207.000090 -93.302483 50 1
25.576096 178.420750 7.581933 39 1
-21.021215 288.672450 -83.702011 58 1
32.927979 325.546540 -21.879599 31 1
18.046352 152.572390 -36.166515 49 1
-33.668106 137.176010 -6.229705 0 0
1.551077 348.593540 -47.469612 28 1
-9.163379 233.612720 -3.933249 0 0
4.244711 155.839540 42.409298 40 1
-61.747833 119.623660 56.204231 8 1
-50.678555 213.643510 95.134819 6 1
0.080857 128.655670 -62.662487 0 0
-54.361397 128.121120 -29.184069 66 1
-23.200344 325.294280 -97.062096 30 1
136.253590 245.279020 -10.125041 1 1
-38.210262 282.904020 -47.365887 60 1
27.788229 198.248520 99.320114 3 1
-13.845262 145.576070 -7.329615 0 0
-41.208324 370.248170 -55.411915 22 1
-45.899311 159.037090 53.961285 42 1
59.203754 258.586300 -51.745640 35 1
37.302902 168.495570 -70.270561 44 1
-30.461494 277.770810 -72.158974 0 0
-74.901306 211.094100 -73.024307 63 1
27.391542 56.248230 -13.902563 74 1
117.903650 264.342070 -33.750469 1 1
-62.862343 275.583650 -96.613914 59 1
-38.665596 241.156800 -122.548870 61 1
34.256573 226.494770 34.332909 25 1
-70.175217 188.171110 77.356468 5 1
-52.965054 161.108050 33.304482 0 0
-14.938595 367.513490 42.561489 34 1
-63.643642 241.283480 -83.505150 62 1
17.719810 256.702670 -46.520557 57 1
-49.490612 209.573910 -51.980370 71 1
21.813112 222.834140 8.627631 26 1
-41.767479 209.873310 -29.232426 79 1
-65.730751 195.978870 -104.733660 52 1
62.473167 188.932800 115.391070 2 1
19.852818 173.510060 -89.023140 44 1
-10.509945 251.668010 -72.764030 0 0
-14.208946 292.471010 -119.022360 58 1
-1.053272 332.859220 -17.282845 31 1
26.064585 279.476170 -66.302666 58 1
-59.138901 224.153810 -162.417370 23 1
24.483339 159.959180 24.367954 0 0
-33.991013 339.552550 -69.136047 30 1
6.359511 330.542270 -46.697948 31 1
-82.309273 126.172740 -28.096664 65 1
12.435382 70.050957 66.895470 11 1
-17.247602 253.958600 -50.105774 53 1
-5.212809 348.901820 -77.104416 28 1
17.639944 179.085370 103.915150 3 1
-28.252522 154.653290 49.115776 42 1
-12.182878 169.728820 -51.140003 0 0
-73.718140 156.569560 -48.588875 68 1
-20.356855 210.625730 -21.309935 79 1
26.488276 269.663060 43.138046 32 1
-34.701435 273.829470 -109.900600 59 1
-21.592321 205.072490 -47.285091 79 1
-0.805280 169.532820 -106.754750 46 1
-65.890221 131.686450 -1.345556 64 1
27.071499 287.995210 -113.917270 54 1
-33.004410 210.988780 -59.575504 79 1
31.590645 369.085690 -26.834106 16 1
82.330322 239.188900 -61.404758 35 1
-65.463928 372.842590 -40.588905 67 1
-74.218513 162.307300 56.179256 41 1
-6.940293 222.389010 -23.131727 0 0
-42.261017 330.869750 -44.179096 29 1
-40.659306 192.345920 -113.663150 52 1
-18.733389 185.581270 -73.684052 0 0
-40.996838 353.101960 -100.799810 56 1
-83.889778 95.733818 74.555969 78 1
-18.986183 333.208710 -43.548111 30 1
12.256545 340.943390 -72.558739 28 1
-37.148769 358.362610 -2.367318 20 1
-84.893173 221.032120 -100.653940 62 1
-57.896919 213.914410 -94.431519 52 1
81.741615 169.782240 63.682674 4 1
-1.882629 299.978730 -169.650800 21 1
6.232274 359.532320 27.376745 17 1
-44.600235 345.397280 7.218354 19 1
-60.149582 208.725340 78.564217 5 1
21.792627 364.077910 -47.560608 15 1
-57.188789 289.174130 -47.650288 60 1
33.124161 169.742360 -130.911930 12 1
32.032776 228.282200 -21.742983 0 0
-22.437943 82.461807 -7.857522 0 0
-67.078148 320.667540 -125.149650 56 1
-10.136168 161.425340 -2.732544 0 0
-22.495436 179.398130 -5.847817 0 0
-7.109379 292.931060 67.234787 45 1
-85.283470 161.217290 75.478310 5 1
-28.856516 211.684040 -81.668236 0 0
8.794278 61.494381 -15.973004 76 1
-4.567603 16.736687 1.987953 0 0
-13.920893 276.173340 -74.682724 58 1
3.997387 89.121460 46.641273 13 1
31.214218 207.901570 69.309135 7 1
50.488693 144.882230 -41.568367 47 1
-26.437618 346.877960 -29.295650 0 0
-17.595585 366.130190 12.933688 19 1
-37.163605 264.842990 46.695232 36 1
0.670389 276.299870 -89.720436 58 1
3.088114 114.146620 -17.303263 0 0
-18.339043 279.829220 -56.951450 57 1
38.216148 226.360340 7.014910 24 1
-60.337105 160.710210 -39.449471 70 1
23.447605 50.082188 48.440136 14 1
31.125389 64.141060 85.870262 10 1
29.635311 284.491330 -85.623566 58 1
-49.902912 262.586300 -104.369630 59 1
24.940678 177.024750 -118.719250 12 1
-62.949333 163.349500 -10.157217 69 1
27.642633 88.776138 56.665909 14 1
-40.769932 288.624420 -103.403480 59 1
-73.933601 287.979400 -73.748840 55 1
-36.141857 207.633770 90.755783 6 1
-62.767624 236.236540 -115.870340 62 1
-22.858578 280.987730 25.783670 36 1
-23.301825 175.796950 -24.137653 0 0
1.955593 287.370850 -125.952240 54 1
48.495090 172.105420 -135.780560 12 1
-98.768166 172.912750 -94.683022 50 1
-1.469340 273.930020 44.146278 32 1
58.458527 266.010860 -11.051851 33 1
54.657635 188.548800 58.652431 7 1
-44.821098 257.775180 27.098606 36 1
3.345536 49.116890 8.751576 0 0
-55.248371 208.593730 16.785942 73 1
-79.340187 112.445720 55.937504 80 1
-27.027613 333.428220 -15.790985 31 1
-84.584343 283.042850 -61.701130 55 1
31.052345 156.864670 58.805840 40 1
0.618261 278.700960 -55.760056 58 1
50.678761 172.401370 6.120207 39 1
-40.779613 376.946990 -26.482868 18 1
-20.021238 298.870270 -66.071693 58 1
-51.173553 283.971590 -77.829788 59 1
-41.096893 148.707890 9.467875 77 1
25.901928 272.684200 -97.937042 58 1
-41.668644 241.799160 -93.428635 0 0
44.130848 73.446594 8.679537 9 1
-8.371098 308.572660 -10.285738 0 0
42.132217 172.339490 35.422894 39 1
-57.224174 113.458340 41.734974 8 1
21.727491 88.001419 73.879807 10 1
-32.309361 225.587550 57.227440 72 1
5.963099 293.224520 -70.056046 58 1
12.974884 284.317960 19.511757 32 1
-62.701164 331.345950 -64.297928 27 1
17.099836 164.491790 47.868526 40 1
-10.365532 199.788190 -10.051851 0 0
68.066162 185.453460 39.665535 4 1
55.176823 254.080020 -24.635876 0 0
-10.917386 288.970700 44.588757 45 1
9.398335 301.123380 -91.291077 54 1
-25.974463 193.841290 111.447540 6 1
20.294220 75.889572 -1.926763 38 1
16.237106 271.004640 -56.146088 57 1
-45.851406 294.361390 -89.393082 59 1
-12.946704 39.950409 -7.833673 0 0
-94.774399 90.788841 39.095619 80 1
13.835240 278.725100 -117.393360 54 1
-31.260906 340.943790 -90.329369 30 1
-73.479782 118.679850 -5.553498 64 1
41.089596 157.472580 -17.754957 47 1
-17.716349 338.062230 -73.563080 30 1
-7.496106 86.796455 -4.225678 0 0
-34.506523 193.547960 -69.844315 0 0
-91.077477 81.370178 75.170692 78 1
-7.748806 337.998470 52.769306 34 1
-56.253212 289.145020 -101.453290 59 1
-76.046104 238.569700 -135.431470 23 1
-90.726791 216.100780 -34.774017 51 1
-82.191582 189.752200 -60.140965 63 1
52.930233 257.426640 0.558506 33 1
-48.207340 367.837890 -38.775574 18 1
27.707579 169.440280 114.296100 3 1
45.091167 202.410000 76.480812 7 1
-58.585075 204.467930 -6.291294 73 1
-51.020714 361.710210 -8.067175 20 1
-93.014069 196.564830 -107.852630 50 1
33.362366 255.175130 -45.508259 57 1
-19.410986 210.601440 70.540657 72 1
-80.041451 191.916280 62.748623 5 1
64.799240 248.084500 -61.440193 35 1
-59.385891 180.885970 -38.182503 71 1
-24.472773 236.661360 -126.561120 61 1
9.359645 336.649350 -28.142839 31 1
-21.888742 228.914380 -59.381046 0 0
-61.686817 205.439040 -78.959427 63 1
-8.412323 195.954500 -28.772408 0 0
35.384842 247.563810 -97.447609 58 1
10.051995 171.516240 -22.474428 0 0
-15.588376 120.379200 -14.484468 0 0
12.653332 145.549380 -23.849518 49 1
-71.341370 343.846310 -104.631910 56 1
-27.654776 361.608920 -13.750431 0 0
-34.907951 360.969300 -65.824348 22 1
-58.328445 220.602100 -13.833492 51 1
-14.912682 264.334630 -22.016792 0 0
-59.382549 194.622760 20.800953 73 1
-89.775513 104.040020 63.227913 78 1
17.161575 72.996895 48.034485 14 1
13.849096 67.028877 9.313999 0 0
33.645100 79.257607 82.021347 10 1
-12.081298 263.578610 8.829947 0 0
26.516619 337.987490 18.701065 17 1
15.795485 233.176760 23.573900 26 1
45.827534 367.455750 -14.272542 16 1
-25.831142 282.985140 -38.932472 0 0
-33.667244 153.135710 -11.874222 77 1
30.372637 319.361540 -41.833134 31 1
-10.262502 326.702270 -88.018814 30 1
-7.174073 288.251800 -100.510940 58 1
-33.264359 365.007020 14.376534 19 1
-66.805984 335.668400 -45.769657 27 1
3.136445 62.669163 53.211880 11 1
-3.460179 360.360380 16.090235 17 1
-14.297821 325.639500 -31.682856 0 0
77.792458 252.565870 5.441858 33 1
-75.042786 328.560030 -72.096169 27 1
14.250240 330.796140 -89.485260 28 1
37.621376 204.152220 48.309612 25 1
-9.547638 136.874280 -55.058754 0 0
-24.319719 161.914550 1.583741 77 1
27.372843 172.263690 33.906601 40 1
-12.451718 133.436160 -32.718391 0 0
48.810207 215.052810 3.243704 24 1
10.835562 368.874300 -7.704610 17 1
-39.318340 105.079930 75.879562 8 1
66.809860 259.182590 -38.624706 35 1
-75.244606 356.327790 -58.225307 67 1
122.359050 254.537290 -14.136999 1 1
-64.794983 119.754230 30.211119 80 1
-9.366998 46.012482 15.160355 0 0
-77.856789 193.340530 -97.119446 63 1
20.622051 137.750750 61.042835 40 1
-54.222073 156.858750 -20.022644 0 0
-80.759178 108.797450 31.344627 80 1
-34.739979 99.774872 13.750472 0 0
43.121704 177.426010 53.317791 4 1
-55.177967 191.852080 -114.352960 52 1
-32.861748 311.176610 -54.733948 29 1
-53.661015 210.486150 -37.973587 71 1
-33.761028 205.863620 -17.725424 79 1
20.230598 199.420090 -20.961647 0 0
17.071075 332.616240 32.852688 17 1
29.726276 179.533160 -105.282940 12 1
-15.207523 338.881680 -24.204308 31 1
-76.558487 172.088010 80.216415 5 1
-19.236612 207.832180 3.171681 0 0
2.969220 41.992531 -3.825918 0 0
-3.108558 355.456300 47.392033 34 1
-77.026871 153.086180 29.144684 43 1
17.290419 349.716280 9.132612 17 1
3.451909 284.967620 -43.126106 57 1
-56.159740 165.952030 46.629997 42 1
-38.551605 206.137160 -0.793178 79 1
8.353522 175.215190 -80.580170 44 1
-4.699429 73.454056 -44.649967 0 0
-59.281727 340.499540 -112.362070 56 1
13.979269 275.824010 46.559467 32 1
-18.479645 285.471860 -23.551416 0 0
-12.452729 155.460560 -112.070470 46 1
112.506090 262.986760 -1.261597 1 1
-7.439149 102.200770 -44.586597 0 0
-72.842697 167.162450 -36.559666 68 1
-20.066103 288.185060 70.958466 45 1
-55.175179 247.059450 -93.752609 62 1
-24.241024 284.961880 -127.200490 59 1
-67.900223 98.129921 79.753838 78 1
19.912661 370.600740 -34.825989 15 1
-1.101804 99.489174 -3.326002 0 0
-60.835617 290.357180 -68.633514 55 1
26.130289 66.562828 24.131668 37 1
-10.828399 321.017820 -3.845744 0 0
-0.210301 56.061245 -6.413631 0 0
-74.755997 161.366500 -21.697754 69 1
-22.608110 224.073180 -46.106781 79 1
-59.311428 171.571690 -117.072140 52 1
27.226442 143.701800 -25.191103 47 1
-12.549605 302.195800 -160.676100 21 1
-94.370720 259.497830 -60.205902 55 1
-60.530674 255.983060 -113.206100 59 1
-1.667608 82.555634 -31.816284 0 0
3.472846 374.377960 -28.498451 15 1
-43.833290 341.276580 -54.378349 27 1
-78.512070 208.740160 -103.038990 63 1
8.644654 132.095690 -15.767505 0 0
-95.057152 196.879580 -84.188232 50 1
-45.354156 273.065280 -122.566520 59 1
-4.518766 57.835686 -22.321293 0 0
40.763821 229.819410 21.234730 24 1
39.785477 183.148100 7.971206 39 1
-12.741507 311.065980 -27.125916 0 0
-18.752729 251.838070 -27.182030 0 0
-9.750587 299.506290 -142.109330 21 1
-87.158127 145.293090 -39.368267 68 1
3.129918 216.679080 6.397979 26 1
-67.353928 184.574310 90.496902 5 1
54.000549 199.960800 113.030630 2 1
-12.349785 344.212130 -49.350124 30 1
-52.827000 346.668790 -86.640984 56 1
-9.644252 229.479920 -49.161572 0 0
17.667706 96.452522 50.841373 13 1
13.935744 292.708920 -115.636400 54 1
-58.144886 117.082920 -36.834679 66 1
64.187584 180.361130 52.599411 4 1
-7.640110 172.008650 -95.014809 46 1
-10.292274 292.191380 -74.241661 58 1
-44.733913 214.619400 -98.472610 52 1
-31.258057 289.440460 -93.130287 59 1
26.582865 341.310760 -66.438339 28 1
-48.183300 290.389980 -115.218120 59 1
38.896526 66.141525 -7.047523 9 1
6.773201 270.201870 -29.719610 57 1
99.319611 268.655150 -9.230621 1 1
-73.111839 228.041060 -100.376290 62 1
-43.555050 272.958530 -67.318947 0 0
-53.638119 245.921040 -119.379110 62 1
-60.571419 269.586430 -31.403522 60 1
29.459951 281.742650 -125.813390 54 1
-18.059797 122.878480 -54.101929 0 0
-13.799193 275.936430 -88.319893 58 1
-85.789650 267.147090 -68.071251 55 1
30.762268 168.816650 -82.326118 44 1
-53.559940 273.975520 -86.788628 59 1
-46.301765 183.610230 -69.956436 0 0
50.765148 179.502090 27.660997 39 1
24.796953 174.856110 20.795633 39 1
-33.017719 205.727330 -38.941662 79 1
17.404484 74.981735 33.988293 14 1
11.546706 176.523450 -120.739160 12 1
-21.121061 339.815610 -60.118309 30 1
-78.593864 128.857640 2.719971 64 1
70.861336 238.321730 -69.846825 35 1
-62.349522 212.119340 5.221440 73 1
-45.850323 267.372590 -33.054165 60 1
-48.946472 211.699070 -17.700516 79 1
-38.233223 245.661670 -109.710040 61 1
-17.283197 133.658080 -13.068689 0 0
43.121658 165.038670 -86.136154 44 1
18.652159 224.572190 46.955097 25 1
-27.043751 108.722270 1.607279 0 0
-19.043713 228.018710 -135.293580 61 1
42.073021 148.493030 -27.913097 47 1
5.103309 344.521910 -61.790874 28 1
-50.466816 243.238390 32.025894 36 1
-74.721825 159.267110 91.342766 5 1
-83.046745 204.631870 -81.479225 63 1
-4.648632 273.085630 -36.656445 57 1
-4.521945 155.551320 -21.978317 0 0
-43.170902 332.062560 -26.462479 29 1
72.206619 176.402480 119.958020 2 1
-31.433701 370.362490 -46.286934 22 1
-66.552452 161.334520 26.331018 43 1
-34.939617 221.592900 -30.835169 79 1
-10.844009 200.772350 -53.775417 0 0
58.031208 230.035660 26.295416 33 1
-84.071999 318.834290 -60.261082 27 1
-46.949181 341.202550 -105.532360 56 1
25.688784 63.045742 49.478233 14 1
-18.661501 152.549290 -18.042002 0 0
88.014359 267.224150 -27.703987 1 1
-21.778879 310.029110 -16.922991 0 0
16.784111 264.340420 -35.852077 57 1
-41.952789 292.584350 -55.790924 60 1
22.132063 333.185880 -23.282471 31 1
-1.704465 142.001430 -11.511782 0 0
-17.003649 361.424590 25.557077 19 1
33.669979 279.468200 -106.249000 54 1
-31.332163 266.666320 35.122036 36 1
25.312799 259.144410 -97.793121 58 1
0.197507 281.166690 19.983833 32 1
64.616249 172.620570 78.222229 4 1
4.383179 154.312120 -80.548271 0 0
-3.455994 364.943540 36.988064 34 1
72.600365 246.866530 15.911928 33 1
-81.877785 75.850479 84.745972 78 1
-29.083971 281.675630 14.150780 36 1
34.148918 271.588040 -85.802734 58 1
-0.116745 117.580460 -5.204238 0 0
-37.712650 221.754470 10.619695 79 1
-62.320492 185.872730 -53.103092 71 1
-43.745483 120.162800 57.549412 8 1
-17.122631 230.495830 -20.513781 0 0
45.888420 260.881070 -49.505844 35 1
-23.635735 223.267940 47.910229 72 1
-8.778494 231.946090 -31.891237 0 0
53.400555 251.898360 15.664120 33 1
-30.964842 297.468200 -105.112990 59 1
-12.241605 27.896093 -2.605680 0 0
-35.273247 119.007850 6.883002 0 0
-83.051750 156.231260 49.007782 41 1
74.319611 194.010800 106.409360 2 1
-77.123352 149.687040 72.601036 41 1
41.043324 204.566560 96.080894 3 1
-33.808517 339.995510 -40.254841 30 1
99.721909 265.462650 -21.694736 1 1
-66.616966 197.148420 -40.751656 71 1
8.588664 349.762600 19.363913 17 1
-51.362137 205.468290 4.754368 73 1
-61.533417 202.761140 -66.392731 63 1
-64.317871 280.032780 -41.384811 60 1
16.101717 147.882840 -48.013458 49 1
-66.883301 223.473050 -35.022327 51 1
-33.300659 369.703340 2.229733 20 1
-20.250145 376.627560 -45.853546 22 1
16.856913 204.244900 96.355621 3 1
-23.596561 360.685150 -26.088846 0 0
53.576279 195.935070 69.114334 7 1
-71.442818 213.960560 -61.036343 63 1
-91.165359 175.707430 -104.723710 50 1
-22.516508 357.951840 47.652393 34 1
-15.368401 296.458710 -95.123802 58 1
-78.902039 103.300510 19.690353 80 1
35.994221 79.805717 19.851011 37 1
-66.787720 225.052000 -22.312088 51 1
4.982836 341.592860 -10.191679 31 1
-7.851746 252.504240 -58.593742 0 0
-25.651962 215.365480 -10.650792 79 1
51.740517 246.463700 -64.817261 35 1
-15.781278 240.440320 -117.003590 61 1
-1.693394 299.371220 -98.070030 58 1
-6.214775 148.234700 -123.079110 46 1
16.697477 284.599490 -106.244730 54 1
-42.394920 271.865360 -100.100570 59 1
-12.047178 220.960250 -39.967266 0 0
75.709496 261.936000 -18.809080 33 1
-40.825001 357.794770 -14.479170 20 1
-18.242069 110.899130 -48.365639 0 0
-40.899124 336.555050 28.923565 19 1
-23.351740 290.429110 44.890465 45 1
-67.150726 108.271320 56.242008 78 1
37.546749 214.902820 39.526714 25 1
-36.198013 110.217030 64.792778 8 1
-37.957264 202.835850 -107.166160 52 1
33.610935 196.504640 110.690590 3 1
-72.681190 277.585910 -66.967819 59 1
27.542534 235.965580 29.802656 25 1
-42.278355 263.666320 -130.148270 59 1
-83.760735 226.551700 -13.737888 51 1
4.096437 284.951870 -104.652260 58 1
1.065176 322.095670 -90.617699 30 1
-6.237264 366.442470 5.224994 19 1
-15.185156 218.852260 -127.349140 61 1
69.528465 190.164510 66.729401 7 1
-69.894913 114.389960 -39.854271 66 1
-24.071014 284.121190 -114.822180 59 1
-57.080681 380.826570 -34.780796 67 1
-5.422204 336.723360 -74.399689 28 1
7.376455 76.078247 57.331486 11 1
-66.993256 127.590080 -29.435871 66 1
-25.188671 360.020970 0.335589 19 1
-55.187359 336.596650 -55.856365 27 1
-41.312382 380.640320 -38.268288 22 1
82.307503 264.997280 -50.226753 35 1
-30.275892 329.035340 -46.530132 29 1
-33.117725 223.864200 79.854912 6 1
-43.101562 231.882930 -129.476030 61 1
-52.316898 318.692230 -57.278133 29 1
-39.556980 285.925810 -69.351204 0 0
-78.015106 232.051120 -145.719650 23 1
-27.710087 343.742550 -78.857109 30 1
13.941892 277.840240 -67.491798 58 1
53.634594 202.291670 100.971080 2 1
72.860611 168.601360 130.803340 2 1
18.992338 273.522090 -44.451031 57 1
-26.263273 155.887020 -100.753260 46 1
-66.424553 207.996030 -100.992050 52 1
-45.942226 367.401820 -20.539570 18 1
-78.482353 218.411730 -90.290558 62 1
-34.538013 334.215640 -58.107048 29 1
18.595016 268.049410 -110.418130 58 1
28.087446 148.510890 -10.322577 48 1
-41.556202 271.348080 -44.720612 60 1
19.507708 325.684140 -47.323635 31 1
-99.318871 204.328020 -46.853653 51 1
9.348052 173.278410 -95.759949 46 1
28.483463 134.733760 -4.646558 48 1
5.476819 71.863823 21.332397 0 0
22.228050 190.061260 106.509900 3 1
-22.944603 207.542530 92.248688 6 1
10.643255 297.898280 -102.953360 54 1
63.128914 144.749920 -28.467100 47 1
-56.046482 200.093570 -55.837044 71 1
-33.716045 368.358640 -34.432415 0 0
-52.187069 338.353240 -77.363113 27 1
-44.279793 115.906490 -9.579032 0 0
37.362381 261.727390 2.717524 33 1
27.505527 79.250877 48.321117 14 1
-70.783005 265.304080 -82.910240 59 1
-98.698586 212.899660 -26.267399 51 1
-5.518869 270.354280 -81.217880 58 1
0.983630 326.495940 -33.212082 31 1
-20.493286 208.099170 -34.761623 79 1
-29.488176 353.164370 21.672890 19 1
-44.331680 211.502380 27.904587 73 1
-41.540371 272.008910 12.841565 36 1
-61.070908 266.865600 -105.354750 59 1
13.400271 270.643860 -90.850571 58 1
50.937088 165.246190 -145.299840 12 1
-48.004936 284.139920 -40.596428 60 1
-11.193322 350.577760 -66.743446 28 1
-56.471954 361.865420 -19.644791 18 1
-15.410933 262.181520 -76.039757 58 1
-25.555079 323.228210 -21.911631 0 0
-5.106044 106.083650 -12.629895 0 0
22.056452 372.706360 -9.872283 16 1
2.208027 341.091770 -82.492599 28 1
-54.045776 240.690170 -147.109090 23 1
3.007690 290.818910 -54.386520 57 1
52.976570 165.574690 -3.328635 39 1
-6.231825 276.440610 -65.324226 58 1
-32.871845 197.876800 102.354460 6 1
-67.832306 199.750920 79.661011 5 1
56.130451 211.429350 11.956131 24 1
-17.836086 283.226810 36.455570 36 1
3.532562 279.958310 35.006912 32 1
14.731858 141.314210 -34.733650 49 1
-20.702229 210.448490 -60.329201 79 1
-43.427719 152.508640 63.762383 42 1
-27.243328 296.079830 -168.296050 21 1
-20.542267 186.769170 -27.317558 0 0
-67.309715 230.312100 -154.578430 23 1
5.260396 115.886860 5.577043 0 0
-35.621975 107.684430 -10.243917 0 0
-65.811958 280.828250 -86.549850 59 1
32.768517 250.414310 -109.056680 58 1
57.403137 265.636200 -34.430061 35 1
-13.244018 300.859190 -127.727690 21 1
-8.538385 254.124710 -21.952509 0 0
29.894831 254.279940 -32.565338 57 1
-39.236736 354.729130 13.688984 19 1
58.587212 187.249620 126.517960 2 1
54.892338 176.238620 72.874825 4 1
-68.550873 235.596880 -92.565323 62 1
28.447783 155.570280 -30.605431 47 1
-16.889101 76.166824 0.243829 0 0
-57.749355 241.068050 -135.917530 23 1
-54.928120 267.630160 -115.779640 59 1
-48.993294 278.005000 -52.236649 60 1
24.180601 281.106690 18.362148 32 1
9.182091 295.636750 -80.988617 58 1
-80.483032 215.809040 -40.942997 51 1
2.761064 301.812620 -141.612790 21 1
-65.091255 317.828700 -54.257652 29 1
27.071638 320.498750 -30.727982 31 1
-39.333248 204.760070 -48.956738 79 1
-21.269793 202.904920 -80.831337 0 0
-31.630917 280.969600 -101.082280 59 1
-38.857491 218.869960 -7.234157 79 1
-54.337685 217.579970 84.272034 6 1
6.356870 292.815920 62.333176 45 1
18.562416 62.516792 -9.776716 74 1
-66.558060 363.922760 -48.134739 67 1
-42.654835 204.746780 -61.004745 79 1
-78.283455 200.857940 -67.402733 63 1
-54.788055 264.969600 -93.959984 59 1
16.631241 341.518100 23.825033 17 1
20.800159 282.551240 -94.725746 58 1
-50.266323 324.196990 -38.691444 29 1
-58.043583 170.166600 28.231148 43 1
48.648712 181.164690 16.340111 39 1
-66.729897 107.182560 36.612980 80 1
-32.286766 287.431640 -79.581543 0 0
-44.213375 334.768620 -120.748470 56 1
-29.189276 290.430760 64.255516 45 1
-56.922565 372.851140 -48.346737 67 1
28.773685 266.174380 32.386452 32 1
15.357164 134.324550 14.363986 0 0
61.704159 244.623150 18.948769 33 1
-71.862411 107.458730 5.517435 64 1
-4.071492 344.023440 -16.841833 0 0
-6.124108 287.231780 -112.637760 58 1
-11.756574 161.461030 -14.083378 0 0
5.486148 161.152300 -20.693352 0 0
-11.549660 210.817700 -46.316608 0 0
17.347544 83.819527 51.772144 13 1
-66.045685 227.243560 -109.596860 62 1
-43.074867 231.067860 -98.482895 0 0
-20.971910 154.577390 -6.780818 77 1
-9.551634 289.232640 56.059212 45 1
-57.524391 134.991030 -20.620314 66 1
-41.480381 350.545260 -29.877514 20 1
-46.422997 249.996350 -127.233700 62 1
-11.884239 282.190830 20.206230 36 1
-54.332859 205.388340 -87.697472 63 1
-79.785805 106.279420 42.428726 80 1
-36.861679 321.799190 -52.378368 29 1
63.975853 261.082610 -0.086494 33 1
25.583241 96.293236 64.973160 10 1
-16.822702 287.945160 -65.728256 58 1
-62.331081 251.040970 -101.663690 62 1
-44.693081 217.474460 -37.445919 79 1
9.070397 78.968102 42.467575 13 1
-54.629108 199.426500 -35.551300 71 1
-29.633963 275.530550 -119.926220 59 1
9.192570 355.968110 50.778198 34 1
-62.454384 152.369580 -13.633032 69 1
25.231258 156.664920 49.030720 40 1
7.525904 182.261280 99.886436 3 1
11.454816 284.372280 4.144663 32 1
-6.127036 281.670170 -81.080711 58 1
54.030315 177.579240 61.426300 4 1
21.074041 293.092160 -87.144402 58 1
25.528635 166.381410 -138.611620 12 1
119.699460 260.931520 -23.097374 1 1
46.766312 261.786010 -25.424631 35 1
-18.900694 360.402340 -62.634979 22 1
-21.542448 255.994980 -39.845673 53 1
-12.864244 295.065090 -108.047470 58 1
-53.023403 259.200470 17.587397 36 1
-72.373833 191.908600 -112.965230 52 1
-23.856874 333.001560 -86.846481 30 1
-21.764547 91.289124 -0.650980 0 0
-46.247284 161.572630 42.977596 42 1
44.096596 200.106900 118.639310 2 1
18.894567 79.237328 65.980843 11 1
-48.927540 318.429870 -120.084410 56 1
-60.214062 285.340210 -57.960003 60 1
-58.488113 110.876800 63.244553 8 1
-32.550514 147.748410 -1.626122 0 0
-4.756515 151.974260 -5.724497 0 0
-96.203934 248.041470 -68.361885 55 1
-67.520805 166.916900 48.449215 41 1
-20.782221 300.083530 -144.942600 21 1
-8.157564 62.474442 -1.055321 0 0
-17.274715 166.392320 -22.489685 0 0
-29.512505 238.480900 -116.566480 61 1
-40.331612 139.992710 17.571848 0 0
63.741531 172.115130 9.541175 39 1
-73.698524 129.560030 -9.053136 64 1
-8.769306 343.300960 5.285204 0 0
-63.025173 330.013700 -120.428080 56 1
-11.168282 40.723675 3.391506 0 0
-39.284561 258.322510 36.756268 36 1
38.980499 131.632050 -2.579302 48 1
-42.563908 291.661160 -78.940018 59 1
-17.781427 240.219390 -1.489119 0 0
-66.383682 215.390490 -80.588478 63 1
16.441658 289.271180 -66.440666 58 1
-3.783519 179.815800 -19.562660 0 0
-33.816853 338.047330 -23.273273 31 1
73.249687 173.088270 71.247902 4 1
-29.647221 212.888280 11.107776 79 1
34.812317 366.429200 -16.559383 16 1
-66.051567 161.848040 63.917374 41 1
-9.721148 139.390240 -18.800915 0 0
-21.781145 337.835020 -33.869793 30 1
-76.126503 117.814380 5.311512 64 1
14.034502 351.303740 29.675659 17 1
-71.536591 283.716090 -49.407040 55 1
-28.857061 254.986630 -61.537399 0 0
-43.823765 268.113460 -112.462070 59 1
-88.224075 101.940890 36.185085 80 1
-19.188753 274.529790 -22.082272 0 0
16.293499 366.394740 2.393409 17 1
-45.729134 214.152100 8.588293 73 1
-39.619194 281.981510 -58.273907 60 1
109.422640 262.943270 -26.574511 1 1
-41.288269 340.867370 -77.298927 30 1
-42.063309 339.479220 16.460491 19 1
9.510016 274.692660 -81.271324 58 1
-54.117584 208.601960 -26.922829 71 1
13.735875 228.786440 13.166800 26 1
-17.422384 148.121730 -118.982770 46 1
-61.712154 209.517810 -57.712025 63 1
-31.822956 165.643600 -6.418909 77 1
-64.305237 158.272200 14.554793 43 1
-56.584045 231.183810 -152.345150 23 1
-25.496275 216.567080 -132.817210 61 1
3.038825 351.878270 34.561996 17 1
89.865540 267.759030 -3.758033 1 1
-44.133358 153.640790 -38.458355 70 1
-35.795227 251.584990 -120.857220 61 1
-59.933517 239.795720 -100.614860 62 1
-42.365864 130.744480 -4.619419 0 0
26.880968 146.622480 59.914822 40 1
36.071068 262.646510 24.818228 32 1
74.484932 177.620590 60.824451 4 1
-58.127136 204.166840 -45.743130 71 1
-80.004028 130.117630 -18.162563 65 1
-25.860830 99.078545 6.515809 0 0
-19.956314 92.390762 -11.546280 0 0
6.192956 59.491325 7.523108 0 0
-92.521935 186.601590 -60.440105 63 1
-42.922279 219.337630 -23.927408 79 1
37.138199 89.091293 79.265984 10 1
-64.000633 125.904030 -12.429989 64 1
11.350253 141.452380 53.571308 40 1
-44.970230 365.433690 0.046403 20 1
-8.530670 286.680240 -27.533424 0 0
-4.377733 347.461670 56.677338 34 1
-23.016209 225.999370 -125.411060 61 1
-11.932182 161.902340 -61.619694 0 0
-7.117419 289.795560 -50.263912 57 1
27.894403 277.335910 -115.915520 54 1
-23.274101 221.673900 -20.994059 79 1
33.716076 73.917046 5.887213 37 1
-26.383886 191.052840 -13.033263 79 1
-2.928771 35.575180 -17.242279 0 0
-31.232555 206.660630 -28.139046 79 1
-35.504902 157.849840 56.405304 42 1
55.634846 201.637450 78.851501 7 1
75.909973 266.284330 -28.873884 35 1
49.658157 271.772950 -13.179476 33 1
-65.130768 325.805730 -75.126740 27 1
-52.827053 167.613920 -25.544676 70 1
-18.030848 315.912990 -96.739403 30 1
-11.836555 205.660130 -25.466440 0 0
-36.922832 124.239690 50.386341 8 1
13.259465 218.277820 3.349668 26 1
-47.006954 345.854310 -95.721382 56 1
-89.379845 86.587204 30.868946 80 1
4.605661 286.554170 -115.624960 54 1
-9.509732 165.771820 -111.697400 46 1
-12.482612 331.584320 -16.879583 31 1
27.691694 285.463530 -75.008255 58 1
16.397106 333.428340 -78.930855 28 1
-33.396233 141.298890 9.345486 0 0
-73.838806 237.709730 -111.891620 62 1
84.385567 254.797360 -46.982494 35 1
-36.174488 352.782380 32.473969 19 1
-23.590467 292.342320 -73.711838 58 1
-38.673420 189.320210 105.666120 6 1
-95.499855 186.265730 -105.401180 50 1
-41.072605 139.482180 -13.519814 0 0
-86.906952 205.245190 -108.617790 50 1
-32.497910 156.018830 5.531373 77 1
11.013547 170.776520 103.451940 3 1
-31.891293 364.370360 -55.927658 22 1
-45.034088 211.980830 86.283997 6 1
12.152709 347.904910 -47.542782 28 1
-49.311195 291.158200 -70.098862 60 1
-47.991676 204.216290 -5.881328 79 1
-15.700489 243.489470 -49.488556 0 0
-32.582829 324.916200 -62.962658 29 1
-34.365318 164.129090 -63.192760 0 0
-37.382099 199.555080 -9.943589 79 1
-67.745064 288.685490 -94.433693 59 1
24.526043 356.191740 4.947439 17 1
-22.917431 273.033510 32.800426 36 1
26.507538 374.494380 -19.306421 16 1
-10.145867 135.838870 -5.061709 0 0
14.251141 358.986510 20.528433 17 1
-79.849785 236.153630 -100.818980 62 1
-74.387421 154.394450 63.561214 41 1
-79.204781 148.008500 -45.786266 68 1
9.427832 52.418407 -21.389858 76 1
-30.783430 201.004360 -63.384274 79 1
-47.834229 202.257340 -43.100304 71 1
-47.128384 322.899440 -49.152073 29 1
25.858688 262.519900 -43.306854 57 1
-43.120117 207.078400 98.626587 6 1
0.287438 333.857300 58.083805 34 1
-44.963062 266.262300 20.945601 36 1
0.869742 119.090600 -57.461079 0 0
72.990807 260.351840 -47.005173 35 1
-7.112370 330.682800 -25.962431 31 1
26.484743 228.615330 41.294918 25 1
-60.022396 244.990490 -110.815060 62 1
-29.063877 148.855710 58.293224 42 1
22.952517 274.902160 28.121056 32 1
18.676853 149.356050 -16.049603 49 1
-88.212486 266.408050 -78.567604 55 1
-25.900042 216.446730 -53.523640 79 1
24.627378 327.518890 -86.013771 28 1
-79.591377 350.748110 -47.426266 67 1
-52.797798 117.611970 51.200165 8 1
-1.215709 108.549010 1.938549 0 0
-56.453495 181.595520 -116.519350 52 1
-83.839966 86.389557 80.764328 78 1
27.510578 177.056640 -95.392517 44 1
17.763311 154.481930 -25.876637 49 1
-35.107372 378.134370 -17.778852 18 1
4.990921 103.905750 -11.284611 0 0
-26.715536 364.267360 23.090977 19 1
82.011856 174.561070 116.996020 2 1
-80.391228 218.129390 -109.575290 62 1
-28.337587 289.415370 -46.766602 0 0
-70.873077 193.455150 68.424866 5 1
21.484217 280.111110 -56.207573 57 1
-60.357773 190.775920 -34.902794 71 1
40.431313 59.510773 85.884483 10 1
56.119804 264.394130 -21.744635 35 1
32.279873 75.120522 -12.482222 38 1
9.082684 138.471850 -54.755165 49 1
-3.875409 333.258910 -43.924267 30 1
-12.395418 359.777250 49.042622 34 1
5.493377 231.401170 23.646584 26 1
23.068228 265.450260 -89.872154 58 1
-13.715238 341.177800 -39.521797 30 1
34.245930 219.034560 -25.854773 0 0
28.585165 286.861450 -101.082610 54 1
-77.332939 164.462780 46.240860 41 1
52.584972 146.087510 -31.477177 47 1
-26.093142 193.952560 -75.851479 0 0
27.945332 164.758210 -72.584641 44 1
21.952385 157.925800 115.128910 3 1
54.199566 264.393740 -44.167141 35 1
-38.148335 280.160770 -124.630980 59 1
-42.371052 141.450590 -2.694451 0 0
9.646823 331.415920 -19.137951 31 1
53.554474 250.584270 -54.955696 35 1
33.950016 150.102290 -20.719254 47 1
-35.551605 214.311680 82.839447 6 1
-15.844007 364.029540 1.910595 19 1
43.291599 76.941437 85.047897 10 1
2.172223 343.339200 -72.347404 28 1
5.322156 336.097500 -38.112267 31 1
2.820633 167.155140 -116.069010 46 1
40.921127 159.026460 -71.881577 44 1
12.735075 281.731320 -47.268185 57 1
-87.637642 220.452670 -25.975939 51 1
-14.861382 332.832030 58.106041 34 1
5.487607 163.009800 35.198845 40 1
-92.081024 197.066190 -97.494064 50 1
-33.626945 232.350010 -123.870170 61 1
-57.101837 204.511810 -98.618362 52 1
-75.166748 181.467930 84.059074 5 1
-42.001175 344.473970 -64.373352 27 1
-8.323171 126.872720 -53.379345 0 0
-71.642784 203.633120 -80.345459 63 1
-48.391548 237.722410 -122.985210 61 1
-39.845043 376.729680 -47.583111 22 1
-48.235279 200.570940 -81.086586 63 1
67.923050 229.500750 -74.024017 35 1
-61.874580 209.410000 68.548370 5 1
53.329350 360.752260 -15.850589 16 1
132.260740 252.957110 -15.893428 1 1
32.530769 181.329770 0.748786 39 1
-6.039079 335.417300 -84.457962 30 1
-40.424492 214.370680 -52.032131 79 1
-8.921781 8.268430 -1.508892 0 0
-13.851859 219.673870 -30.039690 0 0
-23.902901 342.024020 -44.528770 30 1
-64.616028 206.573430 13.483857 73 1
17.554672 265.510380 -99.198570 58 1
-2.790695 40.949730 9.351859 0 0
-43.687000 281.365420 -116.174140 59 1
-2.723791 354.976320 25.210218 17 1
75.140411 246.495290 -60.898033 35 1
43.094147 171.500270 -127.076900 12 1
1.342783 83.821953 54.899605 11 1
-95.231697 72.332062 73.353081 78 1
-64.475655 118.732850 46.393185 80 1
-23.739737 332.712160 -53.351948 29 1
-78.987473 213.376500 -50.626396 51 1
10.442793 367.978880 -32.014000 15 1
-40.826370 266.716220 30.140432 36 1
-9.727756 120.468350 -6.265829 0 0
-12.204399 289.205840 -88.876274 58 1
10.327273 327.015230 -38.127289 31 1
-62.981518 126.655670 6.891581 64 1
37.567108 236.405810 28.155893 24 1
-54.535564 192.664310 31.077980 73 1
7.843678 62.237446 -5.981070 75 1
-0.713876 107.625600 -50.128700 0 0
-20.962006 357.345030 16.477308 19 1
-13.685225 224.591800 -4.671694 0 0
-13.219496 340.956420 -13.338999 0 0
-2.793831 277.682130 -46.084476 57 1
25.003096 166.049650 41.427299 40 1
-43.092487 366.653320 -30.133772 18 1
3.788713 123.465770 -13.653210 0 0
-80.510094 163.146740 84.125450 5 1
22.978828 229.011660 17.524607 26 1
-24.552010 335.271610 -96.585472 30 1
-28.126671 207.954090 -1.568241 79 1
-81.033119 273.676360 -61.940781 55 1
44.393471 248.696850 19.461668 33 1
-25.912811 145.570020 -60.007309 0 0
22.798159 174.270600 -79.320831 44 1
-59.985931 338.499080 -70.753029 27 1
-17.928040 170.581680 -7.061789 0 0
-81.572899 103.746380 68.945381 78 1
-66.673729 348.855010 -97.226196 56 1
-65.536461 335.833680 -55.684586 27 1
66.208115 261.500820 -15.750275 33 1
-13.850255 297.829650 -151.769820 21 1
-25.845995 273.726720 19.277477 36 1
-19.825584 284.285860 -47.736797 57 1
-89.421059 192.282180 -116.320110 50 1
-13.994401 342.755980 59.668503 34 1
14.415135 154.641560 46.392330 40 1
-17.234924 169.261370 -93.069763 46 1
11.767659 63.376598 58.941807 11 1
-62.896961 311.663150 -124.434870 56 1
35.273136 172.170000 27.857458 39 1
-8.763421 280.049260 40.747158 32 1
19.409620 295.985110 -108.005580 54 1
-37.050133 159.898280 46.796043 42 1
-83.997704 168.831010 68.999100 5 1
-49.856544 341.631990 -115.319080 56 1
-72.115128 366.008510 -37.614609 67 1
44.886269 206.482240 85.528084 7 1
-72.850777 114.317580 28.254835 80 1
-10.292030 179.330140 -54.799595 0 0
-7.738789 148.804520 -15.420452 0 0
-27.934805 224.376170 -138.614970 61 1
-10.264504 372.373320 35.322533 34 1
-17.360233 235.871460 -28.805313 0 0
-16.146036 262.225130 -31.732534 0 0
-73.733170 157.295140 -38.736271 68 1
67.119965 252.720380 -52.399593 35 1
-27.100677 108.365140 61.456547 8 1
84.400436 247.721470 -56.926743 35 1
-1.218368 338.790620 -25.149790 31 1
33.607201 179.177060 -114.331210 12 1
33.638477 177.444050 13.343974 39 1
-81.997452 209.130950 -90.165359 63 1
-28.135237 223.194960 -38.002220 79 1
-76.759941 278.861150 -76.119453 55 1
-8.893872 348.912510 -57.253380 28 1
-47.126114 204.740920 20.737194 73 1
-61.483799 266.771550 -86.004684 59 1
-25.024757 343.488770 -68.429970 30 1
20.333984 170.344360 107.615070 3 1
30.697004 207.399250 97.288574 3 1
-76.086861 184.873340 70.131439 5 1
-1.814948 342.064450 -54.185108 28 1
-36.307213 215.168050 -86.995316 0 0
-73.283714 191.017140 -56.298916 63 1
-60.981571 163.653290 38.436577 43 1
1.172435 147.975860 -19.591469 0 0
-8.996478 280.413270 -53.119999 57 1
-54.233212 208.160920 -72.911278 63 1
19.852947 335.179290 -69.926003 28 1
42.845764 218.485380 10.403378 24 1
-74.251480 158.337250 21.199369 43 1
-21.290386 297.871030 -122.915800 21 1
128.150790 249.458130 -6.757226 1 1
38.500946 201.246580 69.304573 7 1
34.081276 258.036220 -102.261180 58 1
66.921448 184.099150 122.654570 2 1
-5.592071 46.564732 -4.097713 0 0
8.868759 35.500641 -7.985942 0 0
-40.667011 328.042690 -35.031216 29 1
-57.375526 320.164060 -124.522160 56 1
9.107237 92.954796 53.932289 13 1
-17.973768 277.316830 -38.924152 57 1
-34.015102 268.513120 -72.517281 0 0
-57.175251 291.715360 -77.492630 59 1
24.852566 173.783720 -127.918110 12 1
-2.652659 56.653584 10.241817 0 0
-29.627403 204.967730 -52.790852 79 1
-58.411469 199.801120 -109.881870 52 1
51.899841 67.417076 7.125429 9 1
43.718369 177.342330 43.546112 4 1
-15.751953 331.590090 -94.298592 30 1
-76.719872 321.059780 -66.147469 27 1
-51.158916 275.501340 -33.405453 60 1
-100.921820 181.142460 -90.103256 50 1
-43.840759 271.200780 3.503248 36 1
-25.654961 368.045170 7.879123 19 1
-6.150038 297.250580 -116.719570 54 1
0.159908 284.420870 -94.901466 58 1
-53.651863 289.080600 -92.171486 59 1
22.118238 264.478210 -51.966293 57 1
-70.342300 234.413240 -82.647774 62 1
-54.407265 212.473100 -9.647330 73 1
26.847670 177.348630 108.685750 3 1
39.375019 169.768200 -138.217900 12 1
33.739281 172.723050 -121.456020 12 1
-88.120354 169.242110 -111.330020 50 1
-44.260059 247.919370 -116.851310 61 1
-77.022049 94.652153 81.270996 78 1
7.149076 278.673460 26.110401 32 1
-42.796551 354.601470 4.779206 19 1
-1.644793 136.891910 -67.267097 0 0
-8.654314 95.888756 -8.015593 0 0
-48.579395 195.639110 -108.516070 52 1
7.267427 281.026030 12.422264 32 1
37.963139 213.091600 51.754475 25 1
-44.554699 242.015910 -147.133590 23 1
-94.075737 208.990650 -40.330044 51 1
-12.248899 342.891970 -80.162308 30 1
-20.084879 143.731510 -14.340513 0 0
-47.563839 287.676670 -49.805542 60 1
24.551184 346.257290 14.330430 17 1
-19.886860 208.925130 -6.296630 79 1
-62.079109 167.259780 70.706841 41 1
-36.709347 218.734620 19.930340 73 1
-48.549686 377.561980 -32.045841 18 1
-10.174129 248.867400 -30.094919 0 0
64.014130 186.671780 59.784447 7 1
43.177792 359.567570 -18.952219 16 1
19.019207 194.575300 98.747940 3 1
25.520792 331.114290 -14.628911 31 1
51.654076 266.670680 -4.286993 33 1
-15.278554 333.746550 -81.685829 30 1
-27.431900 157.001330 -18.156128 77 1
24.969969 334.735230 27.542297 17 1
-18.600569 318.523560 -26.508060 0 0
36.348564 318.604610 -27.389517 31 1
59.369274 183.710010 36.264023 4 1
45.834358 59.576721 -8.325394 9 1
-73.753090 200.324200 -102.073900 52 1
-59.974621 281.480350 -74.020721 59 1
-35.981026 364.929080 -9.402279 20 1
-81.430336 228.125150 -105.914900 62 1
40.215530 231.889770 -24.902370 0 0
70.778564 184.470280 113.906740 2 1
22.867842 70.671692 40.828979 14 1
-28.573578 290.293640 52.819801 45 1
-11.956675 243.994380 -67.250366 0 0
-32.566235 344.392760 -61.119610 30 1
28.051414 276.869380 -78.986427 58 1
-83.095619 184.452410 -52.230915 63 1
-57.963989 279.814850 -48.847412 60 1
46.610344 249.925030 -24.763527 0 0
-47.559341 186.783460 -116.978450 52 1
7.613969 272.893460 39.796261 32 1
-7.046834 187.133410 -25.268473 0 0
-76.772118 288.193390 -64.737167 55 1
46.530384 260.766450 6.783897 33 1
-50.990921 152.375930 30.332743 0 0
54.737579 180.914670 52.518959 4 1
-24.976841 295.209110 -97.331856 59 1
-73.860008 125.241780 -23.414001 66 1
-51.452709 221.345490 -20.236471 51 1
-41.545265 221.557240 1.386067 79 1
-58.931496 162.109020 -30.242399 70 1
61.078167 195.603450 108.620460 2 1
22.278761 292.258330 -120.784790 54 1
-65.573143 211.828610 -89.429504 52 1
-29.784571 355.493560 -30.980022 0 0
-30.973463 275.590030 28.705200 36 1
-14.668107 337.501460 0.737446 0 0
27.682627 72.863876 85.715202 10 1
-43.172825 353.135530 -91.233032 56 1
-89.995819 89.629921 70.446205 78 1
-62.675507 323.692690 -39.599316 29 1
-38.949501 362.826020 7.089705 20 1
-65.559082 162.433240 -19.458042 69 1
48.728573 173.916050 -3.448537 39 1
28.775394 351.297390 -1.803074 17 1
22.988047 174.840090 -109.843020 12 1
10.673879 285.279820 -123.321070 54 1
-84.791336 122.232060 -19.639830 65 1
7.474398 148.784640 48.573288 40 1
-9.263946 368.044220 17.358208 19 1
-55.432034 247.957460 -130.018340 23 1
42.548168 146.979690 -37.114128 47 1
-11.545670 349.601560 -16.502504 0 0
8.231490 170.610200 -104.693610 46 1
-18.754169 329.815160 -23.558386 31 1
-62.538033 188.136140 -43.907547 71 1
-7.847839 361.664920 29.208918 17 1
10.995955 141.119930 -15.777898 0 0
-17.967203 216.130650 49.840996 72 1
-14.750620 289.203370 -56.464382 57 1
-67.273628 241.687940 -135.698390 23 1
24.904490 82.347252 80.563416 10 1
-62.433273 195.052260 -51.287319 71 1
-29.111280 216.388030 44.854279 72 1
-78.590088 153.079030 -18.825035 69 1
-25.136831 306.403960 -52.693691 0 0
26.421459 79.469330 4.287645 38 1
-7.703853 165.422930 -102.057470 46 1
18.389143 153.353150 21.719065 0 0
109.104970 267.130040 -34.899940 1 1
-9.387473 54.552116 -6.974837 0 0
43.584362 68.382744 0.700487 9 1
-72.379219 286.235660 -82.812653 55 1
-65.244781 191.553270 84.442642 5 1
-35.095455 347.300200 -74.555702 30 1
-13.245284 159.402630 -52.417778 0 0
53.671867 191.924790 118.685660 2 1
25.954243 63.152534 58.725864 14 1
-51.271626 254.512080 -112.558560 59 1
-65.934891 212.674500 -71.420242 63 1
-24.559032 337.363490 -23.782995 31 1
-22.963316 82.760895 2.823071 0 0
37.456669 207.595170 76.926849 7 1
-0.473342 292.225890 -77.046310 58 1
20.722557 281.767360 -122.831920 54 1
-73.883080 109.846880 48.756359 80 1
15.292280 357.307100 3.636271 17 1
-82.838524 228.883670 -95.047050 62 1
-11.203197 174.759600 -17.158463 0 0
14.334846 265.950870 -47.277035 57 1
-86.375862 153.305570 80.041939 5 1
-38.072292 289.776610 -86.962738 59 1
-11.520926 283.068450 -119.474250 58 1
13.513201 162.298720 39.622147 40 1
117.490300 259.595120 -8.205459 1 1
-20.551535 284.100800 16.553522 36 1
3.727050 277.497960 -37.780216 57 1
-52.252167 157.418820 -36.394127 70 1
29.982897 220.212100 39.500271 25 1
25.324734 264.057160 -105.557010 58 1
-3.831154 203.837680 -29.896336 0 0
-77.156456 223.445720 -19.356852 51 1
17.934608 270.878330 39.907593 32 1
20.678879 88.139961 64.600838 11 1
1.669650 364.886050 -11.028550 0 0
-95.492714 81.962929 67.152260 78 1
0.985109 55.256241 -15.460678 76 1
-67.034309 336.986540 -108.984120 56 1
-48.720322 195.252090 -7.596065 79 1
21.662722 320.635500 -38.761581 31 1
-19.413750 296.734440 -163.292850 21 1
36.059853 200.394120 102.600690 3 1
8.124468 274.412350 -52.766289 58 1
-42.590157 204.645020 -21.778234 79 1
-14.880781 269.926540 -81.285896 58 1
-49.133827 252.223570 32.980705 36 1
-69.270592 123.524300 0.966300 64 1
-23.976200 102.221610 -4.023834 0 0
-14.024113 79.307663 -9.465924 0 0
-52.299774 117.642780 60.314716 8 1
-75.205093 100.928180 74.896774 78 1
-0.704945 372.682740 33.031887 34 1
-91.838219 167.892680 -98.196953 50 1
-57.932610 128.183070 -4.308507 0 0
-0.613372 91.651199 -8.355569 0 0
25.381737 165.339520 51.796707 40 1
-25.472685 292.252530 -110.997840 58 1
18.086348 174.129040 -98.109123 44 1
-51.079990 169.206480 -120.112830 52 1
20.594637 230.082430 31.042807 25 1
-38.155575 349.449040 -108.911820 56 1
-57.926945 278.265810 -103.753540 59 1
20.423632 356.751430 13.950262 17 1
34.340794 229.632920 14.815005 24 1
-42.050289 208.425950 -39.788269 79 1
-23.675444 238.135310 -60.341133 0 0
-14.919374 201.003070 -32.625286 79 1
-5.698928 344.253540 -43.169945 28 1
-73.625702 219.608660 -103.707350 62 1
39.938366 366.228360 -24.711853 16 1
-57.144299 200.106090 13.930130 73 1
-13.210646 285.830570 -107.157620 58 1
-14.875445 289.928250 63.645897 45 1
6.000240 50.512447 -2.830313 0 0
-22.001570 233.712920 -118.292770 61 1
-41.077545 329.827580 -53.102524 29 1
15.703346 342.621090 32.770786 17 1
-60.921024 112.716490 25.694857 80 1
24.670420 280.694490 -108.045420 54 1
-37.581364 270.633180 -118.520840 59 1
0.655550 169.636810 -97.818626 46 1
-86.253403 276.833590 -68.629845 55 1
-20.956718 156.694990 -108.042020 46 1
-69.984245 163.747330 -44.532536 68 1
2.730069 330.507080 -25.157921 31 1
1.749322 365.137420 9.266340 17 1
39.509243 169.377010 -78.997330 44 1
-69.240685 363.025150 -59.123394 67 1
9.382534 292.714140 -61.712093 58 1
