27.865690 201.855090 29.584538 19 1
-91.175804 210.100650 -19.315090 31 1
-87.669075 154.269390 55.191856 29 1
57.065334 103.817480 -35.247440 23 1
83.126633 102.843600 -47.020306 1 1
-74.548882 143.163820 41.853745 32 1
22.367981 198.091610 22.341618 20 1
-49.255760 105.965350 78.082115 30 1
59.564480 203.551930 12.069671 19 1
-50.659130 84.631699 -12.022087 11 1
122.828550 138.269730 65.753975 33 1
84.240189 155.287830 38.935406 3 1
-5.135908 199.714940 21.177803 22 1
37.325218 182.897510 30.870209 19 1
-39.757504 84.011589 -10.312802 11 1
-60.483009 134.653180 61.409084 30 1
43.725655 217.679400 -14.522712 18 1
18.037321 207.090130 18.122469 20 1
-8.903506 204.946580 10.717037 22 1
56.027798 107.574170 -40.395676 23 1
-48.035229 214.119800 10.255583 21 1
56.840416 190.429930 11.907316 19 1
-4.301044 17.232973 -0.139794 0 0
-111.710470 137.493900 78.654686 29 1
-87.433319 41.776295 38.378082 7 1
66.531097 140.519060 70.367271 2 1
71.715607 81.598564 -40.601688 23 1
-62.335438 144.212330 38.390919 0 0
36.926006 94.622772 -60.743397 12 1
-47.295357 117.412310 75.169769 30 1
-87.516022 143.924500 69.728210 29 1
36.245724 230.165560 3.173120 20 1
-75.962387 150.265340 45.497368 29 1
-78.850525 158.066300 47.498787 29 1
74.907234 166.319380 2.830391 3 1
-55.431110 36.039787 48.654358 8 1
-43.710423 82.625648 19.115604 13 1
82.833122 159.339040 1.956489 3 1
4.116573 55.428024 -4.369546 0 0
88.939529 158.700350 42.492584 3 1
20.365639 194.297380 -26.863050 18 1
54.606941 128.981350 78.980453 2 1
57.551662 215.942310 -22.304373 28 1
-51.951935 209.815860 -33.971146 14 1
-47.014805 144.916670 56.225937 30 1
93.049843 142.163480 21.974154 3 1
-41.713356 193.368840 25.141193 24 1
-4.469953 76.306313 -12.497568 25 1
11.153560 106.208340 19.578960 17 1
32.750565 210.239590 24.349480 19 1
31.385286 185.493240 5.379499 20 1
89.519478 165.375430 55.057186 33 1
-68.057556 187.778110 11.306506 21 1
-10.166211 70.093178 -9.579854 25 1
-65.770103 185.186650 -2.699954 21 1
64.800598 151.075560 68.390175 2 1
46.503078 108.997730 -46.185677 12 1
63.163067 212.329560 -24.844730 28 1
-76.137360 135.458830 11.215867 32 1
98.147545 159.189380 66.149841 33 1
84.333092 151.055740 63.896957 2 1
-50.663593 216.355030 -18.123821 24 1
29.355808 187.901700 31.944973 19 1
93.595261 144.503490 -3.104391 3 1
90.286697 136.343150 -1.018036 3 1
-58.956623 205.162570 -39.767464 14 1
-4.447077 16.463518 21.174105 5 1
0.264092 107.748560 0.626670 0 0
-67.504013 54.314865 44.705753 7 1
-52.197296 189.572600 26.727451 24 1
-73.392456 159.243870 19.767357 21 1
12.208243 65.271805 -11.413043 0 0
-0.453634 196.795620 -13.963725 26 1
95.554626 154.021440 66.486908 33 1
69.835587 93.101723 -72.893913 1 1
55.633205 192.586180 -23.805964 28 1
81.229744 155.848690 12.115202 3 1
-6.301643 82.585861 -11.196091 25 1
-65.639641 147.678380 47.329697 0 0
85.580368 146.850860 -0.702186 3 1
63.360512 119.755980 78.568970 2 1
6.724743 95.247955 30.018511 17 1
-11.532468 83.097366 -5.451203 25 1
-61.153103 91.662056 0.826830 10 1
-27.004591 99.714104 17.512798 0 0
60.929699 211.285200 11.096151 19 1
-35.212250 199.473530 26.436350 24 1
-67.488724 136.680050 4.702888 32 1
74.051811 106.678440 -46.116730 1 1
-102.528250 203.072100 -24.369331 31 1
49.743973 168.918410 59.376026 2 1
-19.866829 94.196144 12.631299 0 0
-46.055271 182.455490 -54.336506 14 1
13.846352 208.298800 -19.721655 18 1
66.759308 157.764570 31.127565 3 1
-47.583199 210.296070 -15.820566 24 1
-2.580806 105.104340 35.577904 6 1
49.468353 149.503140 73.050537 2 1
51.222919 143.180340 70.604080 2 1
13.891161 100.490920 40.602749 6 1
5.831402 90.556953 -1.229591 0 0
73.443672 78.270576 -35.777218 23 1
39.712040 138.416170 77.342255 2 1
-73.838875 178.427440 10.224364 21 1
-88.725990 47.022888 35.613266 7 1
77.317680 187.366030 -5.516345 28 1
57.289383 151.357040 29.793432 0 0
77.167366 101.405390 -54.629425 1 1
71.829628 86.031998 -30.642141 23 1
57.995468 201.035810 -20.520090 28 1
71.441368 196.391950 -8.732862 28 1
-39.540607 205.053670 -46.647266 14 1
111.120160 140.627750 78.142014 33 1
-16.845745 192.876980 25.327152 22 1
45.054619 188.584850 -19.701246 18 1
17.454037 112.289100 10.050700 0 0
-7.967100 188.645000 -1.548748 27 1
-77.821884 171.374850 10.622966 21 1
-59.276173 196.439880 -41.256382 14 1
-51.266613 215.221420 -7.083473 21 1
38.270142 108.377920 -49.454292 12 1
-35.519310 114.823350 25.668179 0 0
67.724197 166.358830 37.290337 3 1
-63.541027 53.903233 38.576393 8 1
-85.905830 217.800400 -18.376858 31 1
-96.073380 207.036190 -32.427017 31 1
-21.874250 200.305710 -54.117538 14 1
72.647255 99.176025 -63.041138 1 1
-73.846878 140.749280 17.937725 32 1
77.160263 167.600360 11.299413 3 1
65.320137 203.135500 -25.472733 28 1
0.804071 202.091740 -12.741748 26 1
-77.086380 61.560585 29.492039 7 1
-108.845320 144.396740 73.708511 29 1
2.244754 202.205900 -5.133068 26 1
-32.468662 213.462540 4.595188 24 1
109.605860 146.435410 69.333191 33 1
-65.000114 175.638430 23.695337 21 1
-84.154419 56.201206 34.199406 7 1
79.878075 148.948580 66.392204 2 1
-39.693832 194.939800 -31.746931 24 1
61.000240 108.093890 -30.685110 23 1
-81.939613 114.138320 4.822507 32 1
81.225365 135.392180 73.175880 2 1
61.693924 106.086900 -54.827293 1 1
79.558655 156.598080 61.870380 2 1
-23.997187 199.467120 17.050222 22 1
-52.694752 137.837160 35.881649 0 0
47.293526 190.863340 6.513272 20 1
-65.410248 141.998670 7.960731 32 1
15.848675 79.003136 -1.408647 0 0
-55.009468 199.037480 -27.778830 21 1
26.610531 218.476100 20.160975 19 1
-41.123512 89.076752 -11.918928 11 1
88.509560 146.393650 12.280888 3 1
-105.093000 196.307170 -16.917185 31 1
-14.630931 209.146900 -14.981609 24 1
25.995220 196.132510 30.404867 19 1
30.534706 214.919040 -21.324623 18 1
56.020164 169.858990 18.070736 19 1
-108.020810 189.467380 -28.044092 31 1
-61.954987 146.849930 14.483777 32 1
-62.911015 48.207138 45.436924 8 1
46.966572 190.666120 19.055325 19 1
-64.054573 201.851620 -0.580882 21 1
55.214787 215.516970 -31.639965 28 1
5.075061 186.654800 -7.929375 26 1
58.662571 210.289260 -30.105217 28 1
57.429245 205.241380 -2.891327 18 1
74.827278 183.654010 -15.768349 28 1
75.926224 174.657870 -9.728773 28 1
-58.077755 212.896620 -11.581977 21 1
-71.124123 180.703120 5.360301 21 1
48.696907 156.590740 70.551773 2 1
-59.204361 55.262379 4.326414 9 1
54.715851 133.491240 74.794655 2 1
-81.305595 150.022960 50.497898 29 1
8.191574 203.141050 -3.858068 26 1
-5.401084 37.343403 1.496225 0 0
54.900791 159.982100 60.351067 2 1
-8.832709 21.060932 15.598160 5 1
-1.042438 90.198830 45.792004 6 1
-25.131145 198.365860 23.658522 22 1
-46.866943 54.379261 33.462894 8 1
-30.970318 199.406270 11.369635 24 1
-7.433993 195.294560 30.491627 22 1
27.145535 197.002730 -16.221739 18 1
-13.875171 53.221970 -7.009435 0 0
41.199471 169.801010 -17.573566 18 1
19.081903 81.341278 -5.280756 0 0
-105.898770 197.022310 -8.692070 31 1
70.633430 127.313610 79.596649 2 1
-38.109097 48.968170 15.797874 0 0
-25.368925 70.403786 -16.293863 25 1
-55.463463 81.020477 13.667969 13 1
-44.483971 215.388350 14.342518 24 1
-15.691900 188.371810 30.549150 22 1
-87.169525 208.760860 -34.922081 31 1
-44.036980 211.582260 -35.647343 14 1
-69.740288 132.333070 60.084820 30 1
35.400208 219.538020 17.679611 19 1
49.451096 160.743470 22.257587 19 1
64.912231 157.567520 58.018318 2 1
106.423070 139.928620 81.710632 33 1
76.166870 204.549620 -4.031854 28 1
56.718578 142.889540 70.090073 2 1
-59.931091 200.994740 9.178169 21 1
77.196953 222.693180 -2.157656 28 1
-75.201408 184.360410 2.493731 21 1
-81.393845 47.041428 43.596230 7 1
-58.995476 211.589080 -29.325724 14 1
121.693200 162.759610 49.612370 33 1
-68.273369 56.356361 34.563065 7 1
77.230331 160.171100 9.911967 3 1
-24.702562 201.486130 6.353121 22 1
1.227035 87.449661 -3.213335 0 0
-74.599388 43.789719 5.611302 9 1
41.351433 95.548553 -63.690323 12 1
92.387451 154.365950 72.982193 33 1
83.436447 160.969990 18.657986 3 1
-76.472244 165.905930 15.372015 21 1
-28.310951 195.939710 -47.619244 14 1
50.677837 106.571530 -48.604458 12 1
66.851257 205.419940 -12.100478 28 1
15.313465 95.723824 34.140015 16 1
-55.026440 197.580340 -49.632275 14 1
53.055656 178.242400 -10.552089 18 1
12.429522 96.054070 21.793140 17 1
-55.282288 197.786740 24.454762 21 1
89.902000 153.729930 12.909801 3 1
8.954206 159.469700 -0.887690 0 0
96.586189 147.525680 28.464621 3 1
-63.950783 82.662201 -12.645007 10 1
-38.092579 123.238270 75.814224 30 1
74.792717 214.226820 -4.241288 28 1
-69.730637 129.830140 3.290250 32 1
62.812897 195.594700 -16.008780 28 1
58.437439 232.233980 -11.321666 28 1
30.089701 127.229490 15.435880 0 0
43.409031 164.349880 -11.124371 18 1
-56.952061 144.386060 45.157082 0 0
42.103851 200.982500 -8.318453 18 1
-66.565681 123.867540 62.499096 30 1
58.410801 107.738850 -45.451107 23 1
5.477689 110.274240 30.533369 6 1
68.382217 97.846863 -22.523310 23 1
-100.165240 147.170720 64.033310 29 1
28.572096 226.962040 -10.339034 20 1
-81.884369 38.021145 45.807697 7 1
-30.883030 41.786999 13.107969 0 0
78.367180 104.427640 -48.867123 1 1
-108.013280 192.283940 -19.146488 31 1
46.986668 137.193790 78.091866 2 1
-46.448895 81.356407 -8.917762 11 1
139.555250 126.513630 67.567703 33 1
-30.514097 201.336240 -14.019659 24 1
55.496346 205.156590 -11.206989 18 1
-50.459370 179.560680 -60.673077 14 1
13.052237 16.822838 -5.009420 4 1
-42.454342 212.063370 -14.144698 24 1
-43.867741 78.053680 23.202110 13 1
135.596630 151.497920 48.821140 33 1
70.732872 136.044080 72.673866 2 1
34.769630 207.361080 -24.599966 18 1
-78.230827 56.563667 31.013956 7 1
63.225853 181.139630 -26.652489 28 1
79.264725 96.507248 -59.561062 1 1
1.479196 57.760448 0.902826 0 0
123.106760 128.448470 76.870224 33 1
-47.560131 171.942320 -64.592476 14 1
70.339981 158.990980 41.092800 3 1
-47.266766 49.361729 20.564255 0 0
-0.326394 24.230921 -2.181632 0 0
-5.020291 70.158653 1.872479 0 0
63.434513 179.624040 -21.549963 28 1
-43.894180 91.430908 -3.354223 11 1
-53.912952 207.906680 -38.516155 14 1
-71.266197 142.114690 12.681757 32 1
72.797745 169.033130 44.546978 3 1
-96.982361 202.107910 -29.380032 31 1
-61.971748 110.155310 68.780075 30 1
40.763573 154.266280 68.571083 2 1
-2.108421 82.454124 26.277813 17 1
96.036560 134.029340 28.209772 3 1
12.801528 66.754990 -3.386285 0 0
13.577710 106.942220 4.400482 0 0
-71.692978 184.556460 -4.637032 21 1
14.549313 166.709870 -1.094706 0 0
82.754059 152.243870 -0.275375 3 1
-0.585842 62.434757 2.563580 0 0
-68.976234 141.540570 22.442932 32 1
-45.154285 188.976380 20.838127 24 1
-53.168327 184.804410 17.991306 24 1
80.847122 163.658910 25.927519 3 1
71.121681 90.312447 -21.554031 23 1
118.304690 141.768040 66.987061 33 1
128.575760 162.012390 46.805882 33 1
35.797615 193.901350 30.583836 19 1
4.970857 21.337175 -11.824477 4 1
114.120030 131.983870 80.262154 33 1
-12.463625 36.877048 3.444023 0 0
110.012440 154.505050 63.639061 33 1
-5.834996 97.294220 41.383961 6 1
69.027374 87.390038 -47.861206 23 1
131.745700 131.399430 64.912247 33 1
-61.295097 193.898540 17.498650 21 1
-57.919643 143.356700 54.670761 30 1
-2.620589 96.312691 25.755653 17 1
79.299995 156.929780 40.513695 3 1
-6.795004 77.491699 -2.423061 0 0
56.351425 185.316710 -11.869729 18 1
69.608063 203.164440 -21.121223 28 1
3.845468 139.974750 -0.577964 0 0
-82.999725 132.165310 31.365849 32 1
37.559177 186.507610 -17.761335 18 1
-105.170260 194.375990 -25.947289 31 1
-31.607113 200.254210 -26.017019 24 1
79.664635 160.163770 46.913570 2 1
5.119065 146.662080 -1.335386 0 0
67.002586 94.212860 -31.497726 23 1
-0.248081 14.386181 -1.931877 0 0
-58.099586 105.263320 74.175705 30 1
53.522728 118.770200 78.654984 2 1
-3.679281 4.480463 0.645791 0 0
-35.220825 213.124820 -41.299377 14 1
38.324154 185.332090 7.722659 20 1
57.744934 187.838810 -22.873323 28 1
-39.397579 176.771390 -63.658863 14 1
50.910648 95.934235 -62.356544 12 1
99.195663 140.118960 21.320669 3 1
84.003838 153.219070 17.618420 3 1
5.611253 19.300919 -3.849566 4 1
-56.855251 202.682890 13.058326 21 1
43.593422 162.313520 64.201309 2 1
85.649200 163.503830 41.557140 3 1
8.040648 196.962430 -7.802747 26 1
-4.344685 201.291110 26.276739 22 1
-73.537346 143.431780 36.681061 32 1
58.204399 150.525220 70.845619 2 1
41.416286 190.402740 24.196831 19 1
-50.764183 80.271614 17.268812 13 1
23.220573 223.256320 6.943443 20 1
136.431530 144.763240 55.769897 33 1
-46.931465 189.303800 12.520441 24 1
-32.583134 212.492050 -10.528844 24 1
-74.485588 194.271510 -9.977000 21 1
-50.433105 187.373020 22.133385 24 1
25.095280 82.228630 32.033024 16 1
-57.901012 57.759460 37.060547 8 1
-94.025871 199.534850 -45.282379 31 1
50.727848 223.618390 8.891259 19 1
45.604839 173.567600 -15.587361 18 1
36.096916 189.039980 -24.746456 18 1
21.945650 200.403500 4.665424 20 1
2.103182 90.365326 30.052189 17 1
129.758270 133.973540 69.951965 33 1
-45.503494 196.019380 27.525717 24 1
62.845444 101.331560 -42.526428 23 1
34.502865 187.208660 31.511522 19 1
-67.452744 147.411350 30.090431 32 1
-49.110802 86.140381 -4.707709 11 1
55.987171 157.571080 68.216095 2 1
-76.214691 48.578712 6.954726 9 1
-42.733047 214.587510 6.380356 24 1
-56.802677 61.566494 16.112080 9 1
-24.556808 207.831880 -38.103039 14 1
96.736443 124.572220 1.812555 3 1
14.109965 104.230540 37.022388 6 1
-65.973961 56.891689 14.963698 9 1
-105.131450 153.761950 58.610989 29 1
56.191689 150.717120 65.699966 2 1
46.239601 198.219060 23.912912 19 1
83.376060 204.073530 -1.553898 28 1
72.131813 221.795330 -8.938791 28 1
-43.919151 190.782300 -44.764755 14 1
-65.857765 141.935930 53.655426 30 1
34.530434 217.352840 -18.842680 18 1
-59.685482 204.453460 3.809983 21 1
-88.232918 140.695020 74.834114 29 1
107.813770 142.573030 72.513412 33 1
-51.032707 76.131187 20.796453 13 1
-44.906384 86.064789 3.295643 13 1
69.316879 167.850250 54.398006 2 1
97.697510 134.694320 19.462610 3 1
17.853479 198.921630 -20.168797 18 1
-7.023088 124.826140 -3.205712 0 0
96.200478 160.365070 58.537888 33 1
-12.261716 74.969833 -18.710287 25 1
95.719650 150.838380 71.226021 33 1
-80.561813 48.902641 38.788662 7 1
46.882706 223.634920 -8.454084 18 1
-21.364843 210.702900 -13.926151 24 1
-118.338130 173.176800 -18.671780 31 1
-102.970980 139.134370 74.837463 29 1
-117.080710 168.846330 -26.688862 31 1
106.035860 144.359010 79.024109 33 1
-27.861523 211.907360 6.460380 24 1
-52.194454 90.883842 -4.147467 11 1
-60.551178 206.589190 -30.202839 14 1
5.425181 154.888440 -6.009867 0 0
0.124441 99.076195 -2.195377 0 0
90.461990 149.718370 37.732906 3 1
47.312798 207.385350 -17.498653 18 1
33.807961 222.237000 -15.810302 18 1
-18.143351 157.735670 -9.304116 0 0
50.187481 136.283540 74.183769 2 1
-36.830605 198.184100 -53.936432 14 1
30.460537 83.076302 -28.208960 0 0
50.448067 234.793400 -4.650012 19 1
83.303482 152.771290 6.909994 3 1
78.023178 199.732470 -10.877982 28 1
55.486099 219.456100 -4.554766 18 1
65.142189 155.459750 65.762650 2 1
53.472198 169.679570 55.948502 2 1
41.292744 146.461460 71.285110 2 1
-18.735929 186.922700 38.347519 22 1
-0.917654 75.090897 -5.909044 0 0
77.114975 191.335920 -13.154911 28 1
61.917767 191.462940 12.844299 19 1
-107.741280 147.720020 69.887444 29 1
77.296974 86.378716 -73.147781 1 1
-42.704216 184.575560 -60.861542 14 1
65.892418 95.742523 -48.200844 23 1
125.688360 137.453260 69.912292 33 1
47.741100 185.174030 -12.833266 18 1
-32.554588 206.357540 20.237034 24 1
-54.505356 147.358350 51.986183 30 1
63.384972 225.455890 -12.305773 28 1
-71.087265 50.652962 6.164440 9 1
-74.452965 125.974190 6.703684 32 1
55.282829 187.699370 20.200855 19 1
-36.756187 217.797470 -29.598352 14 1
24.859892 211.808120 24.775879 19 1
76.654625 167.611110 41.372620 3 1
-108.962370 185.586300 -37.217247 31 1
30.522675 188.378160 13.318092 20 1
88.238518 151.603670 -1.796832 3 1
-1.632301 47.998516 -2.082164 0 0
72.104492 210.950650 -14.844375 28 1
76.980118 159.446400 14.937269 3 1
-106.086620 194.034590 -35.783749 31 1
9.649269 58.228928 -2.676593 0 0
78.163696 166.015110 35.087395 3 1
-63.358555 52.792824 8.127821 9 1
68.670891 100.511050 -69.646797 1 1
72.951912 173.018400 -18.020828 28 1
-126.324170 135.081970 76.739716 29 1
-71.720665 167.923570 21.403723 21 1
54.194157 216.480940 -26.773207 28 1
116.030820 147.210340 64.269302 33 1
3.273627 211.027660 -8.092994 26 1
-26.787992 210.398710 -43.601162 14 1
42.815929 165.587130 27.541769 19 1
-79.234230 151.585050 57.761730 29 1
-2.549160 183.388310 -2.420207 27 1
14.839464 15.321819 15.483761 5 1
-94.776062 209.816930 -27.845901 31 1
7.295959 16.694855 -11.837521 4 1
-19.099655 203.301380 -3.036019 22 1
8.349403 99.550629 40.817158 6 1
-69.778374 61.792294 28.686279 7 1
-78.139641 137.407500 23.542913 32 1
51.298153 143.219280 29.181435 0 0
71.128983 99.641212 -53.929913 1 1
138.757890 137.354710 59.320240 33 1
0.056055 18.064013 23.035250 5 1
78.347435 156.973770 30.087698 3 1
-82.769974 144.641980 67.963661 29 1
26.161919 102.928750 -53.752377 12 1
-99.554855 206.218780 -21.740328 31 1
-16.586946 51.493084 -2.641948 0 0
57.890518 194.846020 -27.783859 28 1
-59.822472 188.285510 1.473055 21 1
93.808800 129.968030 -3.615017 3 1
62.508255 138.086150 72.162949 2 1
-1.785691 53.824211 2.946528 0 0
-6.288467 92.041473 42.559078 6 1
-46.920868 47.074749 41.551083 8 1
-39.606335 116.111820 78.737305 30 1
93.466759 161.464190 65.893600 33 1
75.336906 133.319600 76.086151 2 1
28.825653 198.943860 -26.808884 18 1
112.499730 144.642330 73.231049 33 1
26.729223 123.868060 13.721679 0 0
-55.029819 97.912643 78.118561 30 1
-44.853539 201.532120 -48.736935 14 1
-62.718567 183.405650 17.854300 21 1
72.447113 158.336490 26.417694 3 1
73.236450 150.451770 62.239552 2 1
82.878975 79.757019 -70.338387 1 1
-44.768032 108.471730 77.141891 30 1
128.892470 138.073320 62.081257 33 1
-44.639835 70.158501 -17.136490 11 1
1.169025 79.197586 -10.656945 25 1
104.817980 148.553760 69.246635 33 1
5.182261 98.052475 20.299406 17 1
95.263222 138.782420 33.178627 3 1
59.907795 205.858400 -18.852734 28 1
6.203897 200.655330 -15.449386 26 1
-62.320057 219.447880 -20.124332 24 1
116.682270 141.819700 72.536728 33 1
-99.053513 155.838730 48.223972 29 1
15.952538 16.014143 -10.206045 4 1
-14.156868 198.435610 16.407654 22 1
21.386404 220.055620 1.760163 20 1
51.765583 198.052190 -9.432723 18 1
-89.266319 204.126530 -43.692932 31 1
46.425385 142.189680 30.331722 0 0
-68.761185 116.443120 65.025337 30 1
11.166286 13.014794 24.967152 5 1
61.852318 225.406370 -18.701738 28 1
36.773510 225.584630 11.905498 19 1
-1.304396 83.666992 -5.274012 25 1
-15.799437 68.656822 -17.927904 25 1
-12.535513 45.463280 -0.415990 0 0
-0.325867 131.387620 -4.884667 0 0
-95.589325 136.080350 79.766426 29 1
-75.088661 220.800740 -29.144547 31 1
39.691826 87.514961 -66.041321 12 1
69.492073 176.992170 -23.133839 28 1
65.358292 101.570590 -26.205252 23 1
95.656906 148.931260 22.784863 3 1
63.558392 103.720440 -66.206642 1 1
-63.102432 210.103390 -18.004253 21 1
-16.826614 205.631810 -6.972334 24 1
-18.841187 75.618973 -15.497753 25 1
-18.615705 58.677010 -8.736336 0 0
47.243519 220.930500 13.730371 19 1
102.264500 167.661540 52.746426 33 1
-111.078140 182.086490 -32.045902 31 1
-75.322487 132.339890 14.987777 32 1
-79.839027 124.851400 11.878181 32 1
51.204094 226.705610 -1.276199 19 1
-48.056778 215.907300 5.578715 21 1
-32.716442 198.574160 22.147985 22 1
61.004902 150.980360 64.555656 2 1
-131.028610 135.080990 72.603966 29 1
-96.796379 152.501400 53.373146 29 1
-0.781979 76.511749 46.443691 6 1
96.586655 136.875050 -2.930363 3 1
-64.930550 136.596330 58.225315 30 1
37.826180 130.597640 20.961258 0 0
64.526054 133.539430 74.382973 2 1
-34.346806 212.450390 -0.339431 24 1
-2.263741 128.054840 0.224684 0 0
39.401951 192.695100 -23.379856 18 1
111.195780 149.309520 65.630745 33 1
-55.993465 54.222416 34.171734 8 1
70.297470 145.799550 66.221405 2 1
114.027660 153.436720 58.594482 33 1
-49.529167 39.346668 48.221062 8 1
54.198063 210.712970 -10.296918 18 1
-73.433601 51.505478 39.811378 7 1
-44.811966 175.182480 -61.298149 14 1
-49.186367 205.637370 -42.550179 14 1
44.546688 157.681320 65.603821 2 1
-111.923760 152.589750 60.550568 29 1
111.360180 136.211750 75.838707 33 1
78.632561 170.540360 -9.681263 28 1
-113.780420 177.485180 -24.902893 31 1
-37.177219 181.783890 -64.557800 14 1
-39.236164 211.232480 -4.947092 24 1
1.947859 82.221191 3.006587 0 0
-54.887009 216.769300 -20.614206 24 1
52.297489 238.038600 -10.681084 28 1
-58.935688 39.471107 48.296059 8 1
54.242584 104.082760 -43.362652 23 1
47.618271 190.474780 -12.272594 18 1
-56.392620 51.248268 43.092014 8 1
52.529465 165.402370 62.789238 2 1
-86.193222 127.084830 25.184240 32 1
-65.429550 51.063919 -0.104227 9 1
-32.233616 183.443920 -11.614914 0 0
36.062931 184.097370 -24.080362 18 1
-67.549759 49.579735 9.397112 9 1
53.592140 146.363310 32.286156 0 0
-61.160446 60.313972 33.010624 7 1
70.409714 206.890010 -8.919256 28 1
9.839845 93.513489 45.263725 6 1
-69.808792 179.874070 15.427916 21 1
92.733780 154.470230 30.405569 3 1
79.912521 144.187940 65.206596 2 1
-25.733011 213.844100 -38.438469 14 1
-29.732859 200.421970 6.369174 24 1
68.307762 193.792160 -24.544142 28 1
-59.038155 183.025540 21.617922 21 1
11.974372 19.294355 -17.559015 4 1
-15.007602 80.973679 -8.237107 25 1
-102.969890 195.485640 -31.268526 31 1
-22.657677 184.061710 37.231606 22 1
-39.594284 89.028999 -6.857721 11 1
-71.097534 140.711410 28.001827 32 1
79.057144 167.951840 51.321644 2 1
110.619770 162.103930 54.317059 33 1
63.381218 187.401140 15.672963 19 1
59.015965 102.195600 -45.514175 23 1
1.554886 104.893410 27.317137 17 1
20.325710 211.332690 -23.433899 18 1
98.958527 152.692990 74.848175 33 1
-89.900879 214.709720 -20.314735 31 1
-54.880966 201.422500 -46.320778 14 1
-48.037766 56.098244 23.390223 0 0
74.223450 73.669823 -30.315804 23 1
114.160880 158.826080 52.659710 33 1
74.609451 75.536293 -25.556179 23 1
-67.005554 184.185380 6.967276 21 1
29.092001 186.105390 1.120063 20 1
-32.797092 199.320510 2.237762 24 1
48.947357 203.096800 21.893665 19 1
58.664555 237.066420 -9.000580 28 1
46.172707 132.499760 76.910255 2 1
-78.770462 220.115880 -25.283619 31 1
3.207564 176.060270 -4.963071 0 0
73.637665 169.895200 28.668221 3 1
-49.393028 100.949180 77.083260 30 1
-46.930351 127.999130 34.816090 0 0
-4.014803 74.394501 4.036328 0 0
-78.268715 175.374070 6.692699 21 1
-48.009911 92.856705 -5.640448 11 1
81.448265 155.625080 23.266390 3 1
134.882490 126.262230 68.878197 33 1
32.857975 189.224470 -19.251791 18 1
58.849491 204.641130 3.092075 19 1
-26.608801 199.201970 -55.096867 14 1
52.629444 192.920960 -10.187182 18 1
-48.196075 176.783510 -64.388260 14 1
-61.749855 151.505740 25.251577 15 1
89.571205 162.246310 59.233433 33 1
-50.102814 130.480260 68.375565 30 1
-50.839909 144.226210 52.520374 30 1
-81.366249 131.353000 18.242867 32 1
-112.588390 185.310700 -24.380680 31 1
-117.847050 173.416290 -23.705717 31 1
99.156151 140.415830 26.158058 3 1
70.575684 171.793560 35.389450 3 1
-59.878941 193.372280 -7.362457 21 1
-88.052711 156.505050 46.098198 29 1
55.006889 225.820850 -23.551714 28 1
116.267680 137.078380 71.654358 33 1
-54.867367 207.397430 -22.077225 21 1
54.653080 236.363970 -17.832102 28 1
-46.112602 136.323070 63.654305 30 1
102.687380 163.722400 56.202164 33 1
-120.264880 165.521450 -25.214720 31 1
103.762350 158.284260 63.047535 33 1
68.563484 188.571930 -12.031251 28 1
-50.326523 51.668945 39.557827 8 1
-54.439266 208.858120 5.901654 21 1
128.936170 155.660600 49.111740 33 1
-103.703660 156.981840 47.638855 29 1
-67.970940 87.424973 3.338367 10 1
43.179516 141.607390 26.155481 0 0
49.964279 102.783680 -56.307770 12 1
21.818674 183.145140 -0.849577 0 0
-41.980129 216.752080 -21.642202 14 1
-33.449638 192.257060 -14.069817 0 0
-21.497044 169.337170 -7.677955 0 0
-51.932648 194.139470 -53.112869 14 1
-44.611393 114.199720 77.554016 30 1
42.644459 214.570430 19.726622 19 1
-65.507782 144.677050 24.071009 32 1
1.144315 15.786493 2.626878 0 0
-74.114967 218.601100 -24.024452 31 1
-14.251052 207.479450 2.319520 22 1
-8.410226 79.691795 -7.398998 25 1
6.847125 209.995930 -1.716853 26 1
-95.882195 140.639630 78.026306 29 1
84.198441 209.074910 0.234599 28 1
-75.397820 46.479774 44.477291 7 1
-26.165949 203.535930 -9.722320 24 1
92.834221 139.883260 -4.207174 3 1
61.003414 217.552660 -17.870747 28 1
-56.575008 120.686610 67.526741 30 1
-121.952760 148.845720 59.730927 29 1
3.911780 72.835457 5.398594 0 0
21.762346 220.789790 -8.614082 20 1
-55.537342 197.661760 -13.259956 21 1
5.081726 82.550545 47.055824 6 1
-41.810223 81.418465 -13.882473 11 1
-118.756230 141.330380 71.203590 29 1
4.199118 80.683151 -1.481718 0 0
-100.389340 149.495000 59.835590 29 1
-36.834320 196.909560 3.215130 24 1
82.177513 184.668880 -7.026716 28 1
-70.011108 134.816190 8.338151 32 1
26.393278 193.462160 20.610310 20 1
42.509224 203.915800 -21.405878 18 1
-105.621790 137.864060 78.741150 29 1
20.420168 78.917084 0.049172 0 0
-106.952280 152.977970 53.330482 29 1
16.620512 214.495880 -14.506187 20 1
48.829288 188.842010 23.847090 19 1
32.932339 194.544240 -16.439220 18 1
55.743492 114.513030 79.690506 2 1
-56.461311 135.937500 38.404808 0 0
86.751869 83.637474 -63.762699 1 1
61.343975 115.412780 78.834564 2 1
19.502775 92.267708 34.615604 16 1
-68.271049 52.929169 16.626287 9 1
65.011971 218.268690 -13.177020 28 1
62.738029 127.018880 77.030472 2 1
-50.147903 125.228840 70.882446 30 1
-74.297485 167.941570 11.594922 21 1
28.443031 86.620392 -65.798309 12 1
-116.248280 170.325440 -31.167467 31 1
-38.059387 192.996700 15.194765 24 1
17.941164 93.317757 48.997826 6 1
79.495079 164.324460 15.704465 3 1
-18.034439 192.757610 30.312843 22 1
56.702557 213.577440 16.221085 19 1
-91.605789 147.431300 69.495567 29 1
-60.161057 129.142730 61.970005 30 1
74.332413 184.870860 -8.293377 28 1
43.022949 183.708300 -20.070789 18 1
-29.461332 213.111950 -6.964764 24 1
-64.987061 146.794450 6.674128 32 1
-14.662580 81.383713 -14.946300 25 1
-38.441704 174.614470 -68.147911 14 1
42.324265 90.875839 -63.650646 12 1
38.040314 193.773240 1.153643 20 1
25.563730 91.002953 -63.067406 12 1
89.375771 147.258380 -4.075051 3 1
59.197933 218.565960 8.345450 19 1
-82.484680 126.185690 16.742411 32 1
-45.701267 89.363701 -10.626844 11 1
-71.781281 138.772840 52.781147 30 1
-42.036381 91.840340 8.010641 13 1
93.532845 134.978520 7.998358 3 1
-53.667084 189.204910 6.506277 24 1
65.999702 160.925480 41.338936 3 1
1.449744 10.454905 0.516237 0 0
1.451703 189.592380 -6.629333 26 1
37.655922 229.702650 -5.469422 20 1
43.997101 198.643540 -20.524956 18 1
-11.261656 206.188130 18.984695 22 1
-65.466164 118.322070 67.949326 30 1
28.612400 186.877760 8.981246 20 1
6.295769 95.796394 42.972881 6 1
97.467064 147.492490 79.655807 33 1
33.370781 87.541191 -30.293610 0 0
66.194328 232.673690 -6.737116 28 1
-106.637930 190.005840 -33.328903 31 1
-31.820415 200.241130 -2.657804 24 1
-30.592037 178.817470 -66.521309 14 1
14.701499 175.408100 -3.413830 0 0
0.907778 0.921787 1.799382 0 0
-91.757729 151.610060 60.207767 29 1
61.233826 210.801040 4.231612 19 1
47.186710 104.190730 -46.457207 12 1
-95.146568 154.083220 57.931988 29 1
0.672213 100.131760 28.804817 17 1
5.845940 75.685966 48.524326 6 1
98.124931 135.943730 11.241906 3 1
63.753269 144.674000 68.129425 2 1
76.798851 217.803890 -1.666732 28 1
59.768379 219.202710 -24.956642 28 1
-61.172768 60.671219 10.508524 9 1
-10.305926 194.075530 26.085106 22 1
60.233002 185.196140 18.427643 19 1
69.941490 154.551090 64.889015 2 1
-111.954770 141.399440 75.806419 29 1
-65.782936 102.516440 70.773056 30 1
-2.603589 85.286507 47.036007 6 1
7.450041 207.888670 -11.271793 26 1
-118.181280 136.353060 78.125481 29 1
-51.997864 96.575485 1.429538 10 1
-107.565510 188.678760 -42.731682 31 1
54.156979 137.765700 76.726669 2 1
-27.964186 205.196880 20.387802 24 1
-53.716721 133.727190 61.977356 30 1
43.903957 179.277590 -18.535578 18 1
-23.237896 187.263760 31.644094 22 1
104.394420 170.380430 48.152695 33 1
82.257652 179.528150 -5.368774 28 1
98.677849 157.427200 61.623238 33 1
98.088776 128.969070 0.425230 3 1
-63.873539 54.160957 3.359717 9 1
-42.956989 187.954190 -49.859032 14 1
21.617729 198.483340 14.327202 20 1
-49.062458 71.532471 27.091864 13 1
77.087654 212.085010 -7.857754 28 1
72.426926 167.706940 12.930545 3 1
30.877146 191.797150 22.934755 20 1
-49.979534 197.373410 -25.254004 24 1
-88.665230 215.210860 -10.779896 31 1
81.917328 160.918320 7.970218 3 1
-46.675961 94.634590 8.047471 13 1
16.980513 206.259780 -12.326870 20 1
57.481564 195.440730 -10.087517 18 1
-45.759460 74.990555 -16.624838 11 1
74.254723 91.484039 -65.724449 1 1
-100.633420 143.169560 70.518036 29 1
117.628550 157.458340 56.106720 33 1
76.322151 153.846510 59.064442 2 1
-41.304356 129.724550 69.504883 30 1
94.374161 148.060470 14.398156 3 1
-1.146874 98.654160 42.419632 6 1
64.288147 198.440110 -26.397760 28 1
-58.980610 136.480930 57.355148 30 1
-10.825075 77.724045 3.757679 0 0
41.081348 134.182920 24.852568 0 0
71.420418 159.216200 48.429737 2 1
-51.670025 74.640228 -13.833807 11 1
29.320114 197.566130 -1.245339 20 1
-63.190598 185.304660 24.699209 21 1
-97.711380 202.777790 -24.338242 31 1
14.870177 99.810768 31.886265 16 1
33.563461 93.975746 -64.095566 12 1
-65.995979 195.702160 -14.103668 21 1
107.887750 159.980560 58.038120 33 1
55.982700 142.203220 74.816841 2 1
-17.110582 66.284630 -13.071386 25 1
33.213436 216.475370 20.463676 19 1
83.553879 167.327940 49.383739 2 1
-104.812130 200.933840 -18.610054 31 1
94.653732 138.939390 18.986031 3 1
-96.264816 145.984650 72.917816 29 1
0.773263 170.658950 -7.820043 0 0
18.226509 100.974400 43.571468 6 1
40.375679 218.206040 17.590528 19 1
-105.826060 198.305850 -28.871117 31 1
-21.102615 204.906880 -15.061560 24 1
-77.001907 221.340550 -17.989676 31 1
14.515193 95.362206 45.369968 6 1
84.296211 163.480480 35.830452 3 1
28.150866 176.808580 -26.110462 18 1
47.141041 141.408480 72.031143 2 1
41.255245 184.439060 28.866840 19 1
48.013248 169.661480 -10.386620 18 1
47.701359 91.100418 -65.156349 12 1
18.213055 106.790080 20.726885 16 1
140.025560 133.458330 61.804848 33 1
44.579712 98.282295 -61.715885 12 1
-46.063095 90.750847 15.028930 13 1
80.758995 215.925900 1.305052 28 1
12.492093 170.278560 -3.285035 0 0
69.360291 93.510330 -24.455276 23 1
141.832380 121.534390 67.821426 33 1
-39.749004 197.434890 -3.905258 24 1
9.126521 98.295822 0.052240 0 0
-60.678654 140.872410 51.580143 30 1
36.806744 198.939910 -1.997556 20 1
2.374940 18.459406 14.330695 5 1
-111.950740 192.430020 -10.005070 31 1
-40.170517 198.220140 -12.301094 24 1
-31.601839 210.221330 -43.627373 14 1
-60.460960 203.806840 -26.474722 21 1
92.123245 148.838100 5.881560 3 1
103.851460 163.720090 50.856331 33 1
28.281948 101.014470 -58.343330 12 1
-26.969137 209.164340 -24.614250 24 1
-102.579110 198.172470 -22.706457 31 1
-34.009724 196.636720 -34.077045 14 1
-80.002403 118.402870 5.863331 32 1
-105.510820 142.519450 70.890236 29 1
-49.171101 77.972153 -10.561020 11 1
-1.508241 92.202194 27.606384 17 1
22.012028 186.478090 -4.074818 0 0
77.235420 160.421190 4.760863 3 1
-64.942780 144.290820 16.943253 32 1
93.199257 143.176620 33.785580 3 1
94.526184 131.044080 5.753144 3 1
-59.334839 52.720055 37.022736 8 1
-5.102148 32.252369 -1.079439 0 0
-58.976543 199.363630 -35.496368 14 1
-22.182270 207.692500 -44.539078 14 1
7.652621 54.221836 -1.484437 0 0
-68.924767 201.804350 -17.921690 21 1
84.756172 87.364357 -60.574009 1 1
80.191139 194.043240 -0.333380 28 1
97.967209 164.572830 57.379986 33 1
-44.379761 93.394142 0.967691 13 1
-87.462440 120.180980 15.218735 32 1
-75.463173 44.615349 -1.480079 9 1
46.286434 150.397310 68.095856 2 1
22.037582 223.476040 -15.647125 20 1
40.319504 192.495590 28.295830 19 1
-59.189888 60.182178 6.146164 9 1
-63.953495 204.665540 -4.637293 21 1
-44.665287 214.650150 -28.627666 14 1
-28.340265 203.525250 -23.886395 24 1
105.516400 153.462280 63.995281 33 1
-79.262520 112.622340 1.201966 32 1
-29.151972 217.355930 -30.418097 14 1
69.877953 105.657710 -49.252460 1 1
-2.805450 61.237083 -1.725645 0 0
-53.331669 183.276180 -58.108852 14 1
-94.119606 208.407960 -14.768860 31 1
-11.527258 70.455681 -17.863287 25 1
103.454220 158.710830 57.387825 33 1
-75.036278 137.526500 27.541388 32 1
-60.684853 51.708199 -4.714251 9 1
-15.987496 208.981220 8.833733 22 1
30.597685 194.660740 -26.623039 18 1
0.517233 81.137985 45.232285 6 1
44.476627 148.642850 73.799553 2 1
-17.136250 196.987640 19.608311 22 1
-78.174591 146.845470 63.747005 29 1
-97.329979 204.409320 -17.986990 31 1
-15.637100 202.099260 3.259929 22 1
-3.499034 189.536800 -2.198480 27 1
33.012207 191.045210 1.125503 20 1
-70.747284 46.311859 49.636066 7 1
14.744743 13.744485 19.802988 5 1
-53.127502 86.203362 -7.161296 11 1
79.780304 97.228981 -54.833237 1 1
-79.186646 218.721850 -30.656393 31 1
71.354340 214.822890 -7.232550 28 1
81.196701 155.968720 57.590771 2 1
-41.567230 193.050930 -36.206520 14 1
120.130050 135.268040 75.777084 33 1
69.994026 140.607160 73.386681 2 1
-102.951570 196.046970 -40.268684 31 1
99.462410 151.569340 67.895393 33 1
124.500110 133.132490 68.685509 33 1
0.912393 98.661827 15.547835 17 1
-90.600304 211.842480 -29.546707 31 1
117.255370 162.710490 51.063629 33 1
-65.439308 56.922100 41.551937 7 1
-58.320702 202.382460 -43.355358 14 1
124.648880 128.771210 72.562225 33 1
133.992250 148.960680 53.158794 33 1
11.288668 87.954193 48.062660 6 1
73.655235 82.079865 -21.242229 23 1
-51.563747 139.199070 58.821381 30 1
11.864594 58.520084 -6.757813 0 0
-76.737717 120.094810 -1.286622 32 1
33.291203 179.920870 -20.377367 18 1
7.307095 18.367931 8.658501 5 1
-114.865960 184.738300 -15.489758 31 1
-101.520170 203.529050 -28.824137 31 1
-66.691010 182.052080 19.804085 21 1
-0.006980 185.356290 -5.726437 0 0
75.123878 209.543640 -11.546636 28 1
25.687845 200.209730 -2.640865 20 1
60.960945 214.053790 0.848930 19 1
-49.995338 180.332550 -55.892826 14 1
-3.367823 101.133480 17.725090 17 1
-62.607834 150.790510 29.984245 15 1
-66.627518 55.318516 10.091448 9 1
80.400063 84.908997 -70.105736 1 1
40.705669 228.907100 3.161867 19 1
-61.879314 54.913246 14.638165 9 1
-80.597443 137.089600 39.101765 32 1
-114.940230 181.387970 -22.641474 31 1
-64.912384 149.035680 22.880791 32 1
-48.978241 188.361530 -57.018200 14 1
57.244034 164.257550 62.868473 2 1
27.062790 227.370160 -14.616376 18 1
-50.004292 195.608050 -34.452042 14 1
-0.350790 22.587862 2.267081 0 0
145.305600 126.948750 62.529137 33 1
10.830832 110.283550 31.842033 6 1
28.653971 94.728531 -62.931778 12 1
29.742569 224.350220 -17.033651 18 1
24.197046 222.303530 -2.431001 20 1
48.441067 189.027970 10.879624 20 1
-40.082722 196.795640 -23.866884 24 1
37.274902 178.870220 28.760359 19 1
-35.244583 192.681230 -47.058617 14 1
57.853718 204.397950 -7.375315 18 1
50.811481 157.821270 63.254799 2 1
-43.705975 190.011750 16.123531 24 1
-53.371483 89.430374 5.981769 13 1
-106.615040 147.313230 63.434380 29 1
111.017840 166.384410 48.103325 33 1
-123.771430 131.359760 76.228798 29 1
2.119735 161.572800 -6.901945 0 0
33.582001 200.166660 -8.752271 20 1
41.389309 224.459960 11.422222 19 1
38.415874 166.248520 -16.574299 18 1
-74.678581 174.433070 12.282532 21 1
-6.613425 129.363690 -0.723499 0 0
78.427422 152.839040 64.563942 2 1
-78.082077 53.328732 39.141571 7 1
-27.381989 202.340390 24.103439 22 1
-0.958797 121.986390 -4.489161 0 0
69.794220 162.779820 22.833172 3 1
68.699341 100.718770 -60.641094 1 1
-130.131760 146.309880 65.375626 29 1
15.267344 210.223680 -15.871954 20 1
-7.212864 72.402328 -12.125546 25 1
43.359673 207.324940 23.153334 19 1
-51.785679 44.355503 45.370720 8 1
-65.170273 89.740242 0.008723 10 1
36.885513 195.558400 -14.323269 18 1
-58.430576 144.239700 40.882198 0 0
25.231220 101.936520 23.589418 16 1
-29.922718 214.542180 -35.728428 14 1
28.659061 225.670880 -0.161789 20 1
-71.499252 189.901060 -9.782235 21 1
1.846666 95.182053 44.520123 6 1
40.635746 88.987732 -34.632404 0 0
-114.643260 178.053940 -29.297968 31 1
122.728910 142.409180 67.618881 33 1
73.505737 180.639210 -9.814237 28 1
97.744560 147.812210 75.165031 33 1
-75.240227 130.829590 5.799149 32 1
7.270113 151.131590 -2.355335 0 0
-116.277500 180.928100 -18.235502 31 1
-49.259186 84.375336 19.530691 13 1
56.325298 206.712460 -32.013298 28 1
-49.008007 205.375520 24.673103 21 1
-25.481709 171.589870 -8.891403 0 0
-58.595604 60.829746 25.733343 9 1
-12.517165 201.600010 23.429434 22 1
127.804860 153.399540 54.675396 33 1
8.289745 105.276600 27.672543 17 1
-61.429539 180.583130 28.090048 21 1
-55.258595 198.450820 -32.326672 14 1
14.854605 103.106120 6.373247 0 0
-87.970406 214.954710 -24.497484 31 1
5.475816 59.837994 -2.143923 0 0
57.248833 196.538880 -21.194448 28 1
-66.540909 72.138962 -3.231864 10 1
59.359386 211.712860 -3.573774 18 1
-48.736279 76.716835 24.659498 13 1
-23.707628 73.102356 -19.710432 25 1
47.832825 226.322710 6.774983 19 1
-49.861271 87.146576 8.574640 13 1
48.057049 125.070880 80.808693 2 1
74.486832 129.436050 78.173790 2 1
-11.518574 201.345660 10.122359 22 1
-72.011635 220.705950 -20.663187 31 1
-25.409235 179.891280 -10.464682 0 0
53.447655 201.980190 19.324863 19 1
23.188456 184.606050 -25.343431 18 1
0.316162 83.680710 -0.964138 0 0
-37.700333 195.528530 27.274164 24 1
-94.127747 205.185990 -27.710800 31 1
-58.946060 58.128479 18.588434 9 1
-102.568870 134.361970 78.586044 29 1
6.541609 202.067470 0.166387 26 1
70.572258 173.208940 18.935789 3 1
91.687828 139.061630 8.733569 3 1
-76.859955 187.559920 -6.385721 21 1
15.798486 88.697281 50.395008 6 1
-16.250702 75.457703 -2.486687 25 1
-8.849632 199.327560 18.712410 22 1
-78.318344 180.768360 0.841621 21 1
69.064308 167.886960 42.325520 3 1
40.731220 200.859560 -3.415918 20 1
-73.872276 49.040970 12.905464 9 1
101.824780 130.017030 19.844429 3 1
-44.959003 191.711620 7.001549 24 1
80.033905 179.061290 -9.353036 28 1
-108.444710 196.860470 -12.583711 31 1
24.193649 103.130910 19.412071 16 1
135.076220 140.435410 56.848335 33 1
-4.469166 206.018390 21.384563 22 1
79.490776 139.630190 72.021149 2 1
77.639847 160.081240 59.546108 2 1
-0.304811 3.180170 -1.972871 0 0
-92.732208 140.506480 74.545151 29 1
17.518805 202.033460 -25.846745 18 1
73.911774 146.094800 69.127037 2 1
-69.521835 145.920140 36.181255 32 1
-11.896009 208.733200 11.068965 22 1
11.459042 160.663310 -4.379197 0 0
23.696402 194.342290 12.402240 20 1
-67.174545 80.503471 -10.447453 10 1
68.648842 87.191727 -36.326954 23 1
-69.530334 197.217000 -4.330410 21 1
-129.796720 141.564290 70.755173 29 1
-54.407780 87.696930 13.346534 13 1
-91.975441 155.538470 55.074905 29 1
-40.514191 121.239500 27.194324 0 0
122.707120 147.320330 60.026447 33 1
32.537670 177.786300 -24.682259 18 1
-47.617409 81.553284 -13.837954 11 1
95.926903 147.565890 34.914494 3 1
-66.738022 109.351590 66.651657 30 1
-81.805260 215.236150 -36.439175 31 1
-62.395321 205.615370 -20.928316 21 1
78.947960 91.507164 -65.644310 1 1
38.314651 172.068160 29.170523 19 1
96.685722 161.735720 62.736145 33 1
-47.717953 214.311310 -13.924551 24 1
65.606491 213.782730 -21.411663 28 1
0.750766 119.561410 -0.882689 0 0
33.710743 82.333885 -68.787682 12 1
-20.247097 204.608120 18.452152 22 1
-41.207237 96.860489 10.769761 13 1
2.984362 207.663190 -4.884214 26 1
1.151037 17.568218 -4.695477 0 0
-17.819588 77.846985 -6.818819 25 1
-65.320412 188.323880 16.068617 21 1
-115.586640 143.498380 68.817116 29 1
-101.702180 200.346770 -15.123633 31 1
6.603240 15.884898 19.878311 5 1
83.509117 150.967740 59.486279 2 1
63.224354 221.268510 -19.763937 28 1
-26.107170 194.147050 22.517902 22 1
53.520821 230.086410 -24.514229 28 1
11.712026 69.906235 3.335089 0 0
71.668358 81.618416 -30.990503 23 1
-42.749401 86.333702 21.340998 13 1
-62.256153 115.246440 67.093140 30 1
-80.340012 175.363940 2.563261 21 1
-90.766502 208.455230 -26.466066 31 1
14.525729 68.814629 -15.211010 0 0
-51.564228 215.436110 -23.390032 14 1
88.310371 139.254680 -3.919698 3 1
50.422241 145.310590 74.454483 2 1
-65.454903 172.831190 27.515417 21 1
-65.515175 202.047530 -20.727983 21 1
-2.074094 92.421173 18.682341 17 1
-67.107391 128.431020 60.253685 30 1
-15.404576 199.003070 12.039494 22 1
-47.134022 210.714100 20.553545 21 1
-56.333237 188.253330 27.549183 24 1
61.861004 147.596800 71.119057 2 1
52.714375 174.265060 23.153847 19 1
-4.142370 51.552071 -0.066474 0 0
-64.442970 86.150330 -4.504509 10 1
-100.873630 206.086430 -8.960454 31 1
23.722229 95.070274 28.978319 16 1
-18.815762 196.934040 25.819147 22 1
-57.176006 193.862060 26.385391 21 1
41.274921 142.135300 72.328232 2 1
-65.913216 142.993730 49.370506 30 1
-35.661434 193.980800 18.801195 22 1
72.386688 163.670300 17.355778 3 1
74.359543 165.490780 8.311630 3 1
2.429034 208.386020 -12.589914 26 1
60.274757 180.920000 19.502140 19 1
-59.448360 147.716370 43.581181 0 0
-33.747944 76.748390 2.048964 0 0
-69.283302 49.530472 1.547648 9 1
74.162025 168.600770 48.823048 2 1
16.816021 179.192250 -4.721573 0 0
-66.276115 66.581680 -6.802457 10 1
52.441204 150.040310 30.150238 0 0
96.225876 135.342510 15.309007 3 1
74.771194 140.674420 72.500687 2 1
-56.109791 139.649630 56.211292 30 1
-88.861084 160.830670 47.014256 29 1
-74.051888 136.210710 7.284121 32 1
48.002621 214.477020 18.755051 19 1
27.804251 119.547200 13.088093 0 0
100.811990 136.015720 26.372923 3 1
-91.271324 152.278670 51.507755 29 1
26.192556 98.493652 -55.163002 12 1
-73.246284 124.390720 -1.086720 32 1
-68.844345 145.424960 43.695946 0 0
-66.978279 168.686490 25.814856 21 1
-60.864960 124.609050 63.974552 30 1
-40.365276 77.277847 -14.223869 11 1
15.657680 211.360900 -22.753813 18 1
-57.637367 55.941463 -0.434298 9 1
-82.646637 122.376240 9.570043 32 1
-51.108223 191.252500 3.511703 24 1
2.609503 141.728300 -4.463848 0 0
-57.299446 200.116640 -23.903397 21 1
-113.576160 156.123840 54.591087 29 1
-45.529724 141.936480 59.458126 30 1
43.171310 182.074260 -15.133776 18 1
52.354866 222.897750 -28.974930 28 1
69.180298 227.929140 -4.602404 28 1
68.176483 95.264549 -35.590984 23 1
87.193596 158.321590 20.789572 3 1
33.753513 178.973820 31.709526 19 1
104.467080 150.070310 74.184433 33 1
67.173645 127.229390 76.903816 2 1
28.608212 209.085390 25.760031 19 1
58.280704 173.553050 17.076712 19 1
-72.950897 135.991470 16.461037 32 1
-115.728040 174.569290 -32.128757 31 1
-77.511093 45.301197 2.663196 9 1
-53.705090 198.751600 -17.750450 21 1
-22.509014 73.187096 -14.224352 25 1
44.593235 170.315840 26.055256 19 1
4.715887 158.541580 -1.479488 0 0
-72.102325 196.654590 -14.052876 21 1
43.406338 96.494789 -36.787495 0 0
100.670360 156.318980 68.777359 33 1
74.892044 175.507810 -14.788239 28 1
-33.549740 187.824620 -61.687496 14 1
-72.028297 54.893879 19.333174 9 1
86.649429 96.438217 -54.500832 1 1
-79.595428 167.800280 6.902241 21 1
68.898285 90.359566 -30.487286 23 1
37.069775 85.623459 -31.608576 0 0
61.240974 188.313890 -18.691610 28 1
34.188099 222.954380 15.213346 19 1
-0.327120 138.863650 -1.393499 0 0
-123.393870 141.380280 70.942291 29 1
68.453583 134.260280 77.167023 2 1
-0.637490 176.415700 -7.015490 0 0
108.891180 170.725370 48.446205 33 1
87.926636 160.353000 32.759216 3 1
-36.407009 84.823944 -12.987844 11 1
71.149338 216.730090 -12.899213 28 1
61.403313 107.052750 -61.296703 1 1
29.089577 228.291850 10.150978 20 1
49.885796 176.442260 -13.275457 18 1
39.496582 181.863340 -21.989666 18 1
11.457006 95.567680 15.771039 17 1
82.134804 147.336350 62.007267 2 1
68.822250 180.430650 -13.767581 28 1
-39.258091 210.390120 16.295946 24 1
-52.537376 207.697570 -18.412214 21 1
-16.519987 74.222038 -19.217131 25 1
-54.533634 194.786160 -40.358185 14 1
-4.429703 88.066719 24.546427 17 1
-38.188816 184.185390 -58.032951 14 1
-64.949928 123.868860 66.539696 30 1
-66.931168 141.385820 12.690021 32 1
-112.333820 146.704740 63.998688 29 1
-57.978577 209.583040 -3.259147 21 1
32.612373 125.742970 18.650774 0 0
-0.624740 64.541916 -3.511124 0 0
55.932281 205.113110 17.536108 19 1
-73.536339 179.112870 2.120584 21 1
-100.762120 157.391860 53.477581 29 1
86.173378 160.645390 28.092443 3 1
1.580282 197.965470 -4.110245 26 1
-47.879471 197.956010 -17.481121 24 1
69.839737 123.409190 77.880859 2 1
51.165165 217.321470 15.972175 19 1
-37.349831 44.703163 16.117632 0 0
-55.029526 211.201640 -31.038380 14 1
64.009933 108.529390 -51.703552 1 1
3.414553 88.681091 47.480839 6 1
1.192917 148.260410 -2.294888 0 0
-82.872002 41.618828 48.281658 7 1
66.753914 119.382490 81.240410 2 1
-2.458246 38.642941 -1.435177 0 0
0.861329 100.602730 39.109623 6 1
-42.313293 181.940550 -56.460896 14 1
74.708084 79.929848 -25.239906 23 1
-63.242222 84.075203 -16.679245 10 1
-1.087335 111.587490 2.112358 0 0
-21.101736 200.073140 23.235323 22 1
2.222121 18.579193 -13.720395 4 1
-8.171624 197.037610 23.111702 22 1
100.071070 130.249190 11.287993 3 1
-80.342659 39.648964 53.942451 7 1
45.182148 198.324480 0.526636 20 1
34.375122 102.970990 -56.024139 12 1
-60.244259 54.326645 41.344166 8 1
20.757303 207.526260 26.617861 19 1
80.676392 155.594920 1.818230 3 1
-38.616554 88.639725 1.094259 13 1
36.911476 211.655520 22.584227 19 1
-36.356483 212.375020 10.332161 24 1
65.703926 93.072838 -43.067738 23 1
-68.569550 204.504610 -14.567410 21 1
-2.818633 44.472744 2.237150 0 0
-109.974400 185.278020 -28.618328 31 1
-23.303288 191.541760 30.668743 22 1
-26.858789 205.653030 -32.143154 14 1
-45.348499 85.455711 14.980851 13 1
33.525757 171.058960 -21.786541 18 1
122.806110 154.041350 56.871574 33 1
66.565552 159.960430 49.834595 2 1
-125.691830 141.166410 74.993195 29 1
18.579102 104.863400 25.736748 16 1
-103.816710 149.442350 67.201782 29 1
-63.309540 146.734710 31.458500 15 1
21.390041 85.430283 -2.068270 0 0
-8.839863 38.114758 -0.978678 0 0
-38.405304 91.924416 -10.022178 11 1
-90.275620 204.622380 -39.537746 31 1
25.273960 188.360690 -1.289089 0 0
-15.198451 185.123720 35.602188 22 1
-58.598816 197.093410 18.544039 21 1
1.658330 153.444840 -3.791282 0 0
-18.630411 73.168869 -9.222784 25 1
90.767166 154.070570 17.840868 3 1
86.611900 148.273710 8.823669 3 1
34.447826 89.602715 -64.586525 12 1
92.244629 155.460280 68.826721 33 1
11.966826 82.359818 7.336494 0 0
55.256790 189.453810 15.782907 19 1
13.071727 87.602180 13.454537 0 0
-84.176704 218.072040 -14.436236 31 1
26.568981 192.028460 15.662226 20 1
-70.938675 45.786167 -2.854954 9 1
58.507683 165.869520 48.843174 2 1
-6.494262 77.677322 -17.505627 25 1
-61.455624 191.050310 21.349991 21 1
-74.489830 138.843120 13.314815 32 1
59.896175 167.693020 55.050575 2 1
54.297127 209.872440 18.303816 19 1
-27.519356 203.524200 -18.667843 24 1
137.005160 130.374220 63.529629 33 1
-100.243440 141.861130 76.716034 29 1
-65.609810 197.122060 3.570343 21 1
-75.465828 135.233430 20.991980 32 1
10.637225 15.820880 14.264338 5 1
108.257700 163.695770 50.034592 33 1
-70.436928 77.105263 2.811760 10 1
-3.177661 21.145872 8.387867 5 1
54.511940 189.661130 -14.038379 18 1
-118.358930 145.254260 66.061356 29 1
-40.007156 195.702940 0.444848 24 1
59.083660 194.385820 14.180589 19 1
-46.828495 89.924271 2.427612 13 1
-79.326530 45.659634 48.119221 7 1
-58.759106 184.416580 25.658743 21 1
-26.474352 201.606900 -39.991318 14 1
-3.299027 21.405193 -0.602725 0 0
-62.474392 198.615230 -43.089104 14 1
130.166780 149.877230 55.613850 33 1
72.897926 204.032780 -6.931915 28 1
2.464148 108.520060 -3.028606 0 0
-95.922066 204.149020 -38.075733 31 1
-94.689804 210.605210 -22.208904 31 1
-89.302574 126.372870 29.055973 32 1
-68.978455 201.511370 -9.523889 21 1
90.940514 142.501190 12.431713 3 1
-84.340042 150.705150 59.853096 29 1
-37.301418 80.742325 1.852663 0 0
9.337331 101.621350 31.019623 17 1
-102.492970 151.342650 56.229881 29 1
-3.397315 194.154980 29.682676 22 1
-86.648178 150.887100 52.791534 29 1
-47.155884 214.363140 -7.870614 24 1
-77.702492 183.709320 -2.340417 21 1
82.772636 143.276200 68.240891 2 1
-79.701294 153.032300 53.567291 29 1
-82.506630 43.975986 40.844734 7 1
25.792646 84.437592 -68.331268 12 1
-45.798820 196.070510 -5.470392 24 1
19.083078 201.322220 -15.651312 20 1
17.043678 217.322080 -17.866119 20 1
96.805069 167.110150 49.980698 33 1
